ply
format ascii 1.0
comment VCGLIB generated
element vertex 1651
property float x
property float y
property float z
element face 0
property list uchar int vertex_indices
end_header
-44.22895 -55.10001 -0.2450331 
-16.12817 17.14107 1.355029 
41.64513 50.29764 -0.4087208 
-50.59945 5.41062 -1.354998 
-6.229934 -25.04683 -1.355 
24.34272 -33.96918 -1.355001 
-28.59485 37.12263 1.355003 
35.40704 -7.279226 1.355003 
53.95302 19.71211 -1.355002 
31.00858 43.80868 1.355571 
11.33669 43.56149 -1.355 
-17.97367 -8.066297 1.355 
49.88602 38.12386 -1.349978 
2.367443 50.78886 1.355001 
-31.62239 6.348097 1.355822 
-5.284564 -47.62208 1.355 
23.34352 27.80468 -1.355001 
-7.92705 -21.56086 -1.355 
27.34519 54.04123 1.354999 
48.40742 -17.94728 0.6587913 
-19.32543 49.27032 1.355693 
-39.81385 16.04981 -1.354998 
21.64296 -19.78289 0.5925995 
51.91694 -27.3285 -1.355002 
17.51591 44.34901 -1.355001 
-23.56171 24.42505 1.350137 
-31.61295 41.66171 1.355005 
52.60236 -37.28522 1.354998 
-29.70493 35.25225 -1.354998 
-51.61748 5.182961 1.355006 
24.55464 -13.8165 1.002813 
27.33064 -8.726151 -1.355001 
17.81139 6.706006 1.355016 
-29.36822 -8.779962 1.345346 
-34.76611 -21.55622 1.355 
1.112391 53.58174 -1.355 
-47.31594 54.40894 1.352119 
16.09693 -31.42893 0.08427484 
9.861053 33.70883 1.020718 
-8.746838 -10.0039 1.354331 
-13.01739 44.01254 1.353534 
35.19449 -15.27003 -1.355001 
54.37537 -28.6633 -1.355002 
-52.9089 42.96454 1.286997 
29.17161 -34.70583 1.354999 
-32.98705 41.98744 1.355006 
-31.5776 9.498312 -1.354998 
-19.06928 -15.14723 -1.354999 
51.01703 20.60505 -1.355002 
-46.56451 -35.43643 -1.354998 
21.64674 -34.22288 0.7834783 
49.08465 0.184963 1.35501 
-19.54579 -10.59085 1.355 
33.9927 39.3068 1.355003 
-30.30173 -4.696369 -1.354999 
-48.91874 29.76034 -1.354998 
46.46054 26.65332 -1.355002 
-37.21218 5.811663 0.8984133 
-13.08605 8.725239 -1.354999 
-44.22683 55.1 -0.07912225 
-27.56274 34.984 1.355003 
-11.53379 -6.478945 1.355001 
-8.878277 -5.645455 -1.355 
-42.96069 25.94193 -1.354998 
-38.04029 34.4064 -1.354998 
-21.80409 -7.565523 -1.354999 
40.70639 28.07623 -1.355001 
-52.56818 17.27458 1.355124 
43.8445 20.49129 1.114149 
-13.97743 -37.83355 -1.355 
19.19928 -3.420363 -1.355001 
24.05068 48.88244 -1.355001 
41.76617 -25.07937 -1.355001 
-6.358603 15.78173 -1.355 
41.34004 -15.06122 1.355002 
-23.93522 48.59518 1.35561 
-32.81399 50.89842 -0.4051996 
-2.794642 49.01143 -1.355 
37.89805 17.85587 -1.355001 
-22.95702 -15.09519 -1.354999 
-31.85461 25.55001 -1.354998 
-14.39522 0.6859913 1.355006 
42.9545 1.848164 1.221338 
-54.16463 -0.8718252 1.355146 
-12.37391 17.35054 -1.354999 
-5.546529 -19.47159 1.352667 
-47.67145 -12.59041 1.355003 
47.70021 20.78683 1.350544 
-30.51787 52.53645 0.6029626 
-16.93501 -27.62234 -1.355 
-55.1 -45.29534 -0.629739 
-27.42992 34.92616 1.355003 
39.5674 -39.41214 1.355009 
16.92155 -13.05384 1.327783 
3.914376 -27.96296 1.355 
-54.33635 -34.66848 -1.348243 
50.82776 -40.93252 -1.355002 
0.1188534 -25.89821 1.355002 
13.96852 -51.69677 -1.355 
-0.4413652 -54.92995 1.327843 
22.56606 -30.6063 1.352935 
40.89414 0.3562099 1.332631 
-42.77957 -50.95763 1.355002 
-19.2635 -1.12153 -1.354999 
43.43388 19.25549 -1.355002 
44.47629 25.00551 1.344164 
-40.2103 18.59193 -1.354998 
1.981595 25.7595 0.1804567 
4.249942 -1.879785 -1.355 
-43.81314 -45.44358 1.355053 
2.69505 47.21136 -1.355 
-35.48764 -50.31831 -1.354998 
-26.32434 -49.05828 1.355001 
-12.26664 46.34945 1.355033 
-11.81609 2.3273 1.355004 
21.92162 -46.14383 -1.355001 
-26.50106 -39.44902 1.354964 
-36.16882 -37.09977 -1.354999 
26.41963 24.43036 -1.355001 
40.7118 47.95377 -0.07617027 
-30.0296 -3.777629 1.355064 
39.95921 -29.95629 -1.355001 
3.840768 -55.09119 -1.026058 
-48.73588 42.15791 1.35501 
18.47575 -6.993856 -1.355001 
22.48234 8.258593 1.355016 
-47.33544 -20.76369 1.355002 
-19.03489 39.02443 -1.354999 
41.8173 13.61922 1.348862 
-32.68451 39.96782 -1.354998 
-51.70782 39.18099 1.355057 
39.62664 38.22225 1.353283 
22.19054 49.06686 -1.355001 
-39.86588 -2.545673 -0.2113942 
41.65578 -47.47356 -1.348809 
42.2375 21.87098 1.353014 
-19.55416 -14.48201 1.355002 
13.42357 18.38168 -1.355 
27.96746 -45.89721 -1.353214 
-39.72541 3.413785 -1.354998 
-20.01039 -37.60535 1.355004 
-22.65837 -8.872958 -1.354999 
-39.35741 -53.01535 -1.354998 
-5.30636 55.09888 -0.5738281 
-25.22954 -7.261157 1.354884 
25.63158 -55.09883 0.6900187 
-32.40841 -55.10001 0.5021973 
50.81863 -13.6383 -0.06929167 
27.00497 -55.1 -0.8860719 
-55.1 -37.80666 0.2894972 
35.27376 7.29864 1.355086 
39.91585 26.45582 1.355005 
-25.70516 -31.59624 -1.354999 
-14.43119 -15.01812 1.355007 
-35.46621 39.83366 1.355006 
17.5839 4.726665 1.355016 
51.67374 -30.66539 1.336651 
-20.8595 33.13858 -1.354999 
13.10659 -36.37817 -1.355001 
18.39756 17.88625 1.355891 
46.40002 -17.65606 -1.355002 
0.96556 19.71315 -1.355 
5.99026 -39.74566 1.355155 
3.640642 39.33393 -1.355 
-23.00093 47.85891 1.297525 
-30.76763 16.78465 1.355011 
-44.72254 -7.558803 1.355002 
15.25307 18.83833 0.08200426 
-52.09654 -37.17372 -1.34992 
-43.44889 36.30589 -1.354998 
19.53182 -2.095745 -1.355001 
3.014022 -46.16807 -1.355 
55.01659 31.63535 1.244415 
-37.08309 -40.07257 1.356105 
-38.36886 -4.539787 0.4428517 
-53.8201 -51.40285 -1.331702 
-31.6381 24.93452 -1.354998 
53.38033 -22.35365 -0.3856943 
-54.82043 21.64995 -1.332379 
53.92243 7.381605 -1.355002 
29.03174 -50.02796 1.354999 
35.70052 30.07077 -1.355001 
-30.45555 -13.9662 1.354992 
-18.18628 25.56179 1.355026 
-0.666144 -17.91069 -0.13595 
-51.52461 -30.00657 -1.354998 
0.8585437 -18.37418 1.354444 
-9.343871 -42.0941 -1.355 
39.24437 27.06559 1.355006 
-42.20761 49.25509 -1.354998 
-27.30323 7.249844 -1.354999 
-28.74664 51.50374 0.1208116 
-55.10001 53.82351 -0.01133161 
38.49608 26.40649 1.355006 
-29.55166 6.205938 -1.354999 
38.2604 7.836257 1.35512 
23.90582 20.27423 1.355004 
29.3732 48.20864 -1.355001 
41.45616 19.7156 -1.355001 
-51.54688 -13.53434 1.355005 
-8.82587 31.25709 1.355003 
-9.832437 -2.476285 1.354348 
8.746467 -55.09997 0.1818566 
21.36626 15.67324 1.355007 
26.26878 -52.28636 -1.355001 
51.22457 -8.283389 -1.355002 
2.991567 28.05396 1.355162 
54.99419 38.99273 -1.310257 
20.10337 15.65136 -1.355 
-11.50625 -20.68281 -1.355 
-2.305258 20.21344 1.355021 
-39.04362 -31.50153 -1.354999 
-31.37234 -26.48601 -1.354999 
48.3293 -16.82933 -0.3213981 
28.31873 51.78664 1.354706 
28.64267 9.105799 1.355006 
50.29473 -30.04138 1.249547 
9.40589 -33.93918 -1.355 
-15.14655 -18.81492 -1.355 
-14.86304 44.86408 1.354313 
53.3885 50.97161 1.345828 
-51.63998 -32.64577 -1.354998 
2.372553 -14.28428 -1.355 
2.515636 -1.101374 -1.355 
33.00414 -27.44366 1.354851 
16.73388 22.87379 1.352567 
-12.60915 55.09528 -0.8365138 
-6.823653 -14.89325 1.345355 
-46.28706 -28.56366 -1.354998 
29.21249 -18.0339 1.355007 
3.825937 25.24499 -1.355 
31.33505 55.1 0.9116859 
22.99805 -22.65501 -1.355001 
44.07968 -30.54521 1.353844 
12.58883 30.42413 1.35179 
-24.49123 33.28676 1.354991 
-33.28809 -39.65094 1.354483 
-11.92555 40.1095 -1.354999 
45.34394 -40.92941 1.355004 
-16.17046 -33.64382 -1.355 
-13.64855 55.09835 0.2961885 
24.61947 -51.8893 -1.355001 
-49.05426 -23.12796 -1.354998 
-50.47981 40.05343 1.354947 
24.84021 -9.772271 1.350031 
-47.62771 8.042593 1.355004 
41.98191 21.57463 -1.355001 
38.17411 -47.61893 -1.349268 
-28.83735 -24.87362 -1.354999 
40.04274 -0.1797999 1.354615 
26.92957 36.61981 -1.355001 
8.187452 14.74747 1.354686 
-7.376046 10.12285 1.355005 
-47.0084 -38.16281 1.354997 
-53.79272 53.75561 -1.339872 
54.12716 -55.1 0.5567961 
40.6684 2.909573 -0.410927 
-11.51534 33.52914 1.355 
30.00861 47.19313 1.356168 
5.388589 -9.033009 1.355 
47.24873 26.21787 -1.355002 
-21.26539 18.33413 1.354888 
-54.96379 -15.48156 1.329289 
-55.1 -12.58556 0.7761747 
6.496785 52.71248 1.355001 
12.49094 50.59473 1.355002 
-38.62919 1.952212 -1.354998 
-7.030754 25.31432 1.355002 
-45.42622 -35.93328 -1.354998 
6.432604 -16.09174 1.354714 
10.9166 49.92048 1.355002 
1.649467 -24.50438 -1.355 
36.69265 55.08133 -1.04558 
40.04178 42.62881 1.354991 
-40.2897 47.82523 1.354982 
-17.46986 -15.96624 -1.354999 
6.246208 20.79952 0.5724813 
-39.52009 15.45022 1.355005 
-21.47853 19.58474 -0.4093357 
34.10283 13.66841 1.346851 
-7.052552 28.19939 -1.355 
27.92646 28.06226 1.354509 
41.94632 4.286439 -1.355001 
-51.56485 52.89554 -1.346204 
-13.43674 47.452 1.355393 
13.4698 -33.14074 1.353236 
-45.96879 42.67499 1.35501 
5.183146 -40.7857 1.355227 
51.04007 -41.7591 -1.354025 
1.609885 -1.481863 -1.355 
-3.441721 24.37919 1.355023 
-25.93794 35.42901 -1.354998 
-11.91916 5.189306 1.355007 
46.74062 22.09923 1.271284 
11.05531 -45.50497 -0.005962066 
26.45757 3.572606 -0.1562042 
-53.01556 3.867586 1.355007 
15.64562 -43.46946 -1.355001 
-2.434808 -15.10957 -1.355 
43.95457 23.55774 0.2901112 
-23.894 -26.0646 -1.354999 
13.59286 -49.61766 0.03657702 
21.58866 -53.76733 -1.355001 
22.30668 26.40086 1.355 
11.58846 -21.94148 1.355242 
-15.24266 48.38437 -1.354999 
52.48759 32.94425 -1.353609 
-11.27913 -50.47303 1.355 
19.83573 24.25953 1.355001 
35.73219 13.43791 1.346902 
45.64967 53.74876 -1.355002 
-51.96513 -43.95731 -1.343066 
19.10856 38.46729 1.354846 
-22.04063 -52.51013 -1.354999 
33.04282 2.624628 -1.355001 
42.67265 54.04161 -1.355002 
-16.32115 34.08534 -1.354999 
47.10835 -7.356948 -1.355002 
-22.73877 42.94151 1.354011 
21.80029 36.31306 1.355001 
-11.855 -27.93548 1.292318 
-55.09789 26.55093 0.5994617 
-49.18877 -26.42076 -1.354998 
-29.96264 -11.27721 1.354991 
7.738663 -40.51949 1.355426 
-7.882578 -16.15148 -1.355 
2.161823 -25.61147 1.355 
52.16659 46.43186 1.353242 
20.70268 34.14576 1.354999 
2.185016 26.95085 1.352289 
48.73649 12.93179 1.354999 
-1.821988 15.10519 1.355129 
55.1 -27.46729 0.1898384 
43.87975 -2.727454 1.35246 
37.40002 49.90189 0.6807027 
31.01155 -30.95121 1.354999 
28.95961 -0.3996774 1.354064 
55.10001 -28.83348 0.7035892 
40.2795 -6.171448 1.355024 
-51.82481 -31.82165 1.355004 
-32.43266 -27.1597 -1.354999 
32.87864 14.06467 1.353568 
-30.3114 -1.83581 1.354508 
-17.73911 31.13099 -1.354999 
36.27774 45.49706 -1.355001 
-20.79506 -16.92257 -1.354999 
38.26202 -17.35139 -1.355001 
33.36937 -28.82625 -1.355001 
-0.7946711 53.79245 1.355128 
39.46755 -3.898364 -1.355001 
53.4851 7.216316 -1.355002 
6.535422 45.29741 1.355005 
-21.43634 54.82543 1.33769 
-40.49371 14.48129 1.355002 
51.94936 -23.15033 1.354638 
-27.24588 42.62258 1.355002 
-50.5126 -39.85837 1.355003 
-11.9364 48.04228 1.355327 
46.22655 28.04766 -1.355002 
-14.25915 -48.32075 -1.354999 
3.470637 15.76412 -1.355 
33.27427 -32.99421 -1.355001 
-34.50644 -2.863324 0.03164321 
-48.82371 -25.72778 -1.354998 
23.267 6.137101 1.355013 
25.13842 -13.92141 1.324057 
-42.46814 -52.71141 -1.352134 
-29.54164 16.38556 1.355011 
51.64975 -34.87115 1.354998 
-7.957464 -51.86623 -1.354999 
7.084922 -30.53954 -1.355 
-24.27534 49.25056 1.355306 
12.60829 39.90205 1.35501 
-53.60116 -20.80301 -1.354998 
24.68241 -37.90343 -1.355001 
48.22035 -3.340374 1.355011 
-40.32778 -4.471972 0.9261122 
53.9519 3.183403 1.355023 
36.96207 -8.73473 -1.355001 
-16.55086 -50.92168 1.355001 
-55.10001 -13.22009 -0.9206004 
-1.750899 -48.30586 -1.355 
36.0558 44.92828 1.356779 
-0.4258465 29.84959 -0.2664894 
-32.55653 -44.02239 1.354383 
-27.34031 51.46066 -1.354999 
37.89397 52.3327 -1.355002 
-17.18217 -17.25488 1.355002 
-36.83061 29.019 1.354476 
-37.41777 10.6254 1.354623 
-35.25082 0.2783589 1.346845 
-6.159316 -16.80398 0.9472794 
-19.32318 30.86476 1.355009 
49.80497 -52.31232 -1.341461 
-32.87492 53.52816 -0.09759793 
-0.8467331 -52.43758 -1.355 
-30.70402 54.24177 -0.4114774 
-12.18076 22.57345 -1.354999 
19.76029 52.94243 -1.355001 
47.95597 50.03716 -1.347473 
11.63537 48.2161 1.355003 
47.91454 -47.64918 -1.347456 
24.79072 -0.5877777 1.355201 
-48.64642 27.44473 1.355006 
29.57207 21.45845 1.355004 
26.41339 23.07803 1.355003 
-43.2251 -20.91058 -1.354998 
0.1439157 25.84603 -0.4066309 
-22.02493 20.52554 0.2428809 
-10.88401 -15.33968 -1.355 
23.98916 8.678478 -1.355001 
-37.17722 31.4045 1.3547 
-6.267471 -47.11729 -1.355 
15.60555 12.19836 1.355 
55.1 -34.72225 0.2633816 
-51.26481 47.67273 -1.348144 
40.59653 -0.443469 -1.355001 
9.068428 47.93728 -1.355 
28.11303 29.61404 -1.355001 
53.86131 27.54221 1.354998 
-6.262461 -20.62647 1.353353 
-4.505304 -14.67874 -0.4070342 
-40.11513 -27.80789 1.354914 
-54.99491 -12.32631 1.311405 
19.5075 -15.36763 0.5187328 
-46.60801 40.92479 -1.354998 
-20.83532 -47.50658 1.355001 
-31.82317 20.41183 0.8805822 
24.11155 -19.17243 0.3164625 
-52.17053 23.0822 1.355151 
12.84211 15.04348 -1.355 
-54.41967 32.26712 -1.342718 
-22.771 -23.04771 1.355004 
13.26736 -46.53481 -1.355 
37.40844 21.20662 1.348644 
-35.54297 -33.9636 1.352918 
7.399384 -36.84229 -1.355 
40.1157 -22.90917 1.354999 
41.25098 40.28175 1.354989 
22.8861 1.426642 1.355067 
-39.0795 -10.00533 1.047515 
24.94871 -40.28653 -1.355001 
23.25088 -18.15507 -1.355001 
15.16362 -17.8327 -1.355001 
-33.21315 35.45496 -1.354998 
12.09372 8.992384 1.355011 
-18.96485 -5.268013 1.355003 
-21.81094 8.949319 -1.354999 
-8.725966 33.89574 -1.355 
-46.32287 55.1 0.6760473 
19.26634 27.94794 -1.355 
48.64912 0.2074172 -1.355002 
-21.3095 -13.77951 -1.354999 
20.47361 -7.921835 0.5556117 
16.08987 18.6017 -1.355 
27.15894 50.55184 -1.355001 
-33.66762 -43.16081 1.11196 
-43.96868 -6.385024 1.355002 
23.0255 -30.17575 -1.355001 
55.0051 -30.92497 1.28133 
17.26439 32.21848 -1.355 
-31.70558 -23.90393 1.355003 
-19.89512 -42.63229 -1.354999 
-5.06212 11.22102 1.355002 
27.10977 24.90646 -1.355001 
-26.71059 38.93098 1.355002 
-35.98948 -55.04951 1.12327 
-53.76747 -41.43377 1.355003 
-46.56847 29.77476 1.354755 
13.67142 -46.7598 1.349275 
16.93334 -22.73484 1.35498 
23.55977 -19.18866 0.007736327 
-45.3503 25.73324 1.354779 
-3.008208 -53.56739 1.355 
0.5678796 -34.01779 1.355 
-0.556365 -2.008474 -1.355 
44.64043 -32.57177 1.352125 
-53.61365 -6.184486 -1.353131 
15.48641 24.68521 -0.1918211 
-26.71113 9.447804 1.355002 
14.37507 22.72931 -0.4099367 
37.95519 20.70566 -1.355001 
-42.28926 46.03087 -1.354998 
13.88766 28.11037 -1.355 
-8.50709 -8.488235 -1.355 
53.84236 6.452987 1.355019 
47.50226 -14.00753 1.354837 
18.25762 -52.26287 -1.355 
-29.57762 -41.02225 -1.354999 
-30.84972 50.35517 -1.354999 
-20.43 -0.947063 -1.354999 
-27.06101 -23.05927 -1.354999 
42.6746 -8.406902 -1.355001 
-34.5785 -29.67553 -1.354999 
14.98768 -52.49482 -1.355 
30.22211 14.38983 -1.355001 
14.47163 50.73817 -1.355001 
16.85054 31.26733 1.354833 
-50.40739 35.78569 1.354999 
-17.16697 -51.92192 1.355001 
-34.794 -22.99824 -1.354999 
24.90412 -13.23423 0.2913944 
-47.23428 -21.73106 1.355002 
27.98557 -20.83237 -1.355001 
41.94997 -8.668246 1.355026 
-2.081939 20.06697 1.355022 
26.42477 -3.01883 1.355055 
-29.50422 3.951303 1.355031 
-50.40875 -9.641345 -1.354998 
49.18935 37.02919 -1.350845 
-51.14209 -52.81492 1.355002 
16.08484 22.54728 -0.4050927 
9.547136 -4.736314 -1.355 
-12.45627 23.64631 -1.354999 
-8.165062 42.01873 1.354611 
30.45967 0.6365083 1.352212 
-22.98207 -53.81034 -1.354999 
-40.12532 8.300646 -1.354998 
43.19854 -1.699357 1.348118 
20.77421 12.17926 1.355226 
1.968317 1.650287 1.353328 
24.59031 -38.6675 1.355 
4.006296 47.42948 -1.355 
-3.339787 -39.0234 -1.355 
-0.160347 -54.04501 -1.355 
-11.27384 -35.15417 1.349213 
-55.1 -21.57441 0.5912829 
-23.1232 26.30734 1.351417 
-5.369996 -2.919662 1.354435 
7.824788 14.24848 -1.355 
38.06246 -48.91648 1.354998 
-42.50066 1.432426 -1.354998 
-8.773499 6.127172 -1.355 
40.04395 48.10369 0.4222618 
24.82539 32.05965 1.355003 
-48.66558 14.82164 -1.354998 
22.53825 -22.62698 1.355049 
0.4900813 -23.61409 1.355009 
10.95429 -47.5773 -1.355 
8.780336 -9.964186 1.355 
27.30268 -8.186248 1.350715 
0.2818937 -54.73426 -1.345176 
-36.86445 18.97039 -1.354998 
-21.44485 27.61725 -1.354999 
9.032786 -23.17141 1.354999 
55.02352 40.06186 1.223404 
33.09077 30.54394 1.355003 
28.60087 -5.399294 -1.355001 
36.00793 -53.90184 1.354998 
15.63592 41.12569 1.355007 
-38.16603 26.84825 -1.354998 
46.98067 42.63446 -1.346868 
-31.92602 51.01687 1.349273 
-46.85752 -7.631547 -1.354998 
7.6348 -14.26196 -1.355 
-28.26751 6.679013 1.355017 
-30.26968 -49.77596 1.355001 
54.13216 8.166465 -1.355002 
-42.08034 -30.50019 -1.354998 
23.5721 -23.72205 -1.355001 
-52.95748 46.42103 -1.343739 
-33.72506 -11.14896 1.354857 
-7.033235 -52.56612 1.355 
-30.06673 41.89612 1.355004 
-2.834239 -38.72527 -1.355 
-21.23076 -9.082731 -1.354999 
46.57086 28.08426 -1.355002 
-5.18964 -11.96224 -1.355 
22.36723 -5.140962 0.6757215 
-17.7867 3.88592 1.355016 
43.68194 -23.20194 1.352507 
6.982263 -38.08198 -1.355 
44.1776 -0.679818 0.9296604 
33.05286 -18.39717 1.355003 
21.19086 -5.412858 -1.355001 
52.90891 0.5147943 1.355023 
1.121387 -7.731614 -1.355 
-29.22651 12.8152 1.355003 
50.23174 -15.76774 1.304097 
-8.54505 -27.32465 -1.355 
-39.35148 -52.55888 1.355002 
51.91439 -40.14303 1.354998 
-0.6552043 -31.21453 1.355 
31.2404 54.29485 1.354998 
46.16427 35.48012 -0.1422246 
-24.70942 -4.957325 1.355157 
-23.91693 -28.71876 -1.354999 
52.62557 55.04659 1.133117 
44.93005 21.04724 -1.355002 
9.70875 11.77777 1.354586 
-12.91136 8.829998 -1.354999 
-5.933078 3.36567 1.354371 
-4.29893 30.3581 1.352835 
-31.50511 -8.378239 1.351976 
-17.51154 -33.48394 -1.355 
-11.58455 -45.77082 1.355 
-18.41387 -15.53465 -1.354999 
38.03243 -50.47398 1.354998 
-30.74 7.070063 -1.354999 
7.978786 -6.405857 1.355001 
6.989879 -41.5587 1.355503 
-11.1428 -11.75215 -1.355 
-25.73637 0.7776349 -1.354999 
19.80789 34.13097 1.35495 
29.86959 25.92021 -1.355001 
52.38285 48.42949 1.351299 
-54.098 -37.66039 -1.345566 
-43.52293 -6.754649 -1.354998 
26.50146 -26.45554 1.353586 
-17.81123 4.221401 1.355017 
-25.68499 18.00447 1.355497 
35.14491 -1.08668 -1.355001 
-36.20282 1.004007 -1.354998 
-41.58084 -4.186885 -0.3739515 
23.89147 31.7843 -1.355001 
-15.61102 36.54684 1.355001 
14.14598 17.5126 -1.355 
11.63008 15.67446 1.35404 
-29.92649 -30.66776 -1.354999 
-15.28428 -1.29944 1.355006 
-7.028391 -52.42382 -1.354999 
-32.5156 -44.83875 1.353756 
24.30123 43.47057 -1.355001 
21.41248 45.77532 1.355005 
10.28658 -22.00823 1.355066 
52.39646 35.43497 -1.35177 
49.65165 16.50373 1.35501 
-34.67764 -26.00019 -1.354999 
10.79191 -54.05581 0.2120838 
-7.59807 15.93125 -1.355 
48.7071 49.11313 -1.344036 
49.08588 41.61207 -1.347457 
3.17659 50.25562 -1.355 
-12.61057 -7.971473 1.355001 
45.23204 -16.5022 -1.355002 
40.61289 -10.53831 -1.355001 
11.29306 -51.45459 0.7590875 
-21.88918 -4.357182 1.355015 
22.43606 -47.47297 1.349429 
2.971052 27.03163 -1.355 
1.425035 2.147821 -1.355 
5.927412 -3.884902 1.355002 
-16.46235 13.21461 1.355025 
-26.99504 -26.36308 1.355005 
35.89582 -20.66993 1.355001 
25.98281 -18.64859 -1.355001 
7.292141 -51.22618 -0.1463048 
49.95792 -35.44081 -1.355002 
17.8124 -33.34858 -1.355001 
-13.40648 -37.27143 1.354827 
23.56105 43.46254 1.355003 
-7.594863 -28.73702 -1.355 
-47.6094 19.71526 -1.354998 
43.80991 21.59113 -0.411295 
26.01648 46.55683 1.355279 
1.012491 -22.45205 -1.355 
-37.53749 54.77543 -1.342159 
-34.09739 1.019951 0.8473739 
37.3951 -8.091063 -1.355001 
-14.32293 -25.44852 1.35368 
21.43841 18.5802 -1.355001 
0.2326643 -43.83514 1.353134 
53.66798 -35.63626 -1.355002 
3.320437 -53.08572 1.353405 
31.68377 10.15361 -1.355001 
11.59565 34.06378 -0.3664033 
-3.471334 -4.056448 1.355 
-46.78337 -17.97478 -1.354998 
-52.03177 -42.15477 -1.344826 
-30.77446 43.46894 1.355004 
22.55206 38.38588 -1.355001 
-20.84645 47.98992 0.07844874 
45.06042 -40.74136 1.355005 
-52.05102 38.86103 -0.1020861 
11.00951 -53.30761 0.4888854 
8.06507 -32.26882 -1.355 
24.59482 6.924295 1.355013 
55.03698 -33.62141 1.153862 
-23.09117 52.46489 1.355681 
-47.04438 -50.88619 1.355002 
45.37054 44.13451 -1.345885 
17.20859 -35.80044 0.6905571 
-12.17926 -50.38233 -1.354999 
29.21235 24.97289 1.354954 
-13.59277 -34.37147 -1.355 
-10.21502 40.06257 1.354913 
10.50275 -46.48914 0.7050112 
29.80597 29.44487 -1.355001 
46.56391 39.55622 1.346977 
-52.15444 -3.069097 1.355006 
-18.05148 -28.02294 1.234668 
-31.96346 41.97711 -1.354998 
18.30122 8.466913 -1.355 
-42.81918 28.60894 1.354321 
-16.55512 -15.21507 1.355002 
46.38425 -38.0824 1.355011 
-40.36256 -52.0744 1.355002 
-22.21907 41.55407 -1.354999 
-25.69492 52.64054 -1.354999 
23.11741 3.631645 1.354587 
33.6689 -13.61107 -1.355001 
21.01099 -46.47081 1.354661 
12.49016 3.079472 1.355008 
-9.157629 38.8522 -1.355 
-12.80958 24.95805 -1.354999 
49.67455 -55.1 0.04174602 
-43.26487 -4.022014 1.355008 
7.673629 38.11537 1.355011 
3.495393 14.80836 -1.355 
-31.39089 -52.24199 -1.354998 
-54.42761 -41.60776 1.355003 
-41.71074 -43.90663 -1.354998 
11.00891 38.51 1.35501 
-2.480619 -44.3931 1.354934 
-15.69978 -10.14228 -1.355 
14.00783 -13.30756 -1.355 
-17.26784 20.21362 -1.354999 
25.13312 19.46 -1.355001 
29.50823 48.5981 1.351093 
-51.31525 -55.10001 0.005896568 
-29.16544 16.04338 1.355025 
-54.64901 39.97068 0.05646824 
-54.78632 -21.80914 1.341376 
-44.00115 -11.23293 1.355022 
44.05278 -48.71751 1.354998 
-0.9763486 15.46117 -1.355 
-1.484164 28.81778 -0.3944607 
-51.19611 19.10867 1.355007 
27.30399 3.470743 -1.355001 
8.747579 12.17323 -1.355 
-1.691526 -1.693938 1.354368 
-1.160691 -0.1761369 1.353752 
-37.98611 32.19928 1.354768 
-46.128 22.03235 1.355004 
35.76488 20.72578 1.353895 
-23.90958 25.14634 1.352551 
-46.49726 -43.38651 0.9324906 
48.51946 -39.22195 1.355008 
50.15677 30.62783 1.354999 
13.26418 -12.50432 -1.355 
23.07799 -38.98066 1.355001 
19.91734 34.41054 -1.355 
-43.96623 -55.02692 1.178437 
-15.94726 -29.21201 0.4667968 
15.29235 -16.70784 -1.355001 
-9.226877 5.945762 -1.355 
-41.00497 28.88703 1.354427 
0.5303264 53.47814 -1.355 
17.99002 13.19414 1.35484 
-11.42982 27.19359 1.355013 
47.56218 11.33812 -1.355002 
-26.31716 53.61648 1.354214 
-28.43584 23.3074 1.354843 
55.10001 -12.46554 -0.2418071 
-12.95982 31.46382 -1.354999 
-7.038985 -18.03684 1.353726 
2.713024 -55.05931 -1.120584 
39.96198 -54.01024 1.354998 
-2.033773 -55.09837 0.9240313 
5.176115 -53.95844 0.9762204 
15.85303 -52.37443 1.057171 
0.1039882 18.70207 -1.355 
14.89897 37.28145 -1.355 
-17.68814 32.50115 1.355003 
-50.95166 26.91949 1.355007 
-20.95102 -32.1347 -1.354999 
49.03963 -13.44045 0.1704042 
-6.726168 36.7944 -1.355 
16.18667 -1.819846 1.355018 
-35.93044 20.35194 1.353794 
-44.1058 -16.24667 1.350478 
-8.407273 -42.42862 -1.355 
6.588529 -4.017067 1.355003 
25.1577 5.963751 1.355011 
33.043 2.894338 -1.355001 
8.088362 49.08288 1.355002 
50.08399 46.13202 -1.344028 
41.75097 29.08777 -1.355001 
36.74677 -39.34336 1.352743 
18.90225 -55.09629 0.2931323 
53.03287 -48.68037 -1.345274 
24.44755 16.43964 1.355007 
-4.952211 -18.47937 1.044267 
24.39062 -33.98347 1.354999 
-27.47742 20.46564 -1.354999 
-6.759904 -28.78602 1.354982 
-27.65243 -46.15985 1.354873 
-20.31284 27.10654 -1.354999 
-45.48608 -12.66695 1.355002 
40.7204 35.93464 -0.4109038 
39.36002 49.58378 1.143444 
-31.34508 31.31374 -1.354998 
-9.959212 -43.95835 1.355 
4.081207 -54.21987 0.2508629 
27.90687 14.58947 -1.355001 
34.35622 43.12646 1.354155 
-40.51813 47.35148 -1.354998 
49.20536 -28.22991 0.804238 
-28.21414 40.03973 1.355003 
4.436598 -0.2609583 1.349083 
-5.354623 23.75371 1.355004 
31.10527 -12.87481 -1.355001 
-45.52865 -47.82714 1.355019 
-30.68874 -51.60835 1.355001 
-43.11111 54.51617 -1.354998 
-44.21278 3.669215 1.355003 
11.84328 2.987192 -1.355 
-30.06581 52.04557 -1.354999 
19.11245 -20.4894 -0.3919081 
46.72463 40.68502 1.349101 
40.83176 0.6110286 0.4309148 
40.15923 -53.81259 1.354998 
-23.67098 52.90273 1.355797 
-17.04713 -22.76121 1.355081 
-50.24802 -49.45834 -1.3406 
-46.75527 -42.10191 -0.3797698 
-27.88287 25.20624 1.35462 
-20.32709 25.08733 1.355028 
43.65966 40.63311 -0.2682278 
-20.92226 -47.23775 1.355001 
49.47226 3.940747 1.355006 
-46.29219 -43.0877 -0.3971761 
-19.5448 -55.09983 -0.1431684 
-18.84809 -30.60213 1.354816 
14.29811 31.49568 -1.355 
24.08063 -3.070727 1.355484 
-30.85373 18.08496 -1.354998 
1.424834 -2.482 -1.355 
-17.07588 -18.28239 1.355002 
-20.35644 24.60847 -1.354999 
22.47619 47.01965 1.355004 
-15.19131 -52.16692 1.355001 
5.50217 5.590256 -1.355 
-54.38596 -18.42583 1.355006 
-28.08331 -20.74606 1.355 
-34.72671 -51.49483 1.355002 
-14.83395 3.7958 1.355011 
-5.399228 -55.0983 -0.4795973 
-28.04019 44.00488 -1.354999 
19.13651 28.21696 -1.355 
-51.50079 26.33289 1.35503 
-22.20646 0.4588461 1.355004 
-54.90565 -22.83725 1.333714 
-19.74665 -53.08696 -1.354999 
-17.73368 32.7932 -1.354999 
-16.87463 6.294977 1.355017 
-46.57722 51.94474 1.355053 
52.6028 27.85888 -1.355002 
48.04925 7.762289 -1.355002 
-47.4294 -1.048545 1.355004 
-15.72908 -19.54697 1.355001 
-27.13106 -47.12322 1.354998 
-13.92582 -0.8569608 -1.355 
1.179805 -34.90843 -1.355 
-0.4840319 6.975574 -1.355 
21.90103 -46.63435 1.354607 
-13.53953 -21.40088 -1.355 
21.87589 -31.01138 1.352011 
-28.19851 47.88898 1.355001 
35.30183 -48.1352 -1.349165 
3.644698 -8.415762 1.355 
18.61511 -35.78648 0.9631184 
28.98369 26.51905 -1.355001 
50.96355 18.50272 1.354998 
-9.964073 40.0783 1.355041 
-16.94941 -33.67352 -1.355 
-51.28234 31.62237 1.355099 
-30.54127 -3.178527 -1.354999 
41.55996 -51.57157 1.354998 
-35.64006 -49.82409 -1.354998 
36.35191 -9.315799 -1.355001 
-50.39479 34.94347 1.355007 
14.29188 -50.91496 0.2721777 
18.41747 19.51574 1.355137 
-19.14321 -17.22827 -1.355 
-13.29639 -49.90702 1.355 
23.18112 24.32902 1.355002 
5.62314 -1.315733 -1.355 
14.90957 2.541636 -1.355 
19.23081 -30.97453 0.6529528 
42.02149 2.01755 -1.355001 
4.070642 3.257707 0.5246379 
15.87886 -7.36975 -1.355001 
51.09776 -37.21599 -1.355002 
-14.99071 -11.59681 1.354955 
-6.733917 9.255147 -1.355 
36.08891 44.29247 -1.355001 
-3.500854 44.78702 -1.355 
-7.1913 6.572282 -1.355 
-32.48358 -7.820869 -1.354999 
-48.29627 20.15971 1.355005 
-31.75002 -42.81837 1.354787 
-42.89189 -3.262846 1.355014 
33.44617 20.69253 1.355003 
-26.25231 8.03295 -1.354999 
-8.264899 -52.82952 1.355 
-29.91483 -16.03694 1.354994 
43.05409 36.75439 1.35445 
-43.55103 20.25423 1.354792 
-14.35334 -26.58214 -0.4033298 
22.80713 -40.8962 -1.355001 
38.65509 -35.05666 -1.355001 
-10.94641 -42.6759 1.355 
-36.24005 -54.26681 -1.354998 
-36.06411 6.045862 1.312453 
-55.09984 11.7819 -0.6802394 
-45.21094 -55.1 0.08364128 
33.95942 47.20069 -0.2760023 
-21.93399 44.58893 0.1274909 
30.99514 8.421589 -1.355001 
-33.32249 31.06463 1.354702 
6.639039 20.69747 -0.08488072 
-0.4910212 -41.12083 -1.355 
42.1733 16.4233 1.353465 
-3.487273 -30.0285 1.355004 
30.03585 16.25351 -1.355001 
-29.28622 -18.40898 -1.354999 
49.78247 -22.94544 -1.355002 
43.81845 -26.74605 1.355328 
20.26437 4.243971 1.355015 
9.885046 -48.59282 0.9146402 
-5.025553 -15.46212 -0.2944898 
45.48611 -30.51027 -1.355002 
41.94706 -2.135093 -0.3625678 
-41.0815 -32.72285 1.352182 
44.29032 -4.961838 -1.355002 
-28.93406 -24.24195 -1.354999 
-37.82246 -27.22852 -1.354998 
-32.81873 -42.56181 1.351977 
-40.0246 8.227239 1.354559 
-3.07231 -22.39327 -1.355 
-38.52318 34.5683 -1.354998 
-14.21318 0.5375505 -1.354999 
3.33655 -4.793096 1.355 
-5.437162 -24.37239 -1.355 
-3.196621 -51.01448 1.355 
54.21143 -19.23821 1.352403 
-14.08986 -34.01511 1.354534 
-13.95273 45.24702 1.353724 
1.095088 -7.814553 1.355 
37.84422 -18.54347 -1.355001 
-15.24563 -39.53185 1.355002 
41.50299 -15.55096 -1.355002 
-48.8604 -51.18637 -1.341455 
3.36497 17.78036 -1.355 
55.1 -13.95537 0.3214201 
-4.722534 -11.97463 1.353446 
-55.1 -14.68873 0.3006784 
-33.10288 -32.43935 1.354292 
54.81609 40.35406 -1.344432 
-48.15099 -4.929855 1.355004 
47.74857 -13.85192 -0.3560458 
-36.62772 12.79531 1.354909 
-26.88296 -27.12501 1.355005 
33.02958 20.00883 1.355004 
-23.24016 21.08168 0.1730995 
-7.962403 -55.04769 -1.15504 
34.36615 26.51262 -1.355001 
-35.78243 3.949865 0.4272223 
-40.34419 11.68433 -1.354998 
22.26624 4.918728 1.355014 
19.94363 -54.43312 1.355042 
-5.709816 8.853573 1.355 
35.15786 -26.58242 -1.355001 
40.35042 39.06716 -1.350041 
-21.20523 48.34262 1.061717 
0.07440233 3.980772 -1.355 
32.40435 -2.970792 1.355063 
19.20017 -15.4761 0.916939 
51.47125 53.5632 -1.344477 
9.52337 0.4819961 -1.355 
-49.99731 50.82468 -1.350971 
-28.79352 -46.03006 -1.354999 
-41.71656 47.93466 -1.354998 
-10.97875 -14.04054 -1.355 
24.68763 -53.94491 -1.355001 
0.2346551 -20.52741 -1.355 
-22.16756 -17.55822 1.355002 
-18.17596 -45.93761 1.355001 
-27.6981 -6.800985 -1.354999 
45.92412 52.24715 1.354998 
-16.53489 -5.201454 1.355003 
-19.95329 32.86021 -1.354999 
-42.19254 -16.31956 -1.354998 
-33.45007 50.39814 1.354681 
7.476054 3.266448 -0.4084919 
8.840787 -35.83127 1.354994 
-12.75879 39.52902 -1.354999 
49.86024 -13.0657 -1.355002 
-14.63694 -37.2427 1.354868 
44.92068 -42.43056 1.355 
12.39581 26.84018 1.356165 
-28.0704 40.12629 -1.354998 
8.448333 0.5469198 -1.355 
-41.35318 -20.54438 -1.354998 
37.2027 -41.9604 -1.355001 
11.75396 -6.9336 -1.355 
51.47627 -15.49957 0.7488205 
-14.39591 -9.471543 -1.355 
42.13589 55.1 0.3008497 
50.11014 -23.76574 -1.355002 
29.87972 24.94414 -1.355001 
-12.6605 19.98904 1.355021 
34.88995 51.19143 -0.4057167 
1.479755 -16.63502 1.353855 
-2.066098 55.09912 -0.537448 
-37.78127 9.914844 -1.354998 
23.20267 22.41362 1.355003 
11.3281 -28.03864 1.35624 
-4.913581 -11.55216 -1.355 
-13.98388 16.59229 1.355024 
-36.65395 27.47018 -1.354998 
-53.05181 29.84407 -1.347009 
-20.50537 -25.63559 1.354374 
2.596335 -0.460116 1.354356 
-47.64805 23.77161 1.355005 
32.11918 -5.358419 1.354824 
-13.48164 -25.66018 -0.1775026 
-33.26254 -30.21906 -1.354999 
-6.819471 31.2852 -1.355 
12.56299 -40.88356 -1.355 
7.770475 25.03166 1.353835 
-43.83932 21.83718 1.354758 
-32.73667 -52.52208 -1.354998 
-35.45113 41.3425 -1.354998 
-55.09961 30.6622 0.03019789 
-9.103926 46.9477 1.355119 
30.26159 46.99926 -1.355001 
-2.74407 -21.13758 -1.355 
-33.06522 -6.233382 1.353858 
39.3186 -12.89198 -1.355001 
45.8789 35.80598 -0.4084815 
-52.26276 40.94719 1.355186 
25.78717 -4.103589 -1.355001 
18.8891 -14.57307 -1.355001 
26.20819 6.014534 -1.355001 
-14.10749 52.47964 -1.355 
-9.065083 13.90664 1.355012 
-24.48123 -40.71812 -1.354999 
46.44297 28.66576 -1.355002 
-20.76417 -46.1853 -1.354999 
52.42328 -20.34031 -0.1898593 
-52.3081 47.41925 1.355099 
32.27266 -44.56793 1.354999 
17.71306 -21.49736 0.7280913 
43.44041 20.62568 0.4466649 
-44.67413 52.21419 -1.354998 
1.607698 -35.30395 1.355 
-29.11488 -6.698033 1.354085 
42.05185 21.89347 -1.355001 
-15.7198 12.305 1.355022 
-3.535585 39.39884 1.355006 
-12.30693 -29.69982 -0.4106225 
-29.0059 9.440701 -1.354999 
-18.22813 -30.12644 1.354921 
-39.66247 37.64254 1.355006 
-44.44748 41.18885 -1.354998 
7.579097 40.62738 -1.355 
-31.38096 -10.32799 1.354306 
27.96799 -12.50684 1.353921 
-50.17046 3.132454 -1.354998 
50.48074 -33.30686 -1.355002 
34.57859 -17.34113 -1.355001 
40.33674 -28.30782 1.354813 
-53.06683 -18.95931 1.355006 
17.68745 -19.96603 -0.4101814 
21.43116 23.95539 1.355002 
-24.33444 -11.40737 1.354996 
-37.32255 -9.096971 -0.1730903 
19.60117 31.91856 -1.355 
-51.32183 -40.77954 -1.34763 
52.56013 13.24462 1.355005 
-39.29115 4.858647 -1.354998 
27.38161 -5.304893 -1.355001 
46.36533 14.15531 -1.355002 
26.99969 23.16392 -1.355001 
6.770268 20.48354 -0.05126013 
-20.60938 -0.046736 -1.354999 
47.16566 -30.09581 0.4095711 
48.07312 42.22009 -1.347087 
49.94392 54.13445 1.354998 
-43.32801 -21.72138 -1.354998 
32.73543 7.032456 -1.355001 
3.658597 52.91057 1.355 
44.22592 22.391 -1.355002 
8.39199 -50.0268 1.354019 
-10.086 -31.19256 1.352812 
41.12344 36.94545 -0.02794937 
-35.26263 17.41798 -1.354998 
-12.58119 32.77509 1.355002 
-7.875747 -15.22342 1.351805 
13.11309 24.49296 -0.4064066 
8.641802 32.24279 -1.355 
16.49114 -14.5047 0.704411 
-4.269388 27.7549 -1.355 
44.53966 -47.26217 1.354998 
16.05244 -10.19032 1.353642 
-20.54218 -31.14422 1.355413 
29.90117 -3.701798 1.35508 
35.32817 -38.07008 -1.355001 
42.69579 -7.605369 -1.355001 
-14.85592 27.53538 1.35502 
-29.98201 17.77839 1.355014 
-44.11272 28.71051 -1.354998 
-45.89678 -40.7048 0.767786 
-47.18401 -0.5560198 1.355004 
-33.40824 51.48162 0.1679095 
26.18838 -48.28932 1.355059 
-24.1929 -30.81522 1.355006 
21.60685 -40.44164 1.355003 
-51.97292 -23.03595 1.355005 
-9.299973 46.13087 1.355101 
3.355855 -9.230062 -1.355 
33.23458 52.63492 -1.355001 
9.194551 1.704907 1.349072 
-12.56433 -17.49907 -1.355 
-46.9066 24.64487 -1.354998 
-21.95655 -32.41701 1.355017 
26.75067 -44.0385 1.355002 
20.79678 6.262613 1.355014 
-22.61049 -40.26411 1.355003 
23.21128 -8.339617 0.6236943 
-44.82147 15.21889 -1.354998 
-53.752 2.945833 1.355118 
-8.828108 -40.42705 1.354973 
24.1382 -25.44534 1.351354 
-43.62132 -16.12934 -1.354998 
-26.65203 -18.80458 -1.354999 
11.38269 -38.73116 -1.355001 
11.42078 -52.98473 1.331136 
2.094972 -17.65187 1.354099 
-6.462109 48.6244 -1.355 
-36.78603 38.85019 1.355006 
55.1 -34.05742 0.01467116 
-53.33846 -48.72934 1.355002 
17.16049 -50.46292 1.350634 
44.06831 31.80609 1.355013 
40.80241 40.52202 -1.34967 
7.936447 -46.08072 1.352751 
30.90969 -2.427036 1.355038 
-10.33514 8.902073 1.355009 
34.43753 -54.66209 -1.351324 
38.11124 32.58996 0.4007338 
-55.05197 13.73956 -1.142401 
-6.434165 -33.11872 -1.355 
9.992199 25.53289 1.320655 
36.67356 -23.46894 -1.355001 
-31.78595 15.20442 -1.354998 
-19.16863 44.11936 1.239298 
36.26207 48.18771 -0.4114504 
52.96307 26.82878 1.354998 
20.84446 -15.15897 1.18855 
41.08472 -11.70744 -1.355001 
-0.4877257 -14.43507 -1.355 
2.019231 38.01217 1.355012 
34.33912 45.38942 -1.355001 
-27.26561 25.87943 -1.354999 
-39.07246 17.99631 -1.354998 
-13.61628 42.94453 1.354741 
51.59996 -31.1428 1.354498 
-41.61057 -35.35176 -1.354999 
-15.0284 15.53166 -1.354999 
-46.52085 -33.89755 -1.354998 
32.60648 30.17704 -1.355001 
-10.26213 11.72046 1.355012 
0.3532505 -53.8984 -1.355 
-39.35564 -36.65329 -1.354999 
-39.31532 30.99099 -1.354998 
-35.55922 0.614552 -1.354998 
-12.58422 29.37507 1.355014 
20.05766 18.04609 -1.355 
-45.12236 7.138745 1.355003 
49.5942 -23.64818 -1.355002 
-10.70902 -25.71736 0.4211563 
-27.43904 -42.24379 -1.354999 
46.55995 27.18195 1.355013 
-46.24947 -16.29532 -1.354998 
53.10137 -9.846502 -0.2865044 
-15.30945 19.94087 -1.354999 
-44.5827 49.20857 -1.354998 
7.861932 -24.19169 1.355016 
-42.21057 15.19613 -1.354998 
15.35702 23.10978 1.041917 
-33.18784 -4.491162 1.358105 
51.48337 27.62212 -1.355002 
31.30678 -28.18221 1.354884 
32.87359 -5.245404 1.355602 
-37.61003 6.773597 0.7384626 
-43.98085 3.992333 -1.354998 
-36.55539 -8.665969 -0.2113025 
-52.58371 -22.43482 -1.354998 
-0.6971962 9.010839 -1.355 
0.1204601 24.26574 0.3002238 
1.557295 -6.48859 -1.355 
8.166171 32.2264 -1.355 
36.54786 26.83888 -1.355001 
-47.07145 -20.83064 1.355002 
-42.56143 40.39523 1.355008 
40.18578 50.99173 -1.355002 
-41.05529 18.19735 -1.354998 
-4.944592 -6.209044 1.355 
-21.87981 52.47367 -1.354999 
-34.42968 -15.6572 -1.354999 
16.44671 33.16924 1.354782 
12.0298 -52.10487 1.237678 
26.84611 0.7242767 -0.3984376 
26.38331 36.46629 -1.355001 
16.72897 54.32467 1.354999 
48.34007 55.10001 -0.2922006 
15.64256 -11.45374 -1.355001 
22.43524 -53.56146 -1.355001 
5.138223 -46.27848 -1.355 
42.21798 35.3091 0.4382851 
21.87475 -40.95084 -1.355001 
10.60352 -45.48558 1.350666 
-52.86276 -13.39426 -1.354998 
-51.63925 48.14585 1.355012 
-17.13522 -46.60506 1.355001 
44.62138 -25.75673 -1.355002 
-28.71767 -8.040374 1.353607 
49.4188 -42.20965 1.354987 
24.92875 21.15421 -1.355001 
-4.244459 -21.96403 -1.355 
-52.86249 15.97464 1.35518 
-32.25877 -5.919296 1.355658 
-0.1558146 -14.49551 -1.355 
-17.88741 33.79763 -1.354999 
-30.29826 54.53727 -0.4112656 
-29.71774 -13.37215 1.354993 
48.95653 -20.49844 1.348302 
-47.66772 38.60023 1.355008 
21.52328 1.899463 -1.355001 
13.09536 -3.650912 -1.355 
7.927475 -8.974222 -1.355 
5.859555 20.25869 -1.355 
55.10001 -14.82681 0.5409251 
-5.34523 -11.7987 1.353468 
-12.51721 24.5404 -1.354999 
-36.01358 -42.30346 1.310039 
-20.7781 1.336108 -1.354999 
7.043696 39.97754 1.35501 
21.67755 -50.37085 -1.355001 
1.18234 36.35954 -1.355 
-11.00444 -45.2933 1.355 
20.11283 -25.64548 1.355032 
-17.21719 -15.79365 -1.355 
3.275115 41.96989 1.355008 
55.1 43.65241 0.1407569 
-50.53606 47.62027 -1.350166 
-27.30885 44.49097 -1.354999 
-52.79493 28.52948 1.355481 
-52.30587 -9.290376 1.355006 
-35.70313 41.37524 -1.354998 
27.37971 50.49452 -1.355001 
4.252864 -9.962923 1.355 
49.82928 28.3888 -1.355002 
-12.92528 -24.5873 0.9449921 
27.92586 -14.64746 -1.355001 
-2.044697 41.32447 -1.355 
-7.023443 1.490235 1.354334 
-16.5674 -13.29644 1.355001 
-48.09634 -40.40797 -1.354214 
53.72496 -21.95542 -0.281839 
5.603019 19.25636 -1.355 
53.10448 -36.06779 -1.355002 
37.64138 39.55798 1.354982 
54.65472 -22.54799 -1.351 
11.08905 -4.65913 -1.355 
-53.93958 -4.541594 1.355007 
33.01549 -11.38064 1.355004 
29.0592 -16.48403 -1.355001 
14.26525 51.82578 1.355001 
-29.34601 -38.08509 1.35362 
-0.9192443 12.17869 1.354846 
-16.6823 23.78658 1.355029 
35.44779 -27.37517 -1.355001 
35.3803 -19.15981 1.355002 
33.18972 37.39685 1.355006 
36.6681 -23.4855 -1.355001 
18.13597 54.30151 1.354999 
-37.73832 -40.69571 1.355218 
-25.18216 49.81963 -1.354999 
-41.11526 2.48701 -1.354998 
31.40177 -26.623 -1.355001 
-31.96714 33.39398 -1.354998 
-29.02806 1.27399 -1.354999 
-29.53248 -53.3441 1.355001 
-22.55991 -51.24957 1.355001 
20.15457 -20.14607 -1.355001 
-8.060028 -5.873343 1.355 
-0.06949858 24.37431 1.350712 
36.69022 -34.91148 1.354939 
14.87889 -8.257731 -1.355 
49.67627 27.20658 1.354999 
18.77977 5.160958 1.355016 
38.28207 20.43609 -1.355001 
-34.30688 -44.57832 0.5004722 
6.497586 -3.931169 1.355003 
49.92424 -27.96191 -1.355002 
29.2481 -18.45741 1.355007 
53.10919 -53.64147 -1.339248 
-20.39891 -34.23271 -1.354999 
-13.30654 -40.00259 1.355002 
40.43581 19.49251 -1.355001 
8.593879 38.44109 -1.355 
1.054403 26.02621 -1.355 
14.84841 -49.44038 1.163288 
20.99003 32.3017 1.355001 
-38.73304 -28.42092 1.354943 
18.20186 -33.79965 -1.355001 
-41.53226 -46.37825 -1.354998 
-14.44885 53.13338 -1.355 
-17.02227 11.62128 -1.354999 
-48.64249 47.21257 -1.354998 
19.62392 22.33663 -1.355 
16.84783 -13.07875 0.5045184 
-52.72799 33.00571 1.355575 
-42.27122 -19.44861 -1.354998 
49.64746 -36.07981 -1.355002 
-49.31631 28.37981 1.355006 
40.43014 5.225144 -1.355001 
-4.272655 11.99049 1.355002 
-50.15375 -53.69526 -1.336342 
-12.08225 11.27548 1.355015 
-36.933 -29.41172 1.354884 
31.7637 -54.91277 -1.334164 
46.30061 -39.25631 -1.355002 
-50.18641 -47.00669 1.355002 
7.257609 41.10707 -1.355 
17.27261 52.4665 1.355 
-46.94915 -9.544701 -1.354998 
42.98824 -12.38584 1.355011 
13.93997 -43.34403 1.354959 
-36.85537 -8.90513 -0.2482138 
-8.133915 14.89539 -1.355 
2.977406 -33.03509 -1.355 
55.1 -18.0055 0.759955 
-33.93833 -55.06118 1.094771 
-32.79816 55.08312 -0.1300081 
-33.18523 -3.505475 1.213017 
-7.352231 -11.55356 -1.355 
-45.96832 -45.90895 -1.352538 
-46.31463 44.42979 1.355011 
0.7714205 -9.413614 1.355 
-47.61716 36.88599 1.355007 
9.575952 19.1427 0.8716822 
26.57113 0.06686044 1.354694 
-51.46407 5.025604 -1.354998 
25.17752 -33.62822 -1.355001 
-27.3526 -49.37099 -1.354999 
35.57228 33.39371 1.355025 
-52.92439 51.21258 -1.34281 
41.01966 7.206968 1.355221 
39.88478 -23.07835 -1.355001 
-1.714646 27.56116 -1.355 
43.05532 46.82667 1.35501 
22.68668 55.1 0.6009462 
-54.11635 -34.60472 -1.348732 
-11.1041 43.87562 -1.355 
-46.54105 -25.43048 -1.354998 
-9.884362 -9.993318 1.354274 
15.87939 -36.16312 -1.355001 
-46.46001 25.29001 -1.354998 
23.09326 3.59599 -1.355001 
-46.84501 27.20448 1.354907 
33.48256 43.00202 -1.355001 
20.45584 -5.690103 -1.355001 
26.86987 -22.90975 -1.355001 
-6.706318 -32.10692 -1.355 
-49.81705 -26.97641 1.355003 
6.295633 -52.45259 0.9536906 
-25.47975 54.60477 1.352201 
20.6924 -14.20413 -1.355001 
23.62757 9.766873 1.355011 
50.09896 -1.450136 1.355016 
-46.38071 8.153435 1.355003 
26.95212 42.43632 1.355005 
7.744265 -40.6418 1.355444 
20.52654 47.35241 -1.355001 
-36.37386 10.16254 -1.354998 
29.34196 -8.761189 -1.355001 
34.73397 42.46871 -1.355001 
36.10537 -29.41991 -1.355001 
-33.79932 -51.95522 -1.354998 
33.13554 -52.99064 -1.353785 
-2.868651 -50.44861 -1.355 
-37.44675 -6.740795 -1.354998 
9.241461 34.90915 0.282638 
49.85429 10.94782 1.355001 
-33.68667 44.87226 -1.354998 
-14.04859 26.15435 1.355021 
1.060848 8.251495 -1.355 
11.9631 -54.09387 1.348044 
-8.148259 9.435262 1.355006 
47.44883 43.39978 -1.346263 
28.8788 -53.70538 -1.355001 
-7.096801 -47.73858 -1.355 
15.21835 5.639982 -1.355 
50.62286 13.77242 -1.355002 
17.05073 -33.64688 -1.355001 
-55.1 -28.17119 -0.5231182 
-34.68379 17.88811 -1.354998 
40.34774 -36.88522 -1.355002 
-25.83453 -13.34241 1.354996 
48.9147 -1.93762 1.355012 
11.55361 26.66358 -1.355 
-43.82588 15.05609 1.355002 
-11.58814 -22.21444 -1.355 
-17.08704 52.11717 -1.355 
-0.6702799 -16.89198 0.3270984 
-39.4155 22.92257 1.354133 
26.24928 9.661151 -1.355001 
44.45177 31.3286 -1.355001 
-18.02966 -49.48829 -1.354999 
38.39769 43.00898 -1.355001 
-54.91213 18.81576 -1.332165 
-40.94983 -51.02894 -1.354998 
-43.80469 -38.72607 -1.354998 
26.18352 -14.52205 1.275451 
-49.56697 51.65878 1.35504 
32.95181 -23.5701 -1.355001 
14.82181 -39.68859 -1.355001 
24.28681 45.14384 -1.355001 
-36.14375 55.08011 -0.4454633 
21.02304 -21.98846 -1.355001 
19.35228 26.84085 1.355 
-48.31949 -39.65279 -1.354577 
-16.14886 -13.37711 1.355001 
-34.90107 -4.55875 0.2695203 
-29.47519 -10.21864 -1.354999 
-6.372838 47.81579 1.355 
55.1 6.864984 -0.2130817 
42.20555 -30.01433 -1.355002 
-49.1724 36.95455 -1.354998 
1.78185 55.09935 -0.2129459 
1.809078 -33.82028 -1.355 
-31.86972 20.29433 -1.354998 
22.4673 28.58525 -1.355001 
26.43103 17.93861 1.355006 
49.70504 28.61366 1.355 
-23.50885 18.6638 1.354074 
-52.91263 7.044233 -1.352248 
-49.0704 -50.06919 1.355002 
41.4544 -1.664175 -0.403029 
36.89378 -52.27129 1.354998 
-30.22159 33.96127 1.355003 
-50.5695 40.14915 1.354936 
-50.23472 -28.45198 -1.354998 
-44.85392 -43.11855 0.2000706 
19.80459 28.7794 -1.355 
-15.35335 1.679578 -1.354999 
42.48642 6.03245 -0.06093076 
35.71795 3.530043 -1.355001 
36.35779 34.98794 0.2239527 
-26.22509 42.17357 -1.354999 
39.45911 14.3367 1.354826 
15.07295 -27.42039 -1.355001 
-5.617472 -33.97483 1.355004 
-22.5215 -7.750125 -1.354999 
-8.337334 54.16374 1.355491 
17.85307 17.83066 1.352957 
-41.01787 30.05076 1.354537 
-8.740742 -51.46878 1.355 
-55.0999 0.1663038 0.1972227 
-42.23203 -4.357258 -1.354998 
54.23898 14.92067 -1.355002 
44.11794 -29.75385 1.35391 
53.08151 -3.493588 -1.355002 
-37.325 9.085205 1.351731 
48.09071 -27.98417 0.8827754 
-54.96029 45.36038 1.329596 
-3.456444 -11.2016 1.353998 
-7.452275 -18.59867 1.353906 
53.80324 4.776221 -1.355002 
-43.18046 40.51971 -1.354998 
-45.07957 29.91524 -1.354998 
-4.666255 -1.876567 -1.355 
-15.57807 41.65791 -1.354999 
17.85155 45.30593 -1.355001 
27.28994 33.26579 -1.355001 
-44.02608 -21.10498 -1.354998 
-15.25842 -27.8902 -0.07569207 
2.33221 13.13631 1.354925 
-9.290929 -26.27265 1.326034 
26.34498 -35.39981 1.354999 
2.831391 -2.724922 1.355 
35.89986 14.65232 -1.355001 
23.93645 -6.038899 0.5761402 
55.0474 29.4243 1.153638 
-8.319828 33.45468 -1.354999 
22.97561 15.84927 -1.355001 
-55.09665 34.02261 -0.774416 
20.1527 25.78063 1.355001 
29.5102 7.266634 1.355003 
-34.73695 -32.54628 1.353835 
-12.97067 -37.09414 -1.355 
21.13549 13.02747 1.355019 
-37.54382 35.34547 1.355005 
1.975001 50.23076 1.355001 
-32.6125 16.48705 1.35501 
5.141965 8.924411 -1.355 
53.25155 -33.42299 1.354998 
-13.74676 -10.02096 1.354227 
49.51625 44.44542 1.354998 
7.591552 -7.4264 -1.355 
42.02706 -2.844384 -1.355001 
50.41825 -1.715633 -1.355002 
-14.87575 -16.24055 1.355004 
-28.56983 -8.922844 0.6045616 
18.0462 45.94243 1.355005 
-15.69166 11.88864 -1.354999 
45.40042 -0.5930503 1.352077 
38.1137 -51.37309 1.354998 
-20.65454 -33.99537 1.354764 
-21.19925 -49.94442 1.355001 
27.09333 19.82555 1.355005 
-26.62552 21.49331 -1.354999 
-7.024633 -35.07963 -1.355 
50.86997 -37.07947 1.354998 
-47.98087 -3.72324 -1.354998 
-21.10532 44.55239 -1.354999 
-37.35695 37.8787 1.355006 
50.00855 -16.68518 -0.1483998 
3.889234 4.372855 1.070812 
18.72593 11.91347 1.35487 
-28.82572 51.68929 -0.4098578 
-15.90487 -7.409773 -1.355 
-36.32344 -2.649453 0.6271076 
44.2506 -53.68268 -1.344968 
-41.1198 7.877512 -1.354998 
-28.07955 39.76365 1.355003 
48.60752 -44.53718 -1.351101 
40.49151 18.9481 0.7625235 
-41.4712 5.864809 1.354814 
-39.06166 50.83671 1.302541 
2.435846 48.32819 1.355003 
-45.71778 44.90446 1.355011 
-13.66746 -53.80487 -1.354999 
-30.49138 -10.0977 -1.354999 
-39.02197 42.39624 -1.354998 
6.09218 -36.90339 1.355 
42.29645 -35.05795 1.35557 
-25.47408 -51.56517 -1.354999 
-3.313546 -12.30002 0.5443009 
15.52021 39.76924 1.350317 
-3.895331 4.924963 -1.355 
4.223919 -40.84858 1.355146 
40.99135 -42.3251 -1.355002 
16.49933 -19.82388 1.061168 
-36.6195 -21.98546 1.355 
-31.14957 -33.68184 -1.354999 
-30.76822 -40.84696 -1.354999 
11.53773 50.83564 1.355002 
50.2653 31.86751 -1.354584 
-13.04096 53.33223 -1.355 
-24.24678 -48.26137 1.355001 
-37.09674 12.75932 -1.354998 
-6.483293 -15.08152 1.340022 
-37.48757 -39.32916 1.35561 
-29.66308 -54.26054 1.354523 
-13.02693 -44.7051 1.355 
10.19862 33.22359 -0.4115001 
32.67834 10.99697 1.348954 
-28.0052 28.83994 -1.354998 
-6.712212 -14.09079 1.355049 
-6.796525 -1.252286 -1.355 
-10.74887 -49.61964 1.355 
-16.77822 49.94934 1.355169 
8.907022 -10.23532 1.355 
30.21262 35.30973 1.355008 
-47.46639 30.24908 -1.354998 
-21.24674 18.22327 1.354889 
-35.62908 -44.47084 -1.354999 
35.64672 -45.60468 1.354999 
-30.47041 -5.26441 -1.354999 
28.49302 -26.30348 1.353808 
45.92545 -23.78078 -1.355002 
10.49797 12.48833 1.354676 
-21.33381 -22.10312 -1.354999 
28.07252 44.47797 -1.355001 
-13.7237 18.16962 -1.354999 
-21.13438 29.16531 1.355015 
21.95248 -49.43285 1.354173 
34.80913 25.73341 1.35307 
-34.798 -39.12107 1.350485 
-11.70858 -42.85246 -1.355 
-34.62811 2.882645 -1.354998 
-30.88491 26.44409 1.354284 
-13.74548 -20.186 1.355005 
-30.03479 34.27835 1.355003 
7.044791 -21.08233 1.354993 
-43.08415 -35.40557 -1.354998 
-37.71722 -17.57967 -1.354998 
-12.01106 14.46164 1.355018 
18.5902 35.04123 -1.355 
15.4223 19.46305 -1.355 
4.549646 18.26424 1.355794 
32.11429 -44.18962 -1.354527 
-2.850717 52.70942 -1.355 
-53.99755 0.05392027 -1.350742 
-27.31135 46.01289 1.355001 
-29.59713 -36.48631 -1.354999 
-30.79552 -20.47649 -1.354999 
-36.56038 3.677039 0.1818182 
-22.28834 -10.91844 1.354998 
-29.36555 45.96449 -1.354999 
-24.56493 43.32835 1.35206 
50.3729 -26.34442 1.353586 
-3.096385 -0.591221 1.353615 
-42.76558 -5.565589 -1.354998 
24.04941 36.68976 1.355003 
-5.145921 41.81457 -1.355 
-34.68242 -0.8078142 1.354203 
45.61375 48.71515 1.355124 
34.01559 -4.141875 -1.355001 
49.66771 -51.98073 -1.341888 
33.22749 -14.16304 -1.355001 
45.09214 18.43573 1.354224 
-7.056273 9.949 1.355004 
35.39832 50.10836 -0.4110699 
20.13313 -17.22086 0.08718272 
1.608068 -27.62516 -1.355 
-31.57171 52.79264 0.9353031 
33.42722 35.91243 -1.355001 
-26.09437 33.09433 -1.354999 
-53.29065 39.39452 -0.04264868 
11.28374 -39.64888 -1.355001 
44.75215 -46.91279 -1.348925 
17.18892 -11.6636 -1.355001 
-32.15371 15.90792 -1.354998 
31.29364 23.56268 1.355003 
-22.656 -27.76602 -1.354999 
-35.82212 -30.30327 1.354706 
-16.71654 33.93333 -1.354999 
3.630354 -33.10184 1.355 
-0.1782784 -8.780989 1.355 
-32.06535 -32.01675 1.354762 
-5.313668 15.14733 1.355005 
-32.51524 31.83169 1.354782 
2.531288 46.81564 1.355004 
-40.64463 50.30296 -1.354998 
17.9578 -4.581717 -1.355001 
-53.0754 -10.84602 1.355006 
41.55753 1.864988 1.15998 
19.62703 19.13742 -1.355 
8.477283 -31.03846 1.354939 
-29.72596 -52.30609 1.355001 
24.95167 -17.41381 -1.355001 
48.39986 -28.12616 -1.355002 
-42.49066 -29.99707 -1.354998 
19.56019 -33.50364 0.5981177 
