ply
format ascii 1.0
comment VCGLIB generated
element vertex 1645
property float x
property float y
property float z
element face 0
property list uchar int vertex_indices
end_header
2.168566 5.11707 -8.504947 
0.9854826 -27.8644 -34.7875 
-2.167998 -14.66167 30.10782 
2.168007 21.62902 28.68796 
-0.164516 -21.71485 -2.824598 
2.166608 19.75233 -10.08184 
-2.167999 -2.125066 18.5977 
-2.145487 -11.77969 43.83386 
-2.167998 -18.47171 18.24589 
1.493092 -42.4297 26.75881 
-2.167995 -43.37544 14.09171 
-2.167999 -4.323939 13.33321 
-2.167999 -16.1952 -11.97788 
-2.168 26.69514 33.399 
-2.167998 -27.69592 -23.85266 
-2.168 -14.42908 -22.06013 
2.168345 -2.44556 -12.68879 
2.168 0.6026585 -3.198469 
2.168009 33.30978 -20.56268 
0.994028 -21.28875 36.80226 
2.165628 -17.24857 -25.90481 
2.167998 2.57057 -22.8877 
-2.168002 8.836849 -24.34344 
-2.168001 31.80627 10.70012 
-2.168 0.3257905 -2.231344 
-2.167999 -10.97395 3.045067 
2.169327 37.01779 -1.001013 
2.149946 -41.87179 -42.48338 
2.163401 -30.37226 -33.47649 
0.09051196 26.4549 44.05357 
1.402954 23.63052 38.9597 
-2.168002 32.91748 -5.0757 
2.168038 34.56009 27.17343 
2.167783 -34.75639 14.2492 
2.168026 35.28481 28.31812 
2.168005 31.07549 31.14098 
0.7577537 -31.49017 38.37121 
2.168002 -34.81983 -39.25563 
-2.168002 37.2955 29.64964 
-2.167997 -32.59683 8.863038 
-2.152545 28.67483 43.3227 
-2.168 10.31228 3.41735 
-2.168 -5.60033 -16.53621 
2.168007 28.47605 12.6263 
2.167807 -32.66687 -18.75486 
-2.167999 36.26159 -40.45929 
-2.167998 -22.26507 20.98114 
0.8350959 -23.32106 -7.565267 
2.168155 -35.05825 14.06666 
2.167257 -28.32018 -13.67413 
-2.167999 -1.068068 30.00871 
2.169139 23.69279 27.18024 
-2.168004 41.32178 -8.899286 
2.169976 35.68115 4.293344 
-2.167995 -35.26878 35.63503 
1.868216 -25.29135 -2.625947 
-2.167997 -30.0044 17.25991 
1.209273 36.8796 17.4035 
-2.168001 -3.783153 -29.75728 
-2.168002 33.13804 -2.854354 
2.171708 42.38062 6.736046 
2.167574 17.17255 -0.4557397 
2.168 -12.3725 -3.200082 
2.167658 -27.13595 17.42235 
-2.168002 23.81137 -33.94039 
-2.168001 22.40579 5.713428 
2.035038 -21.97873 -5.799013 
-0.6593704 -25.75151 -4.095071 
2.168105 26.69734 20.33812 
1.59973 -25.13833 44.08 
-0.6357474 -26.47898 -4.837471 
2.167636 36.93693 40.53349 
-2.168 -4.547379 -12.96482 
2.168 -6.388019 1.296911 
-2.167997 -35.65351 2.288634 
-2.167997 -31.04372 25.99887 
-2.168001 10.73348 -19.34185 
-0.9555269 44.07983 -1.282126 
2.168015 -24.08642 19.28861 
2.167998 5.212296 -27.76088 
2.162101 -41.4713 -31.0299 
-0.3234445 -15.47957 10.50764 
-2.168001 -0.5550213 -34.59965 
-2.168001 14.47457 -14.66477 
-2.167999 -24.6811 -18.13853 
2.13407 -38.11754 -7.310003 
-2.167999 -9.569877 6.654985 
2.151212 -2.326076 9.199237 
-2.168003 42.02215 23.2099 
-1.935579 -36.32861 -44.04688 
-0.1700694 -38.22565 -6.067207 
-2.168 -13.95521 -19.00381 
2.007657 -27.83237 -34.06375 
2.016096 -33.64417 35.88322 
-2.167996 -35.05689 33.39054 
2.168955 38.06375 -4.353543 
2.166928 41.96784 -26.83657 
2.161631 -4.573178 -36.73285 
2.167997 21.28839 -39.05414 
2.168012 -26.85713 -15.26824 
-2.167997 -22.30773 29.53438 
2.161367 -31.54798 31.38404 
-0.6484428 -40.66817 6.411282 
-0.5620331 5.259679 -44.07999 
-2.168003 42.97262 26.29544 
-2.167995 -35.87711 43.36542 
-2.167998 -27.40614 13.31441 
2.168062 37.32175 20.08641 
1.029134 42.80449 -42.13734 
-2.168 25.61312 15.52257 
-2.167998 -3.415285 33.21256 
-1.499115 -44.07994 16.72925 
0.5016706 40.26163 -38.99862 
2.168054 -8.340584 7.802144 
0.735546 41.5746 18.63421 
-0.2754436 -35.65834 -44.08 
2.167988 -6.299822 24.67449 
-1.255872 -44.08 -38.49627 
-0.6487143 30.71369 -25.75202 
0.09679282 44.07965 -0.2428271 
-2.167999 -35.81559 -34.53572 
-2.167997 -20.32174 28.15021 
2.166877 -40.97533 21.89583 
-0.6590363 -6.167611 -40.69082 
-2.167999 -23.45802 -33.39085 
1.651288 -31.81586 31.32788 
0.05610655 -35.71962 -7.240516 
-2.168001 4.899915 -28.27114 
2.168001 4.174304 39.03287 
0.9270782 -31.54792 -2.803931 
2.168 -8.93925 2.29844 
-0.4563701 -9.548454 -40.89336 
-2.167997 -42.29961 -15.97026 
2.167998 11.61608 -37.01725 
2.168005 -40.13893 18.07525 
2.167998 11.74355 -18.39938 
2.168011 -27.39941 19.77427 
2.168427 43.41959 -13.52177 
-2.168 17.36156 27.23965 
1.48347 -6.659131 -40.46894 
1.637757 -43.30349 9.117318 
2.168 26.56128 -8.688705 
2.167999 4.784643 -35.7612 
-1.919461 -28.56393 -44.04286 
-0.1522595 -13.89547 44.08 
2.169615 34.77269 3.223871 
-2.168002 30.58552 1.764613 
2.168002 -24.63714 1.754121 
-2.167998 -1.369781 33.10057 
-2.168001 32.45527 22.59369 
2.168005 21.17307 15.65526 
-2.167998 -17.22031 25.93711 
-2.167998 -5.946708 34.93202 
2.168017 -29.96686 5.673863 
2.168003 31.09185 -10.47568 
-2.167997 -12.46661 39.60725 
-0.6487942 -43.18901 32.23481 
0.5564631 5.787983 9.144758 
-2.167999 -2.911206 11.42642 
0.3528565 -41.45665 5.91465 
-2.168002 33.84824 -2.538249 
1.816932 37.83295 44.04344 
-2.168 14.05519 25.06698 
-2.168001 14.25844 -40.60938 
2.167608 21.41896 -0.1176299 
-2.168002 17.74691 -15.12144 
-2.167999 -24.43015 -20.27008 
1.291341 32.86225 -29.03419 
-2.168003 32.49634 -25.1648 
-2.168003 41.31314 -10.09116 
1.542907 5.460275 9.462608 
-2.168002 25.30167 -11.83531 
-2.168001 34.40934 -34.4491 
2.168022 -24.87538 43.18227 
2.168 -11.12241 -5.289481 
-2.167998 -24.96996 13.79349 
2.035107 -20.00608 44.00641 
2.168044 35.58865 40.46418 
-2.167998 -6.464313 29.51795 
-2.167997 -29.91504 12.58573 
-2.167997 -29.77162 17.19309 
-2.168002 18.75041 -13.27231 
-0.6480821 30.81741 -28.28531 
-2.167997 -26.35572 19.93377 
2.168004 24.11216 12.43426 
-0.4888898 -44.08 -40.64619 
2.168 -27.51779 -42.83196 
-2.168 -0.9179111 -15.05972 
2.168266 34.01116 -3.752341 
-2.168001 -4.123538 -37.63451 
0.8382326 -14.31534 44.08 
1.147079 40.89046 16.26618 
2.167339 17.42701 -16.07862 
-2.168002 31.13178 1.042527 
-2.167998 -19.54951 10.21891 
-2.168 15.16987 24.87462 
-2.167998 -39.95342 -35.77807 
2.168 -20.47458 -36.29764 
2.168011 2.357367 32.19096 
-2.167999 -23.62066 -18.85526 
-2.167998 -22.28528 7.218745 
2.166937 -40.97597 15.3965 
-2.167998 -40.7636 -26.02651 
-2.168003 25.37425 -31.51175 
2.167999 -2.304143 27.02222 
2.168913 -1.771443 8.924635 
2.168057 -17.37454 -16.12553 
-2.168002 38.81486 31.36791 
2.167999 -1.177161 -18.92434 
0.7638957 -32.40617 -0.5506161 
1.375372 19.05489 24.07722 
0.1057377 -34.5259 -9.092421 
0.05727348 -44.07999 -41.31963 
2.167906 -1.669271 -43.43941 
0.5003118 -38.15794 -4.958302 
2.168018 -21.93993 12.30682 
-2.167995 -33.47508 43.48256 
-2.168 8.167245 28.04898 
2.168015 0.2861562 32.57542 
2.166865 21.32558 -2.382267 
-2.168 20.0703 27.4467 
2.167997 12.6427 -36.49727 
2.168007 -22.17514 -28.45298 
-2.128963 -43.94673 4.414918 
2.167999 0.002047285 -20.80049 
2.167999 -8.572334 -8.33088 
-0.7040277 -44.08 -41.98837 
2.168007 -21.9651 4.892784 
1.214668 -26.41611 -5.52012 
0.9697808 31.12868 -23.39415 
-2.167999 -23.23594 -27.26384 
2.167955 -20.26906 25.91612 
-2.167999 6.865617 34.80088 
1.20502 -17.63095 -44.08021 
-2.168001 8.431276 -10.36411 
-2.168 9.74155 5.729257 
-2.167998 -36.53971 -23.1691 
2.161566 -43.39627 22.39279 
1.710057 -35.33171 -4.386472 
-2.168 20.85441 19.26271 
-2.168 -10.75872 -31.3539 
1.403432 38.13641 17.30687 
2.171016 43.17633 1.807844 
-2.168001 32.53175 31.81528 
-2.167999 -7.782561 1.359206 
1.781121 -17.82653 40.43792 
2.167998 15.67674 -22.5655 
2.168022 -38.43954 -14.55516 
2.16802 -40.79268 -5.688251 
-2.168001 14.49797 -7.219006 
2.168008 29.76112 -17.78392 
-2.168002 24.01764 -15.59782 
-2.168002 30.52449 -2.462143 
-2.167997 -5.83824 39.9092 
2.168004 28.23656 -15.22453 
-2.168001 18.4947 -2.979963 
0.3528858 0.8683382 10.97932 
2.168 -3.977977 -5.126251 
2.167559 -17.3313 33.4271 
2.168013 -34.20347 28.11723 
2.168038 -41.38927 -17.39098 
-2.168003 19.99845 -33.9764 
0.4253505 -41.31682 1.062801 
2.168009 -23.21499 -24.66912 
-2.167999 -6.489064 25.12615 
-2.167997 -34.77007 -4.982424 
-0.9916304 44.08 -8.166353 
-0.656931 -30.60663 33.88589 
-2.168001 24.76942 3.853769 
-2.168 13.13979 5.808325 
-2.168002 37.2989 -26.1884 
-2.167999 -15.94813 1.308302 
2.166761 15.76702 -9.346481 
-2.167999 -2.046141 26.34257 
-2.168001 -6.360498 -36.63267 
0.3687353 -36.05291 -6.404955 
2.168006 8.626117 22.59119 
2.167616 24.43047 -1.117334 
1.664541 15.54342 44.06578 
-2.168 4.995292 9.204634 
0.8875256 -1.241 -44.07994 
1.860296 -31.92879 -44.0361 
-2.168 -11.07466 -36.10884 
2.165386 -10.89522 -31.96504 
2.167664 28.34138 35.41608 
2.167615 7.44645 15.96764 
-0.6336076 -7.813152 12.39949 
2.167998 17.06003 -24.07816 
2.167484 17.69914 6.651731 
-0.8314055 44.07979 28.58934 
-2.168 -2.15882 4.857171 
-2.167998 -22.82825 12.63812 
-2.168001 33.59825 14.29157 
2.167601 -41.34564 18.38002 
-2.168003 27.13698 -17.45491 
-2.168001 26.26481 0.7480903 
-2.167999 -9.749592 12.15782 
2.167818 38.39673 -29.29043 
0.2613356 -31.65586 0.5228576 
1.058548 23.20019 25.26541 
2.168016 0.2045574 31.89705 
-2.168003 39.0486 5.531981 
2.167998 7.873585 -37.4192 
-2.167998 -20.56106 15.21298 
-2.168 9.590742 1.88844 
0.839703 -6.258003 23.24438 
-2.154581 32.7158 40.99122 
-2.168 18.44992 35.78776 
2.167997 18.67914 -23.43227 
1.681059 -44.0634 -42.68287 
-2.167997 -27.05427 30.46244 
-2.167995 -35.1376 40.06753 
2.169901 35.18133 4.421893 
-2.167996 -43.45697 -12.15062 
-2.168 -19.55964 -32.89539 
2.167533 43.5505 -30.59386 
2.168004 28.6471 -7.36117 
2.167998 17.22086 -23.53152 
-2.168001 15.03943 -6.882909 
2.167996 19.19211 -42.70394 
-0.3684306 -43.0443 31.29089 
-2.167998 -12.80092 30.76281 
0.02961484 -32.38154 36.41245 
2.167998 15.82055 -23.35781 
2.168254 -42.87571 15.57184 
-2.167998 -6.333971 33.68774 
-2.168 6.911596 7.887313 
-0.03393877 44.08 -10.85041 
-2.167999 -8.455183 6.918642 
-0.5850691 -10.80629 10.73157 
-2.168001 19.75213 8.58983 
1.495168 -6.218501 12.49888 
-2.167999 1.499904 23.27063 
1.709547 -40.89265 1.95479 
-2.167996 -38.70247 2.813723 
1.319091 -18.63878 37.72176 
0.2010745 33.16625 44.08008 
-2.168 8.049589 0.8441945 
2.168007 -28.93982 23.9101 
1.361455 -44.08112 35.39611 
2.169299 37.7081 -1.95246 
-2.166055 17.11311 41.31512 
2.16802 33.28133 18.88665 
2.167998 40.04114 30.04222 
-2.168002 37.8931 31.49016 
2.163245 41.00133 43.43401 
-2.168001 31.78868 22.60965 
1.769823 -21.69072 -2.901263 
-2.168002 6.212662 -42.43288 
2.167951 18.62471 6.182779 
-2.167999 -15.44157 -12.02713 
1.013224 18.77103 24.60477 
-1.535656 -44.08183 -4.784805 
2.167865 40.16952 -25.01681 
-0.6036249 28.05719 43.3796 
-0.5582118 -40.78525 6.47952 
-2.168 22.60644 23.00718 
-2.168 -19.37488 -40.75965 
0.7901407 -10.71853 11.69277 
1.089893 12.04428 -8.016028 
-2.168001 7.593696 -7.495856 
2.168061 35.20569 -6.30151 
-2.167999 -16.04084 7.320012 
0.0451479 -16.79288 36.88079 
-2.168001 23.45026 6.269802 
-2.168002 28.4702 -33.83179 
-2.167999 5.320656 26.9635 
2.168 -12.18901 -8.318401 
-2.167997 -0.4598413 42.8414 
2.167912 18.7863 29.48895 
2.168036 29.7622 -39.01768 
-2.167999 -21.08388 -30.63303 
-2.168002 22.36488 -20.6643 
-2.167999 -32.50555 -36.38282 
0.9746573 -34.2466 -8.569713 
2.168019 -22.97487 10.28898 
-1.029736 33.28888 44.07855 
0.09786943 42.6764 -38.65451 
2.093614 13.09482 -9.103413 
-2.167998 -7.51966 32.02164 
-2.167998 -6.599784 30.03432 
-1.085101 33.16105 -44.08001 
-2.168003 22.05567 -27.348 
-2.167998 -31.39278 4.705514 
-2.167999 -8.561201 10.85587 
0.2380297 -21.70023 37.03422 
-2.167998 -4.763225 33.66103 
2.168015 -0.4224303 31.63365 
-0.5444018 -42.79388 9.027222 
1.210183 -32.87226 31.49003 
-2.061114 35.78579 -44.00132 
-2.161281 19.52286 42.61263 
-2.168001 15.45924 -7.218611 
2.161468 -38.60665 29.40466 
-2.167999 9.298709 35.79443 
-0.6521834 -35.53786 -8.888238 
2.167965 3.590696 16.72921 
2.168002 -28.43882 -36.73567 
-2.167999 -23.53426 -17.62624 
-2.168001 30.26281 8.119102 
-2.168 22.35185 35.19538 
-2.168 1.339431 9.556044 
2.166501 -25.43765 28.5287 
0.8295039 2.272847 -44.08 
2.168 -18.65777 -32.69973 
2.167915 18.98556 2.669291 
2.168032 -41.83296 -9.525739 
1.834441 42.47619 21.1806 
0.8940635 12.99824 -9.005944 
-2.168001 12.13331 -42.30268 
2.153533 12.79413 43.58493 
2.167998 11.31607 -16.91846 
2.168212 -17.61816 -6.784065 
-2.167997 -35.09177 -11.77813 
-0.6459445 -36.10126 -6.221926 
-2.168 13.18484 17.62653 
2.168001 -13.09202 -3.553583 
2.16873 36.21683 -3.558749 
-0.07963336 -42.01625 0.7218125 
-2.167999 -18.07133 -23.95585 
-0.6549816 -43.11973 31.04833 
1.024622 -44.08 -31.88247 
-2.167999 -20.85334 -15.77887 
2.167885 -9.611273 -41.31464 
2.168003 -12.74141 32.67862 
2.168003 0.9839605 40.18287 
-2.168002 35.57639 20.64758 
2.167599 -10.43932 24.14231 
-2.167999 5.316069 33.73442 
-2.153382 32.59843 41.57049 
1.650601 -6.787332 14.77584 
-2.167998 -28.88457 -12.96417 
-2.168 9.642089 5.365149 
0.4329559 43.7914 14.32576 
2.168003 13.96004 21.95069 
2.168 -21.72069 -37.76138 
2.167307 22.66151 -8.654478 
-2.154999 -19.45823 -42.74247 
-0.6513432 -15.78708 18.82358 
0.2558514 -33.70423 -1.959731 
-2.162187 19.4501 42.23114 
-2.167999 5.480196 31.97055 
1.217591 -21.7219 -5.683238 
-2.167999 -20.77452 -9.343312 
-2.168001 38.40845 -29.28096 
2.167992 -8.937135 27.28184 
-2.167997 -21.30199 25.57458 
2.168181 29.05392 6.694012 
-2.167995 -40.9482 31.66672 
-2.168001 33.46961 15.99655 
-2.168 16.17651 24.69004 
-2.167998 -22.03308 3.649482 
-1.509436 41.47877 44.07785 
2.168 7.39857 38.57346 
1.784666 21.36203 23.52736 
2.167997 17.74379 -26.38902 
2.167492 28.01891 23.20541 
-2.167996 -24.1137 34.3547 
2.168023 3.09918 -37.30276 
-2.167997 -16.79937 37.24763 
-2.168002 9.512768 -41.71429 
2.169191 9.841778 15.3647 
-2.167999 2.265904 20.21228 
-2.168003 41.20432 12.7126 
-2.167999 -18.02535 -9.897671 
-2.168 3.798684 2.593122 
2.168125 6.842319 0.9619414 
2.165247 -12.47204 -41.45802 
-2.168002 38.50741 -18.99414 
-0.7722173 44.08 -7.641094 
2.165727 -16.63582 22.02103 
-2.167998 -25.39764 6.945005 
-2.148208 35.92675 42.72519 
-2.168 -19.16947 -40.87281 
-0.01596982 -29.89646 -32.83321 
0.5734468 -32.59678 36.71471 
-2.168 7.824351 13.31528 
2.121374 0.3954829 10.68562 
-1.054845 -44.07932 -3.304467 
-0.1301415 -44.08 -25.59133 
2.168184 25.59995 21.73065 
-2.168002 5.834569 -35.28509 
-0.5597701 -30.65297 -4.884695 
-2.168003 32.22241 -20.37511 
-2.168001 41.413 -22.56067 
-2.168 24.40161 -40.58943 
2.171134 41.22661 4.713172 
-2.16505 37.1478 34.73736 
-2.167999 -23.38326 -33.76272 
2.168 14.01732 38.97391 
-2.167998 -37.86596 -27.16304 
2.166697 -24.69684 -12.6604 
2.168066 -12.00202 18.13542 
2.163223 -25.56367 -28.8657 
0.5415543 -44.05112 1.623277 
-2.167997 -37.99668 -18.13866 
2.165507 11.27571 -13.2698 
-2.168001 10.21628 -16.34545 
-2.168 20.67199 15.44048 
2.168068 37.83554 21.89304 
-2.168 -1.041239 -21.45946 
-2.168003 22.90779 -33.25336 
2.16801 -28.55732 21.64162 
2.167743 38.18259 -30.23956 
2.168047 -11.05424 5.874611 
2.168098 19.49613 20.2937 
0.7643651 -18.04417 40.76559 
-2.168001 -0.7174263 -24.93242 
-2.168002 16.80875 -23.84391 
2.166396 40.63242 -33.15308 
-2.168002 31.2077 0.4327946 
2.167588 -11.17696 -40.15159 
1.291758 -44.07952 16.78238 
-2.167996 -34.12302 25.96183 
2.168011 37.33674 11.87521 
-2.168001 14.9567 -15.25804 
-2.167997 -25.32369 28.6045 
-2.168 14.24068 12.23463 
2.167552 18.77589 -0.6503106 
2.167454 -7.600867 21.50217 
2.168005 -42.58962 19.77777 
-2.167155 -22.86111 -40.88487 
0.5157628 2.838941 6.620816 
-2.168 -9.80831 -33.04785 
-2.167997 -36.21549 -9.168526 
-2.167996 -35.03579 23.52538 
-2.167998 -33.61634 -20.56119 
2.168388 7.50381 -9.736744 
-2.168 -10.02444 -16.67656 
2.167742 25.95497 -32.02456 
-2.167998 -29.25544 -16.71522 
-2.168002 30.1073 -29.62559 
2.168003 24.84369 9.927769 
0.4499053 -16.07681 15.77384 
-2.168 -2.574023 -4.460646 
-2.168002 10.92399 -18.36261 
-2.167998 -42.38493 -27.19804 
-1.516583 44.08118 20.20245 
-0.3524477 -31.79553 -3.100711 
0.1661167 -41.28911 3.207086 
2.167703 39.1323 -28.3617 
2.168558 30.51945 1.920093 
2.165521 2.610784 -12.26505 
0.6360116 -27.24177 34.44988 
-2.167998 -38.50213 -34.60124 
2.167367 -40.88468 25.4873 
-2.167998 -17.53045 20.70377 
-1.877765 4.355887 -44.03314 
2.160834 28.37816 40.66724 
1.117922 -7.317111 13.70417 
2.168097 19.19221 20.27794 
-2.168001 23.99888 9.869939 
2.168 -20.80922 -38.28646 
0.5469342 44.08 -21.16283 
-2.168 -18.11418 -35.66241 
-2.168002 3.996166 -41.10266 
-2.168 11.86641 27.4043 
0.7256589 -0.4599544 10.67377 
-2.167998 -16.24962 17.64863 
-2.167998 -26.8537 8.679145 
-2.167998 -25.22373 0.6206789 
-2.167998 -8.346435 29.16252 
-2.168 34.48444 -36.03506 
-2.167999 -15.29693 -1.911684 
-2.167999 -18.97347 -3.735409 
-0.4214006 19.47808 28.18214 
-2.168 -11.26595 -24.2812 
2.16801 -0.3890367 36.78313 
1.232807 -18.42363 35.86828 
-2.158109 -17.80297 -42.55883 
2.163332 -12.08399 -38.56511 
2.167999 -1.065507 -26.67426 
-2.168002 12.71538 -26.48324 
2.16802 -22.11823 12.51676 
-0.4168385 43.21001 9.584064 
-0.4076936 13.90959 -44.08001 
2.167267 22.27023 -11.88419 
1.985476 -20.60562 -44.0164 
1.958466 13.3618 -7.014872 
-2.168002 29.2029 -31.85094 
2.029589 44.00779 -17.09447 
2.163841 34.06095 -23.65049 
2.168022 13.2512 -41.99524 
-2.168002 40.96598 -16.42617 
2.168005 -39.04855 42.21784 
0.56683 -19.67888 -16.16635 
-2.167995 -33.47423 39.66186 
2.161884 -30.90821 -6.487144 
2.168 -24.47016 -37.97308 
-2.168002 37.94085 20.68219 
-2.167999 -13.31573 -5.99684 
2.145651 43.22746 43.6767 
2.167698 -29.2496 18.78154 
2.168386 11.23038 22.90683 
2.165652 42.98871 -32.50854 
-2.167997 -9.520901 38.96587 
2.153357 9.436193 11.48075 
-2.167997 -18.8123 28.34606 
2.167996 36.17168 -14.98746 
2.168005 -26.62636 -20.90584 
2.166841 26.65681 -30.62908 
2.167974 14.122 29.67676 
2.161804 37.55239 -39.76475 
2.168015 -27.58224 10.15443 
2.167998 26.15593 -2.540515 
2.166589 9.280953 7.246483 
-0.6259044 37.3744 15.21255 
-2.167998 -28.55059 -0.1832057 
2.167998 8.10121 -30.93412 
1.621406 -41.08231 3.063272 
0.8458717 -44.08 -42.43261 
-1.048344 44.08 -7.160161 
2.137589 24.02593 43.81986 
-2.168001 29.03062 24.90067 
-2.168 -2.430224 0.6243779 
2.168004 -31.95617 26.41076 
0.1253308 44.06331 -39.38308 
1.163063 -34.36452 -44.08 
-0.1500609 7.011347 8.359738 
-0.1739126 -29.44548 35.18882 
-2.168 0.4271057 -4.51537 
2.167996 34.08118 -8.817263 
-2.168001 21.70516 -5.460036 
-2.168 -18.18114 -36.79478 
-2.167997 -18.02255 30.38116 
-2.168 3.87905 5.415699 
2.167998 15.32876 -20.03162 
-2.167995 -30.73199 40.03173 
2.166615 38.85554 -35.77349 
1.138539 -16.35501 21.09052 
-2.167999 -25.21397 -25.51892 
-2.168 -10.69753 -20.04179 
-2.168001 33.17376 24.43191 
-1.920699 3.382124 -44.0259 
2.160666 27.96239 43.56593 
2.168015 9.739285 -40.06485 
2.168 -25.67603 -38.33874 
-2.167999 4.022747 28.76229 
2.156706 9.863729 13.23398 
2.168005 -35.70494 42.32692 
2.168084 -11.73799 -33.55676 
1.407202 -33.8722 13.50408 
0.6143979 -7.735986 -41.36733 
2.167055 11.83827 5.981508 
2.168012 4.958242 21.12906 
1.982519 -43.1203 6.608781 
2.16661 -12.40695 21.17602 
-2.167998 -19.66795 26.51187 
-2.167999 -19.82629 -15.69323 
-2.167997 -34.41877 -18.72018 
-2.168001 -7.749241 -33.95653 
2.168002 -36.1778 -40.96246 
-2.167999 1.471174 29.97597 
-2.168 -4.333777 -12.17115 
-2.167999 -22.25932 -19.96172 
-2.167999 -13.1666 11.92324 
2.16521 42.714 -35.88999 
2.167998 6.555984 -21.17316 
2.168 -27.9132 -41.15932 
-2.167037 15.73547 41.35743 
2.168031 36.4339 43.182 
2.167514 -33.22905 -29.4881 
-2.168 22.26332 14.95194 
-2.168 -6.35553 -17.36037 
-2.167998 -36.14511 -30.87704 
-2.168 9.315466 20.21037 
-2.167998 -15.45461 21.96747 
-0.3031164 29.991 -44.0801 
-2.168001 24.28411 5.741997 
-2.167999 -10.63824 3.292931 
-2.167998 -18.22616 7.759204 
-2.168004 33.02696 -18.62505 
-0.6528314 32.26219 -29.72119 
-2.168 17.41728 7.996908 
2.167998 5.176187 -26.22038 
-2.167999 -14.10834 -19.10295 
-2.168 -13.93816 -18.15371 
2.166517 -40.20665 11.95498 
0.9140837 5.067052 44.07748 
-2.167998 -28.4317 -1.919549 
0.1340945 26.28602 -24.39779 
2.165889 30.43597 34.1863 
2.167999 12.50502 29.40128 
2.168 -30.91981 -41.74636 
2.167999 24.55791 6.233066 
-2.167999 -2.462293 22.05792 
-2.167999 36.97986 -38.12455 
2.168 29.61567 -4.442854 
-2.168002 13.93284 -30.06937 
0.7441313 22.23306 39.5281 
1.370221 -42.56931 29.76841 
2.168131 18.00112 21.07265 
2.168 -27.10107 -38.24884 
2.168075 -15.03114 -40.01556 
-2.167999 -21.07381 -11.88031 
-2.168002 7.396403 -32.83228 
2.167742 21.77382 41.134 
-2.168001 7.717707 -11.6869 
-0.3268061 -29.70881 -4.77435 
2.15971 42.16066 25.50689 
1.300068 -11.6996 -42.15802 
-2.168 -15.928 -23.20394 
1.46259 36.87261 44.07978 
-2.167999 -1.757202 24.02593 
2.164745 0.9635851 25.34112 
2.014297 -42.6712 26.19979 
0.9145916 43.42319 -40.10581 
1.067219 -44.07967 21.08317 
1.207558 -27.51489 -32.57159 
-2.167997 -25.27274 29.16087 
-2.158758 22.91823 42.55355 
2.167999 4.802341 -34.5932 
-2.168 23.50157 22.92876 
2.167775 -26.17908 -14.30417 
-2.167996 -37.30471 -6.354106 
0.001388155 -42.922 -0.252933 
2.168009 -8.451225 15.65131 
2.161367 -35.93615 -8.374694 
2.167999 25.68009 -39.97164 
-2.168 1.744293 -14.86769 
-2.161328 31.77256 38.29365 
-0.6162181 -20.34494 -18.69754 
-2.167999 -10.97099 10.60543 
-0.6564738 -33.00023 -1.470695 
2.167699 21.25647 0.7149438 
0.3092488 -13.17281 13.42399 
-2.167998 -20.6439 5.291407 
-2.167999 -7.724992 2.109966 
-2.145816 43.01529 41.31203 
1.979245 26.95162 -23.6904 
-0.6597877 0.1122239 7.29346 
-0.4344366 -13.82495 17.14769 
2.168011 38.9097 -10.8054 
-2.168001 6.455329 -27.30146 
-2.168 28.60093 -38.39734 
2.167318 -17.21295 -24.41467 
0.5814005 29.00561 -44.08028 
2.16158 22.16078 38.81332 
-2.168001 33.99551 14.96985 
-2.167997 -13.07851 35.01097 
2.168582 30.60691 1.961903 
-2.168001 42.42199 -21.3751 
-2.167998 -4.220453 36.7658 
2.161445 -43.34105 -21.56259 
2.166397 19.48234 -14.80273 
-2.167997 -34.33773 11.57014 
-2.168 -24.70392 -39.47132 
-2.167995 -40.78858 28.48403 
-2.167998 -23.31532 7.102034 
2.167939 7.24585 17.17504 
-2.167999 17.45271 39.85401 
-2.168002 23.70029 -8.70457 
0.7660924 -26.57802 -8.230633 
1.461223 -11.53902 10.62676 
2.167614 28.85679 23.748 
-2.167999 -18.88026 -13.56695 
-2.167997 -25.64221 23.28539 
2.168056 39.19532 24.59288 
-2.167995 -33.82541 38.23853 
-2.167998 -33.98594 -24.25435 
-2.167999 -27.66606 -12.15275 
2.167602 -18.62529 10.90683 
2.167998 9.427928 -34.42144 
-2.168 5.678804 8.631842 
1.787776 31.20725 -26.13586 
2.168014 -36.55248 -32.14946 
-1.558046 44.08 36.19423 
-1.000084 -44.08 -23.07441 
0.3915307 -15.08146 14.70298 
-2.168001 29.60676 6.659297 
2.165074 12.15983 16.33104 
1.941254 44.02228 31.86443 
2.16711 7.829951 5.80258 
-2.137623 25.99531 43.82777 
1.405249 -8.417256 -40.17696 
2.167999 -4.805133 -18.53775 
-2.167998 -11.25291 26.70435 
-2.167997 -28.5836 18.85092 
-2.167999 -21.67874 -19.3983 
-2.168003 36.84163 -16.56565 
-1.922024 26.83507 44.0257 
2.168 -8.418416 -8.762331 
-2.167998 -27.01044 4.709952 
-2.146554 38.55051 42.54712 
0.05517356 -11.81822 23.17834 
-2.167994 -42.53654 27.00304 
-2.168 -2.048478 2.922262 
2.168002 30.77993 30.59591 
-0.5379492 -14.827 18.97979 
-2.168 24.38983 14.07139 
-0.2232042 -23.76881 39.20362 
2.167481 -9.792904 -38.51263 
-2.168001 -4.68715 -40.79098 
2.168007 -38.38509 -39.86771 
-2.167997 -27.49202 19.06354 
-2.168 20.52718 16.17757 
-2.168001 26.4712 12.72595 
2.168004 21.73537 13.64233 
0.6191916 -6.555484 -40.94189 
-2.168 -4.029148 -18.74549 
2.167999 -10.60252 -14.94315 
0.9280616 -28.42361 44.07999 
-2.168002 23.71177 -7.241948 
-2.168 -10.73102 -16.32761 
2.168001 -13.1985 -1.690434 
-2.167997 -26.29934 29.71358 
-1.41505 44.08089 20.3857 
1.154897 -35.15324 44.08 
0.4994005 29.07704 -44.08027 
2.168038 4.938742 -38.76265 
-2.167999 -9.478401 6.566801 
2.167955 8.421281 17.41214 
-0.3949507 -7.88426 -39.87736 
-2.167999 6.819158 24.99056 
0.4345854 38.96338 -44.08044 
2.168 12.00676 40.34539 
2.165437 -2.220047 24.61132 
2.168005 -36.13742 42.79761 
1.050084 -33.11719 30.70485 
2.168 -30.63996 -39.91696 
-2.168001 -2.322277 -29.71423 
-0.3633431 30.37051 -25.33163 
-2.167999 0.3015935 16.02059 
2.168027 -9.752018 39.18485 
2.168509 28.74935 3.647675 
-2.167994 -41.38028 38.62278 
-2.167999 -24.6599 -17.26062 
2.167243 -29.96234 12.03224 
2.168007 -2.775182 42.27145 
-2.168001 1.456655 -30.79935 
-2.168001 25.97858 -1.217952 
-2.168 -14.55054 -31.04812 
-2.167999 13.09229 33.67563 
-0.03483923 -43.11949 -44.08 
2.167998 4.368268 -22.27088 
-2.168 20.65196 13.64985 
2.128178 -43.9214 -27.50088 
-0.3242674 27.43565 -24.01413 
-1.807289 -33.00736 -44.06023 
2.168437 0.6665211 -10.9695 
-2.167997 -32.77882 -9.468138 
2.167496 -20.05828 -10.2443 
-2.168002 9.564294 -28.60663 
2.166592 36.21223 -37.47374 
0.1335582 -4.612094 22.97087 
-2.167995 -40.37823 37.27444 
-2.167996 -27.70086 38.21336 
-2.168001 22.5055 -37.68545 
-2.167996 -22.2328 41.10946 
2.168008 26.13975 15.64402 
0.1784008 44.07857 5.597453 
2.167008 -26.64628 32.15844 
2.168576 35.03028 17.36837 
2.167927 31.07464 24.76215 
-2.167998 -0.3485603 36.60283 
-2.167999 -15.37284 1.828169 
-1.678699 -10.51757 -44.06639 
-2.168003 29.96099 -24.32588 
-0.591189 -13.29181 44.08 
-2.168001 5.26882 -24.58025 
-2.168003 40.38295 5.91672 
2.162946 17.76225 9.075903 
2.164123 14.44864 13.31369 
2.168018 -10.78349 35.67493 
-0.02274694 -6.738963 13.15456 
-0.6552983 -35.61464 -6.5794 
2.097651 -41.53831 9.028063 
-0.6592936 -25.95308 -3.863556 
2.167619 -35.84732 0.421919 
-2.167999 -19.64785 -11.67459 
-2.168002 24.24302 -7.786188 
2.165906 -4.971771 11.68176 
0.5310184 -32.20493 -0.718024 
-2.168 -13.69433 -30.93599 
-0.2651331 -14.31157 14.8234 
2.168 -7.880838 -1.452801 
-0.3504076 -44.07999 -35.60345 
1.873934 32.32631 -26.60914 
2.167997 32.57227 -6.422605 
-0.6554255 -32.03789 38.04539 
2.16186 21.85203 -15.07403 
-2.167998 -39.69355 -28.26608 
-2.168 9.324148 23.01437 
1.891328 44.03051 -33.96441 
-2.167999 11.44835 33.70316 
-2.167999 14.11961 32.96104 
2.167997 18.98229 -28.69596 
-2.135561 -28.43924 -43.88353 
2.168008 -31.20899 22.06153 
-2.168 10.1874 24.53202 
0.2393834 -41.46558 27.93692 
-2.167999 -0.04652476 26.89336 
2.168907 41.03291 -8.014615 
-2.168 24.18951 15.25178 
-2.168002 30.72863 -4.845929 
-2.167998 -27.16294 -5.173469 
2.167675 29.30998 23.82914 
-2.164932 40.74575 33.528 
2.167998 10.1169 -25.4332 
-1.974049 13.27027 -44.01691 
-2.167998 -17.12745 16.99626 
2.013091 -31.37723 36.25231 
0.464109 30.52791 -23.98426 
2.154436 -21.91623 35.14564 
2.168066 -24.82337 41.52882 
-2.168001 40.44552 -26.76777 
2.14528 -42.81391 -42.57777 
-2.168001 -1.076016 -24.89132 
2.171582 41.64958 6.834472 
-2.167997 -25.80332 19.27816 
-2.167996 -32.2635 28.02681 
2.167998 8.137606 -24.33987 
1.060911 -44.00036 31.06076 
-0.3509849 44.07983 -32.58319 
2.168018 -31.26897 40.44792 
-0.3264307 44.08 -14.79427 
2.168086 35.88134 -37.20221 
2.168024 -6.343917 36.26466 
0.4594253 -5.836919 -38.0858 
-2.168 -8.8736 -3.729862 
0.000454247 23.96954 -44.08006 
2.167326 -1.802713 14.3156 
2.168004 17.79638 16.85235 
-2.095429 43.99422 -29.42225 
1.010838 -29.14904 36.37394 
-2.168 9.73489 15.82232 
-2.168 22.74428 18.15673 
1.717788 -30.68601 32.11713 
2.155054 10.5728 11.40749 
-2.168001 7.858463 -12.77205 
2.165649 -37.75437 9.006374 
2.162041 19.83847 38.16344 
-2.167995 -41.26102 19.37228 
2.168042 -33.11355 4.101347 
2.167999 -9.153214 -8.952605 
2.16708 41.64969 -26.59953 
0.1914889 21.19177 -44.08005 
2.159081 -16.65144 6.916389 
-1.249549 -24.44258 -44.08003 
-2.168003 42.9944 30.28824 
2.167995 41.90659 -15.2511 
-1.840412 -44.03782 -30.64042 
-2.168 -9.820978 -19.6266 
-2.167999 -15.53738 2.185533 
-0.08823001 31.64746 -23.26688 
-1.522107 42.23112 -44.07862 
-2.168004 36.8063 -10.65457 
2.167612 -38.51016 13.73642 
2.167979 -4.905988 15.96104 
2.167992 -7.179976 26.47258 
2.160709 36.48347 13.08332 
-0.3231295 -16.40238 37.62123 
-2.168 16.13444 19.25011 
-2.168 -15.62745 -32.41628 
-2.168 -0.2625585 -13.73193 
-2.167998 -2.654765 34.21862 
2.166605 1.933713 -14.53319 
-0.4275895 -26.67672 -35.17147 
-1.966793 -34.4061 -44.04152 
2.165703 43.03732 -35.51017 
2.168019 -7.096879 40.60847 
-2.167998 -29.7271 -7.057838 
-2.168 33.93659 -39.25605 
-2.167999 -10.63575 -3.13624 
2.168001 -13.72149 -2.680994 
-0.6529146 43.53104 14.07855 
-2.167998 -9.549795 22.49935 
1.197764 -33.91936 30.09571 
2.166807 26.66927 -19.57718 
-2.168 32.91177 -39.83999 
-2.167904 37.77076 33.23767 
0.3044752 -31.3847 -44.08 
-2.167997 -7.755033 40.87472 
0.03648075 -30.27688 -15.11158 
-2.168002 39.57579 28.83948 
-2.168001 9.843894 -5.682415 
0.4387986 43.12645 19.47758 
-0.08635547 6.352044 11.91898 
2.168063 27.93259 -40.88651 
2.168021 -5.78172 37.58911 
2.168001 4.354283 40.11176 
1.18382 -12.85419 18.22695 
-1.434209 -11.53764 -44.0673 
-2.168001 9.075166 -10.74825 
2.170008 -32.37426 -1.412706 
1.663962 -41.43719 24.1423 
0.3146996 2.537361 7.812715 
-2.168001 4.838961 -29.03727 
2.155576 0.2482281 -43.76301 
-0.4320581 -41.01476 1.881347 
2.167968 -10.22145 27.58602 
-2.167995 -39.72074 15.1925 
2.168023 33.36645 36.32548 
-2.168001 12.56537 -1.336111 
2.169941 41.19891 -2.188596 
-2.168 42.5263 -27.77116 
2.168018 26.5711 -40.23139 
-0.3600189 13.67074 44.08102 
0.6195276 -30.40672 -32.02921 
2.167897 7.955809 -16.56853 
-2.168003 31.02615 -21.45416 
0.4627598 -13.49558 19.19715 
2.165513 -6.892217 9.653488 
1.489212 -31.78422 34.69256 
-2.167999 -8.513224 -7.171923 
-2.167998 -12.04009 25.82907 
0.4413642 -17.0382 39.74979 
2.167997 16.06117 -32.01446 
2.167998 -7.113142 28.47068 
-2.168 8.363911 -3.181714 
-2.168 8.136814 3.648212 
2.16311 -20.71582 23.76276 
-2.167999 -3.568624 16.61705 
2.167917 -22.81925 -13.8207 
-2.168001 18.40549 -6.513521 
-0.4251556 -30.03772 -0.3783291 
2.169433 41.88538 15.53368 
2.167999 4.592453 -28.25362 
-2.168003 38.03595 -3.962831 
0.2784765 39.78892 -42.40922 
-2.167999 -0.02770567 18.49463 
2.168 -6.180607 2.458739 
2.168024 -29.62096 -27.11581 
2.167999 25.69681 -38.75255 
1.415519 21.29376 44.07495 
1.749805 7.369275 9.805984 
0.2332165 -38.7604 -4.230628 
-2.168 -7.683881 -31.54356 
2.167997 -9.271623 29.24963 
2.168035 -40.80083 -13.38125 
2.166423 26.92113 -32.212 
2.16809 34.72164 -24.9491 
2.168021 -12.98004 37.37249 
2.167691 22.88228 4.3015 
1.83996 -12.72613 -42.79673 
2.168455 39.64571 17.59008 
-2.167998 -35.98162 -27.66264 
-2.168 26.34166 -40.86703 
2.166743 -1.389273 25.23096 
2.16943 39.71793 -3.474403 
2.166387 -23.37804 -24.15037 
2.168028 34.69605 -27.73748 
-2.168001 14.06493 -5.237436 
-2.168003 41.55197 30.79326 
-2.155707 27.56225 42.29376 
2.165286 11.20863 -12.95298 
2.104439 -40.29663 43.99378 
-2.168 -2.231316 -17.84228 
2.168925 26.65265 -28.45607 
2.168073 4.950922 -40.18591 
-2.168 -19.62113 -37.96122 
-2.168002 21.44421 -9.072066 
-2.167997 -41.48637 -20.13727 
-2.168001 21.89651 -0.8172362 
-2.168001 11.28265 -17.36193 
0.6040528 -34.46317 -8.961405 
2.167579 -11.63842 -33.46443 
-2.168001 33.5204 12.70423 
0.09490937 -11.07667 44.07999 
-2.167999 -7.227992 9.697906 
0.8586653 -14.27836 9.754696 
-0.286832 19.77246 26.05072 
2.167998 3.508906 -24.80322 
1.211728 -6.829707 -38.91392 
-2.168001 -2.76741 -24.15549 
-0.3490883 -33.1559 36.02509 
-2.168001 12.79699 -14.93054 
-2.167998 -23.584 11.9154 
-2.167998 -14.79636 24.87152 
-2.167998 -22.55928 11.00454 
-0.7188735 43.79061 12.07054 
2.167426 -32.3994 -32.30982 
2.167316 22.61953 -9.728539 
2.168015 -25.0025 17.58045 
-2.167998 -15.63888 14.07779 
2.168 30.87433 29.43541 
-2.168001 32.17428 33.08451 
1.217087 -37.90876 -4.895173 
2.168042 -30.17147 -13.78822 
-2.168003 21.98477 -33.7335 
-2.167995 -37.66874 26.70454 
-1.277568 -32.54717 44.08 
-1.810428 -44.0443 -6.92307 
-2.168001 18.14119 -41.46417 
1.755307 -14.83012 20.98395 
2.168008 -35.48025 -34.96489 
-2.168 12.69449 3.213604 
-2.168003 32.19634 -10.93757 
-2.167996 -35.55456 17.70448 
-2.167997 -26.25323 31.89781 
2.167888 13.91601 -16.74751 
-2.167996 -41.67069 -0.1131105 
1.505714 -44.08004 -16.85899 
-2.168002 5.822771 -35.21703 
-2.167998 -26.8034 9.013507 
-2.167999 -18.17468 -12.09203 
2.168002 18.5034 14.88651 
2.168114 -37.31286 16.08034 
2.167666 -34.03643 -3.970179 
1.93182 -21.85867 30.61897 
-2.168 22.93665 34.19408 
2.167999 -2.751244 -17.91291 
2.167843 11.74285 28.71938 
0.2534615 -42.08068 1.555373 
2.167932 13.79502 28.92993 
2.167997 17.87712 -30.78987 
-2.167999 -1.185514 15.5369 
2.162433 -41.68278 13.66161 
2.168 -27.80335 -37.46588 
1.903944 -0.6858954 7.147417 
-2.168001 6.861367 -23.04645 
2.168016 -38.25701 -32.89838 
-2.168001 28.58379 0.981056 
-0.1827419 -20.57394 38.67513 
-2.168003 39.77922 -13.48815 
2.168077 -38.80148 18.00455 
2.164272 -37.89412 -2.661389 
0.7216333 32.60138 -29.77647 
2.167858 -14.40967 24.61696 
1.973122 -42.59234 30.72784 
-2.168 -9.323879 -8.766064 
2.164079 25.44527 37.25339 
-2.168 3.026309 -11.95199 
2.168001 17.05161 13.86313 
-2.135426 -43.09333 -42.37247 
2.167997 21.18266 -36.17294 
-2.167999 -2.59573 10.23212 
-0.3260441 -11.7791 8.269768 
2.168003 -27.66867 -18.80677 
2.161776 -8.989384 -34.03911 
2.15661 -31.89746 -5.401647 
-2.167998 -37.69522 -28.99125 
-0.6254867 -42.56528 11.45535 
2.168241 29.83629 7.457999 
2.168333 7.670983 -1.748632 
-2.168002 35.96217 31.69581 
1.412765 -35.56924 -15.32463 
-2.168003 26.09316 -23.55256 
-2.168 -1.863 -8.978472 
-2.168002 35.52241 12.47198 
-2.167997 -33.44 23.00383 
-1.016694 44.076 17.25046 
2.168005 18.67332 17.56724 
2.167633 3.67075 15.46848 
2.167998 15.05103 -29.02374 
2.168014 -3.005884 38.11028 
-2.167997 -4.951738 42.04082 
2.161849 -25.84163 30.28552 
2.149614 42.90856 42.80948 
-2.167996 -22.71243 43.37676 
2.167997 19.59153 -26.64065 
-2.167998 -16.22322 26.82621 
2.16703 -31.88898 38.88061 
1.096409 -27.2784 31.9958 
-1.420497 -38.36149 44.08 
-2.168003 40.47554 31.21852 
1.172337 -21.54977 29.06875 
-2.168001 2.2301 -29.99243 
-2.168 11.88115 20.91696 
-2.167998 -19.58168 5.281007 
-1.226925 3.58372 -44.07996 
2.168015 -35.06767 28.21821 
2.167999 0.8183309 -27.30382 
2.166287 -32.45931 18.27635 
-2.167996 -17.07267 39.56918 
-2.168 8.05974 4.709406 
-2.168 9.586267 20.76348 
2.167912 21.85621 31.27932 
2.165785 31.23685 -31.11577 
2.165828 -26.71253 -3.255912 
-2.168 -16.55805 -37.67907 
0.1930017 44.08 39.69915 
-2.168001 19.32372 -6.758643 
-2.168001 -0.9848521 -39.28304 
2.166699 -19.5982 -9.475642 
2.167869 -35.04173 -3.21796 
2.170459 39.69236 2.534767 
-2.168002 4.636995 -34.2591 
2.168759 -18.14345 14.24536 
-2.168001 33.7785 28.80997 
-2.167999 11.5249 30.40983 
0.8902627 4.388952 44.07759 
2.151777 -40.12686 30.9054 
2.16801 -30.56875 9.512157 
2.168008 -23.08362 5.846181 
2.167705 28.77985 28.48724 
-1.111976 -19.59468 44.08 
2.167804 -40.02599 21.91418 
2.168412 4.787946 -6.176881 
0.9851614 -21.12209 -17.79221 
-2.168001 0.5031652 -23.24758 
2.131579 30.98233 -43.92725 
-2.168001 -7.804751 -36.92177 
2.167997 36.36351 -16.11487 
-2.168001 8.033131 -20.63688 
2.167997 16.91317 -33.28791 
2.167886 -37.15127 22.78766 
-2.168001 39.36102 -25.64854 
-2.168002 23.97888 -36.13722 
2.166513 20.30534 36.64563 
-2.167998 -27.04733 -14.26319 
2.167998 9.605227 -30.50316 
2.168002 31.90259 -11.37897 
2.167998 7.80346 -22.58109 
-2.168 22.56817 28.32506 
2.168568 -37.0372 32.58521 
-2.168 -4.517911 -16.36376 
2.168 -19.55424 -36.38747 
2.160902 29.5607 41.17849 
2.146413 -42.62768 -42.32249 
-2.168003 31.3335 -12.32465 
1.599927 -44.08004 -16.74715 
-2.168001 28.30499 11.6006 
0.7114303 -43.73874 8.379155 
2.167304 11.83452 27.58673 
-2.167999 -16.62962 1.931349 
1.708952 -6.574946 -40.37145 
-2.167999 40.22565 -37.3503 
-2.167997 -37.70493 -21.12319 
-0.4269698 -29.75178 -44.08 
2.167545 15.74096 -16.31776 
-2.168002 26.00927 -7.75146 
-2.168 -2.837968 -4.074568 
2.168 -20.98014 -38.65197 
-2.168 7.280705 4.204616 
0.7355039 -28.34848 35.78745 
-2.168002 35.03747 2.980036 
-2.168002 39.37352 28.10225 
2.160781 -2.375893 -43.72712 
-2.168002 31.35846 3.204276 
-2.167999 -14.0456 -2.767438 
2.168 -9.708313 -0.9590187 
-2.168003 39.91581 20.41044 
2.168029 -39.84465 -14.97608 
-2.168001 5.651584 -30.69013 
-2.168003 29.35908 -15.03419 
1.000466 -44.08006 -11.53016 
-2.167998 -1.74025 41.42276 
2.167997 18.04045 -27.93296 
2.167407 11.0608 -15.97065 
2.167667 -34.13477 -3.953234 
-2.167999 9.442165 35.41109 
0.1272838 -44.08004 -14.31218 
2.167997 18.35687 -38.32539 
0.09954776 44.07962 -37.46897 
-2.167999 -9.419184 9.761765 
1.412653 -44.07936 24.5104 
-2.040099 -19.88548 44.00516 
2.159738 -26.90059 31.74642 
-1.521265 10.1346 44.07974 
0.3995033 19.29222 27.68819 
-2.167996 -43.65467 -11.66537 
-0.351859 -18.24688 41.59457 
-1.407128 -27.3301 -44.08001 
-2.168 -14.52317 -25.05036 
2.168021 -26.06516 7.582512 
-2.167996 -36.7565 11.66683 
-2.167999 -22.3272 -3.039275 
-2.167999 -20.04495 -21.48022 
2.164003 30.0929 -26.06835 
-1.878471 -44.03302 -21.80047 
-2.168003 32.93306 -23.80895 
2.169556 35.02261 2.599713 
1.535254 42.61031 12.15534 
-2.168003 31.68925 -19.33089 
-0.5271779 -43.48727 -0.2662261 
-2.149949 30.86394 -43.70738 
2.168 -10.04361 -29.50627 
2.168002 -24.81308 -34.95364 
2.161052 -21.18803 -2.714752 
2.167592 28.69936 23.70002 
2.16629 -1.040311 14.05224 
2.163012 17.92104 27.91513 
-2.167994 -39.33211 40.9161 
-2.168 9.414086 3.462051 
2.167758 -42.40492 -19.58763 
2.167147 11.19435 5.723731 
-0.01689096 -8.012685 12.07003 
2.165949 8.315588 -13.80449 
-0.1104528 -27.11808 35.73886 
2.168347 -33.13121 37.21329 
-2.167997 -17.57916 29.86549 
2.168025 -38.63054 -12.12423 
-2.168 -9.22245 -29.40971 
-2.167996 -37.06309 8.888896 
-2.167995 -42.49746 12.80856 
2.167999 -11.27512 -17.04538 
-2.168003 38.14392 0.5735488 
1.647976 41.98196 -40.58833 
-0.1614156 -42.02057 25.01501 
-2.168001 1.305282 -21.08303 
2.168003 -25.15835 -17.28983 
-2.168 21.90711 11.14831 
2.16759 -18.40016 9.98445 
-2.167997 -39.57649 -21.19845 
2.163368 -20.45148 -22.4951 
2.168001 -11.83435 0.6425693 
2.164807 -20.53667 -23.03494 
-2.152437 37.76879 -42.84933 
2.168051 -8.207581 7.591913 
2.168011 -26.61096 20.25569 
-2.168001 -12.55963 -40.06341 
-2.167999 38.62131 -40.50899 
-2.168 22.37893 24.83448 
-2.167997 -13.29995 35.29176 
2.168018 -39.63365 -32.95506 
-2.168 25.05787 36.37421 
1.682807 -22.99688 -5.405643 
0.4565286 43.47554 18.95713 
-2.167995 -36.64373 34.30894 
-2.167999 19.88385 29.20546 
2.168026 33.72274 37.03339 
-2.167999 -7.17677 16.31264 
1.911983 -24.73193 -9.386292 
-2.167997 -34.93887 -2.907416 
2.167998 14.3285 -24.88499 
-2.167999 7.813152 34.46323 
2.16674 29.71424 -32.7498 
2.167711 0.7755437 22.01717 
2.167999 -9.020906 -18.71686 
0.3047651 -18.07172 35.00947 
0.2808745 -14.92213 15.32763 
-1.691911 44.06422 19.60886 
-2.168 -10.88583 -24.70407 
0.5396202 -32.88712 -17.10979 
-2.167997 -43.33813 -19.8316 
-0.6507325 40.82032 -40.54891 
2.169574 -34.00883 -14.44391 
1.517778 36.33183 16.34862 
-0.9357231 -40.66351 44.08 
-0.1343833 44.07971 -38.79162 
-2.168002 31.89699 -3.394196 
-2.168001 12.26048 -42.41891 
2.168001 30.13742 -35.51565 
2.168023 -19.95107 -15.27468 
2.168962 23.58912 -26.13148 
2.167487 6.27097 -15.92993 
-2.168 15.91595 8.532982 
0.3345574 44.0798 -30.07573 
2.168013 -21.3627 9.439548 
2.169636 33.53458 4.759501 
2.167742 -38.16367 13.70639 
2.168022 -26.44215 6.025434 
1.322129 5.021927 11.09884 
2.167384 9.188398 27.14227 
2.168 9.4972 36.16363 
-2.167999 -19.35992 -11.60238 
-2.168 13.70716 7.5597 
-2.168001 -5.252547 -32.89672 
-2.167997 -21.05498 32.76783 
-2.168001 32.78914 7.161532 
2.167498 18.1454 38.8351 
-1.730012 -44.0578 -5.730507 
-0.6520907 -11.1183 11.27673 
2.148721 26.33538 -25.05877 
-2.159037 -38.83578 -40.01905 
2.154004 -17.30112 -43.71142 
-0.02567261 -40.30814 44.08 
-2.168001 35.698 -30.03461 
-2.167995 -33.50324 42.8308 
2.167881 25.50754 -0.91131 
2.162698 39.29891 12.06083 
2.168039 26.83466 18.79829 
2.167066 41.23583 10.21922 
-2.168001 -5.6207 -41.45883 
-2.168 22.08362 -42.02174 
2.168008 -28.01412 25.00112 
0.8924665 -27.60227 35.62751 
2.166046 16.72362 23.34587 
-0.01687235 -22.297 -44.0801 
2.168033 33.6033 38.43775 
2.167607 39.32995 35.78705 
-2.167994 -42.55967 43.10631 
1.912053 43.55452 10.8692 
2.167776 10.72375 -16.48574 
2.171759 -17.63372 -17.81919 
1.076374 -40.79826 9.378131 
1.78387 -35.38145 -5.830155 
2.168021 -3.397641 33.96746 
2.168004 4.239695 34.81598 
2.167833 -32.36339 -18.72616 
-2.168 11.65646 25.67079 
0.2368943 -41.38934 3.555412 
0.2918417 -27.96344 -5.009174 
1.194886 -34.90911 -7.663044 
-2.168 26.54065 21.50618 
-0.6510596 -14.43982 10.16168 
-0.389706 -27.05578 32.64673 
-2.167996 -42.34925 3.121459 
-2.168001 22.92973 0.5087516 
0.7599055 -40.75655 8.825346 
2.168021 -11.63241 36.75468 
2.168021 -5.564776 37.37617 
2.167865 29.95301 28.77207 
2.168008 -23.86544 -32.61668 
-1.600647 -32.14663 -44.06737 
-2.168 14.15866 17.29852 
-2.168001 5.947192 -29.12892 
-2.168002 9.69113 -40.46124 
-2.167999 2.843368 24.4066 
-2.168003 29.52495 -11.89855 
2.167599 -13.12462 -25.61773 
-2.167999 8.585061 36.98699 
-0.2774968 -26.71547 -5.778037 
-2.167995 -40.06402 17.35218 
-2.168001 5.724227 -15.89068 
-0.3212486 -12.16273 13.56253 
0.6728448 31.97198 -28.47385 
1.723235 -44.01101 27.30511 
-2.167999 -26.61747 -32.13329 
0.6254422 -33.37391 -2.030761 
2.058583 -4.703283 -38.93599 
1.882907 44.03102 -38.21715 
-2.168001 10.1074 -22.09337 
2.168005 -27.84579 -35.58594 
-1.433058 22.14979 -44.08 
-2.167998 -18.09816 16.66942 
2.167969 42.58813 33.64704 
-2.167999 -0.3401535 22.7168 
-0.5912793 -41.55271 9.486306 
-0.2606941 -35.37138 -10.20081 
-2.167999 -13.87529 -8.232988 
2.132988 -6.651058 14.77336 
2.167667 24.10844 -8.576337 
2.16685 11.14562 6.539718 
2.168006 26.19002 13.06097 
2.161655 -40.10377 -38.99344 
2.166612 27.94094 -21.39156 
-2.167996 -41.41765 -3.813458 
-2.167997 -43.37356 -29.04832 
-2.167997 -34.29597 16.00957 
-0.5322387 -9.652423 -40.512 
2.167666 -29.05781 39.83033 
2.166702 32.08292 37.54456 
-2.168002 7.287939 -40.63198 
2.168008 31.73702 24.724 
2.158606 -41.79065 -33.20873 
-2.167999 -3.884738 9.481226 
2.168032 28.99994 -20.19903 
-2.168 22.81876 37.60319 
2.168002 33.35877 -14.10081 
2.168005 -36.31936 -25.11701 
1.350845 44.07957 -2.912921 
2.16519 -19.82221 -23.74439 
1.702326 43.62735 15.68886 
-2.168 21.16565 10.71359 
-2.164015 18.47201 41.75424 
2.168285 29.13858 1.904466 
-2.168002 0.4875569 -41.73108 
-2.167997 -23.14418 32.04776 
-0.442599 -29.88077 35.49196 
-2.168002 30.9702 0.521451 
-2.168 15.34347 28.13037 
2.167948 -19.51094 -14.54314 
-2.168002 27.88237 -5.85712 
2.166094 -17.28681 -24.14831 
-2.168 -5.361279 -10.09327 
-2.168 -17.00434 -40.54971 
-0.5173284 -8.599274 -40.42797 
-2.167998 -5.76619 34.42004 
-0.5252385 -23.3494 -3.239453 
2.168065 39.66286 23.69339 
2.168416 43.23706 -13.37448 
2.168051 -33.0594 1.885337 
-2.167998 -12.3609 28.86785 
-2.168 11.01815 7.824719 
-2.168001 13.77287 -9.851287 
1.774996 29.99366 -44.06375 
-0.1630912 -27.02 -33.99543 
2.168 -10.32059 -5.357513 
-2.167995 -39.95233 22.90047 
0.4586181 -43.42274 30.9261 
2.167415 27.10082 -33.91827 
-2.168 4.140611 -11.19529 
-2.167999 -16.82856 -14.401 
2.167994 -43.36855 15.26323 
-2.165461 20.60516 40.35677 
2.167999 6.099373 -32.49677 
2.168022 -28.87534 -15.46441 
-2.168 9.050285 19.88854 
-2.168 20.24385 33.01804 
-2.168002 21.95135 -35.97206 
1.948631 23.54896 39.43408 
2.168203 -17.79621 -6.203979 
0.6957018 -11.81668 21.02466 
2.168 25.96299 -17.51532 
1.403425 29.71656 41.61172 
2.168 14.41612 36.25761 
2.168014 5.203615 1.157396 
-2.168002 24.22796 -15.9257 
-0.6297537 -22.34211 -6.560212 
-2.167998 -37.72632 -29.48468 
-0.02264871 30.26422 -28.28444 
-2.168 -13.11632 -14.32672 
-2.167998 -31.44237 -16.65059 
-0.656047 -30.96514 0.539945 
-2.167998 -9.255839 22.04917 
0.8069218 19.74068 27.63651 
-2.168 10.51865 24.72344 
-2.168 12.16764 9.330559 
2.165724 36.20559 9.280342 
-2.167999 -26.26515 -34.94017 
-2.168001 25.4373 10.16425 
2.164015 -22.34482 -21.4975 
-2.168001 22.65883 -0.5258893 
2.167997 19.30387 -31.0528 
2.167541 26.08465 -24.42378 
2.168001 -14.8985 -6.003418 
2.168196 23.6677 22.2598 
2.167806 23.84551 32.37911 
2.168007 -24.17864 -21.14655 
2.167929 39.58436 33.5182 
-0.5655512 -33.32358 30.62008 
2.166065 -31.45896 17.27753 
-2.167997 -38.91779 -17.22432 
-2.168001 7.753111 -14.09582 
-2.167998 -38.64743 -38.07732 
2.168024 -8.054142 39.17592 
-2.167997 -18.47576 35.59181 
2.167121 -26.55051 -2.078671 
2.170368 41.75739 -0.3421037 
-2.168 -9.53421 -27.37074 
2.163995 -32.34496 30.04051 
-2.168002 1.313918 -41.53796 
0.9899631 -4.692737 21.97216 
0.5254733 36.47675 14.47357 
0.8683702 43.45506 -38.97998 
-2.154225 27.98921 42.80943 
1.021228 -8.092514 -42.89007 
2.167875 -34.22628 -12.97148 
-2.167999 37.29519 -39.11526 
-2.167999 -23.45213 -34.89978 
2.168014 -15.97714 1.381943 
-2.167997 -35.01943 -11.83316 
-2.153154 36.78967 -42.83582 
-2.168001 34.83165 22.2782 
2.168007 -22.42992 -29.31241 
-2.167997 -31.77786 21.9892 
2.160255 -41.38401 -33.57803 
-0.01739165 32.23024 -27.41453 
2.168001 -14.40784 -5.448426 
-2.167997 -26.66802 23.46646 
0.2624352 -33.12879 11.1669 
2.167999 -6.684566 -18.41977 
-2.167999 -20.66756 -22.83904 
-2.167999 -11.89745 3.072216 
2.163111 -29.88536 -34.32904 
2.167999 -10.39923 -22.5859 
0.4911128 28.23385 42.09586 
1.475075 44.08 37.52667 
2.167239 -16.2142 22.61025 
-2.167999 -5.098718 30.17204 
2.167999 2.050695 -35.80795 
2.167998 9.034984 -33.65235 
-2.168002 4.987393 -34.3446 
-2.168 9.922332 20.72938 
0.7054108 -31.43505 -2.712946 
-2.167997 -31.51113 -11.87694 
2.168 -10.00273 -2.175581 
-2.167997 -23.33414 27.29659 
2.167999 8.109457 3.350919 
-2.167999 -1.839261 10.83333 
0.9399059 -23.60646 -5.39819 
-2.168 12.15181 13.39929 
-0.4472576 -28.92514 -32.91847 
2.168 -21.94672 -39.76014 
2.168191 21.87231 22.41085 
-2.168 -18.25043 -35.41809 
-2.166295 43.44905 31.96799 
2.156768 14.05048 8.897547 
-2.168003 24.47851 -30.45741 
-1.594014 -38.9135 44.07999 
-2.168001 2.933482 -27.31493 
2.168023 -40.29359 -8.614953 
2.168023 -36.27974 21.97799 
-2.168 4.261151 -13.82558 
-2.167998 -15.07288 22.98753 
1.929241 12.13266 -44.02551 
-0.2458171 -42.62814 8.908438 
1.69057 -18.88269 -16.69017 
2.160257 -25.79911 -9.746352 
-2.167999 10.84885 29.01699 
-2.168003 34.8887 -4.280993 
2.16738 43.24404 -21.14746 
0.6517071 -27.72535 -34.6685 
2.167125 24.79112 25.89333 
1.34503 -39.78111 9.302706 
-2.167999 -7.733452 0.6059499 
-2.168001 -3.50211 -29.80509 
-0.2844938 -27.72429 -5.057517 
2.153659 -41.2171 -41.88947 
-2.167997 -32.9565 -8.783785 
2.168267 -4.63122 -13.65409 
-2.167999 -15.90339 -7.623266 
-2.167998 -21.11617 4.938838 
2.168 -23.34942 -42.14063 
2.168 -2.676802 -4.288862 
-2.167999 2.05989 19.85224 
-2.168002 29.2843 0.3427 
2.165714 16.34179 -7.568336 
2.168001 13.51733 26.8087 
2.16804 -16.91646 -39.73286 
2.171553 -19.54824 36.00346 
2.167997 17.7407 -36.44592 
-0.5035348 -27.96313 44.08 
2.168055 29.88552 10.74799 
2.168008 38.93621 32.3218 
-2.168003 20.88191 -28.05965 
2.165006 11.416 -10.52167 
-2.168001 27.27839 34.17437 
2.169508 -35.8591 -13.08212 
2.164842 15.88564 -5.227577 
-2.168003 19.51676 -29.63353 
1.509853 -7.645644 -37.30017 
0.2220687 -41.79691 32.34717 
0.9043267 -9.902664 22.8875 
1.034511 -27.62095 34.0183 
-2.167998 -23.72566 18.15218 
2.168 -7.517739 -5.583438 
-0.6628097 10.0853 44.08102 
-2.167996 -37.37357 -0.3494148 
2.153421 43.77973 -28.30703 
2.164583 31.96896 -23.62964 
2.167099 -15.91923 22.71716 
-0.644854 -42.7872 9.115093 
-2.168001 31.17709 28.60407 
-2.168 6.987585 -6.955319 
2.16785 -16.77203 -11.29848 
-2.167999 11.27515 41.97646 
2.168008 -23.54061 -31.89947 
1.640332 19.68995 23.93685 
0.2970354 -23.77266 44.08 
2.167997 19.85388 -28.76434 
-2.167999 -12.22952 0.4970005 
2.167999 -1.440186 -28.21452 
-2.168003 43.00415 22.81274 
-2.168001 31.65933 13.31608 
-2.168001 2.201295 -17.82186 
2.167135 36.85411 11.84944 
-2.168 6.125567 -2.206566 
-2.167998 -26.62829 1.519347 
2.168447 -9.596279 -40.03045 
-2.167998 -40.87606 -30.43732 
-2.168002 34.25949 7.684896 
2.116565 -9.298472 -40.65686 
