ply
format ascii 1.0
comment VCGLIB generated
element vertex 1651
property float x
property float y
property float z
element face 0
property list uchar int vertex_indices
end_header
-17.41822 53.18856 -1.354999 
41.95898 39.53096 -0.1499681 
-49.40091 -40.29507 -1.354998 
-5.006254 4.150378 -1.355 
-20.75375 47.83134 -1.354999 
28.19929 -29.98382 -1.355001 
25.81574 -1.277416 1.355003 
7.191686 -23.34664 1.353664 
20.70362 46.5974 -1.355001 
10.22004 43.87653 -1.355 
-13.23758 -17.84957 0.3702906 
-36.57117 47.79978 1.355005 
-24.01761 51.49325 1.355005 
48.70339 24.9179 -1.355002 
-4.452022 40.14149 1.355 
-2.745095 -17.7952 1.354408 
39.62317 50.67913 0.7106881 
9.530328 -26.12422 -1.355 
-40.63707 -15.29238 -1.354999 
38.39351 55.09827 -0.4018615 
-55.05506 48.78563 -1.131862 
10.54527 23.92155 -1.355 
-52.79013 5.175225 1.355003 
16.162 -22.33247 1.288512 
-37.44721 38.94303 -1.354999 
45.96057 13.28312 1.354526 
-0.001876831 -42.21946 1.354939 
-7.29346 27.19368 -1.355 
-28.79564 -16.84901 -1.354999 
-45.16831 -12.4275 1.355036 
-17.62389 12.2177 1.353488 
47.14703 1.364643 -1.355002 
38.22306 -31.4057 -1.355001 
-16.72493 55.1 -0.06501558 
-30.37349 -40.59875 1.355054 
-25.2146 14.01495 1.344084 
-29.1699 11.59304 -1.354999 
-48.19888 31.48105 -1.354998 
41.42081 -6.819861 1.355005 
13.68299 -39.52912 -0.2551849 
13.47717 -16.291 -1.355001 
-50.32634 -11.87543 1.355091 
42.73104 22.65435 1.354951 
-7.131171 14.37073 1.355003 
-35.18595 10.99819 -1.354999 
34.53251 -21.08081 -1.355001 
-32.07817 46.66475 1.355006 
-35.50756 27.21365 -1.354999 
-7.585212 -49.84891 -1.355 
-21.5819 38.2083 1.352789 
-33.33268 -20.32108 1.035945 
25.94164 -8.937938 1.355004 
-3.154521 -47.61168 1.35502 
36.35977 26.00399 1.354999 
-48.87136 51.77107 -1.354998 
34.45192 21.44977 1.355013 
-7.256266 -3.810677 1.356137 
-7.468916 -51.75888 1.355006 
8.853756 48.97762 -1.355 
24.2744 52.81193 1.354999 
-38.25728 -26.6255 1.355011 
23.67863 37.48592 1.35505 
11.11122 -33.07027 -1.355 
4.048247 -45.49194 1.354972 
0.09346819 -11.22454 -1.355 
-16.51606 45.00175 -1.354999 
-20.99999 23.12638 0.03401057 
-50.57006 8.851213 1.355005 
-43.59521 21.17807 1.353322 
44.06812 53.9513 0.003998742 
-53.29564 -11.03512 1.354828 
-14.14581 28.37778 -1.354999 
21.44051 -29.26846 -1.355001 
-4.25489 4.488513 -1.355 
-29.76385 40.81704 1.355144 
-47.845 -26.67062 -1.354998 
44.62559 53.71225 -1.355002 
39.95312 -38.57707 -0.4111108 
25.63356 34.09707 -1.355001 
7.002191 0.3389845 -1.355 
47.30278 -46.18772 -1.355002 
-27.65525 -16.3483 1.355005 
-43.5555 7.997927 -1.354998 
41.85863 2.887099 -1.355002 
-1.339006 -10.0785 0.1261673 
41.61786 -46.51398 1.354998 
-36.45213 -14.68855 0.2858509 
21.99833 -55.1 0.1370986 
-29.44992 20.049 1.334968 
-25.30407 36.58978 1.354978 
47.43755 24.18649 1.35492 
17.22762 -41.73876 -0.0365373 
36.49773 8.953094 1.355 
-21.05452 8.119951 -0.4108674 
26.2401 4.784396 1.355002 
-41.44041 -53.3494 -1.354998 
6.429873 11.37941 1.354923 
-18.37083 24.7992 0.9545057 
-27.26253 -6.245131 1.355017 
-23.89155 3.919972 -1.354999 
-10.5903 -24.97963 -1.355 
3.129583 -12.60384 -1.355 
-1.95603 -19.90075 1.35468 
23.67981 36.97363 1.35505 
-34.42815 20.18003 1.355002 
-11.00834 -12.51132 -1.355 
-15.24371 32.04917 1.355001 
5.332114 51.63459 -1.355 
-46.87133 -35.31419 -1.354998 
-21.14662 18.21412 -1.354999 
-28.72633 -13.83241 1.355006 
35.39062 17.93074 1.354998 
-0.6279283 5.080749 -1.355 
4.920155 -42.6696 -1.355 
9.353575 4.015387 1.123324 
48.84634 -0.7244723 1.354872 
31.36559 -44.05829 -1.355001 
-55.1 37.13547 0.9662777 
54.01193 -25.79968 -1.348262 
50.62579 -48.64312 -1.348986 
-23.41333 -42.16015 -1.354999 
-9.095439 10.61407 -1.355 
40.99799 -52.06732 1.354998 
54.01855 7.862724 -1.354074 
11.39607 -39.48011 0.5526376 
30.34879 49.84169 1.352749 
-21.73581 11.88187 -0.02096526 
40.26213 -24.47637 1.354022 
-49.1114 55.1 0.3418772 
24.14789 -27.61877 1.354923 
-36.92228 26.45555 0.1964999 
14.69228 -27.63816 -1.355001 
20.85295 22.89718 -1.355001 
-7.431044 0.4593612 -0.07786556 
41.9625 38.71322 1.35498 
29.26279 22.28348 1.355039 
6.14572 -43.57696 1.355005 
-46.78026 30.4373 1.354841 
-21.54663 6.455958 -1.354999 
40.606 24.26206 1.354944 
-37.29079 43.20201 -1.354999 
-0.6204042 47.16701 1.355 
-39.34894 -6.81773 -1.354999 
-49.93468 -31.51665 1.355002 
-23.00892 1.12219 1.355387 
31.92424 1.634785 -1.355002 
38.86806 -37.10622 -0.2288726 
-15.13288 -11.02024 -1.355 
19.17743 -34.14903 -1.355001 
47.86242 24.988 -1.355002 
-47.87614 20.56457 1.354334 
-26.80929 -0.6125331 0.1543793 
16.92026 -29.2866 -1.355001 
-25.11176 -45.0108 1.174093 
-39.18105 -33.34827 1.355007 
-36.03504 31.35054 1.354994 
37.20136 -47.28537 1.354999 
-22.52138 0.007564902 -1.354999 
14.60867 -2.637518 -1.355001 
-23.26657 -55.1 0.2289273 
16.16799 2.885934 -1.355001 
-13.31639 24.42946 -1.355 
-12.03484 8.16592 -1.354999 
50.75039 46.81354 -1.351735 
-19.66675 -15.02929 -0.1429365 
-22.04838 41.95602 -1.354999 
23.50734 -25.28657 1.354714 
-51.36616 53.79855 -1.343727 
-35.0121 -44.07151 -1.354999 
49.3793 -16.4848 -1.355002 
-14.58127 25.82413 -1.354999 
34.97883 38.34262 1.354974 
-5.71252 -38.37687 -1.355 
-34.32289 -34.0344 1.355003 
23.52707 -38.72935 1.354993 
-12.80689 17.38895 -1.354999 
-0.3088164 -24.94208 1.354974 
-4.368092 55.1 -0.2852834 
-29.10197 50.7448 -1.354999 
24.34309 -16.91974 1.355005 
52.90176 36.48624 1.354998 
-31.56655 -36.69205 -1.354999 
14.51378 23.02141 1.354999 
-55.0978 -0.2313653 -0.179355 
19.30346 25.28243 1.354999 
-5.548892 -42.03993 -1.355 
8.624563 -16.0954 1.353497 
33.73418 -33.90117 1.353807 
23.01133 5.620669 -1.355001 
33.32694 -20.83361 1.050457 
-45.37693 21.59417 1.354199 
-22.2499 -25.51358 1.355001 
16.03425 -20.58295 1.355303 
-9.836856 21.81996 1.353337 
41.30029 6.291686 1.355001 
-29.35724 -23.14143 -1.354999 
50.99397 2.929604 1.355001 
-54.13386 48.88638 -1.354998 
5.176399 8.649171 -1.355 
18.38049 31.04918 1.354999 
-19.23016 -24.2016 1.355001 
38.95813 1.093866 -1.355002 
12.43463 -44.74014 1.309852 
-37.50526 -0.6211306 -1.354999 
-54.6838 42.86987 -1.349074 
28.54388 -53.80307 1.354999 
43.59489 45.49994 -1.355002 
27.636 33.08512 -0.3611337 
25.90354 34.05348 1.355095 
-20.29266 -12.94019 -1.354999 
-20.07448 -54.73871 1.344891 
-20.1992 -15.49601 -1.354999 
-18.57608 48.06672 1.35456 
32.91283 -10.5944 1.355005 
17.93808 -9.98845 -1.355001 
15.10893 -34.98491 1.355052 
-31.21881 -32.17264 1.355002 
43.76531 28.25969 1.354864 
46.28635 42.6692 1.353686 
16.1832 7.594965 -1.355 
-28.28888 22.11996 -1.354999 
44.95016 39.69629 1.114876 
-39.26936 -20.48837 1.355012 
-44.63102 -18.39354 1.354328 
-36.53003 13.78742 -1.354999 
-28.28749 43.17035 1.047277 
49.27537 -18.4057 -1.355002 
43.17973 39.62414 0.3883017 
-15.4843 16.10265 1.355005 
-4.212933 -51.07154 -1.355 
-46.78365 32.19498 1.35493 
-53.96415 48.57472 -1.354998 
51.33329 -11.73459 -1.355002 
-18.96821 -6.135294 -1.354999 
5.968093 -28.89418 -1.355 
-7.886395 -0.2487107 1.27707 
48.09986 37.21715 1.355 
32.94703 31.0535 -1.355001 
41.13536 -33.71372 0.4116114 
-49.7176 1.855049 -1.354998 
26.51378 -53.65608 1.354999 
42.26514 21.80482 -1.355002 
7.991467 -52.01544 1.355002 
-15.38229 17.44151 1.355005 
-3.008602 48.77094 1.355 
0.8330069 -54.00508 1.355003 
7.044858 17.54222 1.355 
-4.734442 -1.00423 -0.4091837 
54.91188 6.784087 -1.332192 
-11.95094 29.77166 1.355001 
18.14305 23.04109 -1.355 
-42.2347 34.00387 -1.354998 
-13.60868 24.55018 -1.354999 
-30.31288 55.1 -0.4334716 
-3.250663 19.56428 1.354986 
27.32362 23.91684 1.355063 
-43.98464 -31.15955 -1.354998 
43.99755 15.80688 1.354575 
-24.54438 37.84595 -1.354999 
0.5061564 33.06988 1.355 
-9.295452 -31.86006 -1.355 
44.1657 14.67352 1.354609 
-38.4478 -25.71558 -1.354999 
-12.05712 32.9837 -1.355 
-19.63684 9.204086 -1.354999 
23.30742 36.45393 -1.355001 
36.86572 -37.04601 0.1999058 
-19.17855 11.00843 -0.3879456 
-47.757 -15.11803 1.354059 
38.7578 -20.72073 -1.355001 
-21.69007 -43.27913 1.20826 
-54.92501 10.6005 -1.331218 
18.55359 24.82549 1.354999 
29.78537 24.32209 1.35506 
8.776141 -51.16874 1.355001 
22.87707 7.092292 -1.355001 
-5.043594 -45.99648 1.354982 
26.77058 -37.48145 -1.355001 
36.74725 33.99338 -1.355001 
-12.05704 -9.682001 1.317485 
47.26949 -54.04996 1.346959 
48.38844 -31.548 0.443956 
-27.0013 44.33543 -1.354999 
-7.823314 -37.07731 -1.355 
6.892278 1.735325 1.355 
-18.08291 -39.73008 -0.2891708 
46.96152 -9.714211 1.354964 
-21.59736 34.45676 0.2716046 
-45.35934 -42.40153 1.353229 
-17.3737 -42.40798 -1.354999 
-43.22391 33.61119 -1.354998 
44.01897 38.16613 0.9002911 
22.97999 38.35905 -1.355001 
-30.0943 43.9071 1.354595 
-12.83894 10.04517 -1.354999 
4.647513 55.03969 1.171191 
-13.05352 17.18847 -1.354999 
-49.19263 -53.1039 1.355005 
-47.12847 -19.40114 -1.354998 
-35.24103 -11.85552 -1.354999 
-20.52641 15.10918 0.7561371 
-7.735049 39.59528 -1.355 
-37.43436 22.74234 -0.3786395 
17.11425 -45.6759 -1.355001 
-54.52593 -45.73455 1.350411 
-38.98865 32.66401 -1.354999 
-21.98939 48.1048 1.35501 
-19.76273 10.57367 -0.2308631 
52.65757 29.52798 1.354998 
52.92234 3.467785 1.355002 
-46.95079 47.05239 -1.354998 
-21.48394 -12.59949 -1.354999 
7.275704 -42.1618 -1.355 
1.257843 -39.14755 1.355004 
-45.33404 28.74525 -1.354998 
-12.2807 -5.336974 -1.355 
-25.85237 -42.64862 -1.354999 
-41.08725 -11.51682 1.355317 
-25.71685 -2.699409 -0.410678 
-47.39313 12.03681 1.355005 
-4.310266 -46.79435 1.355028 
-28.70865 36.7134 -0.2156341 
1.453707 -9.003779 -1.355 
45.74007 47.74146 -1.355002 
13.65521 -30.63945 1.354653 
40.47392 34.28584 -1.355002 
-22.11605 -40.77112 -1.354999 
43.25059 27.41645 -1.355002 
-27.90178 -32.33851 -1.354999 
16.54175 -38.51699 0.6951777 
-7.742105 -46.34941 -1.355 
16.46223 -42.85747 0.8223545 
32.83421 -9.096353 -1.355002 
-42.73775 -0.1145043 -1.354999 
55.09962 14.94875 0.8411726 
-48.74822 0.7416084 0.2523656 
-50.93797 -1.055042 -1.354998 
54.94733 14.81741 -1.329601 
2.574099 -11.7798 1.35121 
6.584939 36.90911 -1.355 
29.91349 34.514 0.1121053 
-17.3472 35.37473 1.35353 
-34.20361 -43.17679 -1.354999 
8.097603 -40.69004 1.355038 
-31.92865 -20.00376 -1.354999 
38.99868 -26.17023 1.35324 
49.10463 -22.79165 1.354702 
-55.10044 -7.096384 -0.8407869 
-29.30971 -52.25645 -1.354999 
27.48755 32.74163 -0.0524694 
-8.071442 14.39034 -1.355 
11.04118 -13.77361 1.355231 
-20.99289 36.75354 0.5278313 
-31.42073 32.11468 -1.354999 
7.478649 32.61374 -1.355 
-43.2468 -10.69782 -1.354999 
51.33988 -23.29982 1.354795 
11.23823 -37.4738 1.352243 
43.467 -19.55963 -1.355001 
52.7141 42.47793 1.354999 
-12.42011 43.99825 -1.354999 
-9.027428 18.80367 -1.355 
12.85764 28.17724 -1.355 
-47.55609 53.79957 1.349243 
-32.28173 -54.77771 1.332384 
25.27711 52.35063 1.354999 
27.9797 -18.62887 1.352059 
13.96541 14.94469 1.354977 
4.035942 -44.72741 1.355 
-27.03505 36.03069 0.4256811 
29.21489 -33.12582 1.354593 
-29.0727 44.78421 1.354815 
-51.59449 -43.59036 1.352911 
11.53634 16.86812 -1.355 
35.97262 19.6824 1.354998 
-4.854472 -3.719252 -0.318395 
2.000536 -1.02014 -1.355 
-6.017688 -1.98267 1.11675 
-50.85656 3.173426 -1.354998 
12.48932 -26.36574 0.9763817 
-22.38588 43.03439 -1.354999 
-1.621416 -9.078162 -0.2253245 
1.277894 -44.7937 1.354873 
42.12078 -48.67938 -1.355002 
42.40233 32.94959 1.354703 
22.10273 35.61584 -1.355001 
-16.08841 -1.819859 -1.355 
35.06713 -18.9761 0.4279828 
-48.96498 8.322341 1.355006 
-20.45695 51.52797 1.355004 
6.796681 -54.24951 -1.355 
-43.24391 17.72762 -1.354999 
-0.9474845 -35.63165 1.355006 
-40.85483 50.47687 -1.354998 
45.49992 -36.12774 0.6298326 
22.63033 13.51573 1.355 
-52.08339 -3.921112 0.3065034 
30.01147 -8.07869 1.355004 
34.80075 -48.37755 1.354999 
29.73275 -12.77305 -1.355002 
-22.98892 51.60606 -1.354999 
9.898155 52.2257 1.354999 
47.59629 10.10072 1.354529 
12.57401 40.40266 1.354999 
40.14401 50.88919 1.352114 
30.83117 27.42825 -1.355001 
-30.86187 52.7337 1.355004 
53.21017 53.81662 1.342884 
-22.79847 -12.26667 1.356801 
-8.068016 23.84054 -1.355 
-1.175021 -48.3983 -1.355 
-31.20694 37.14756 1.354885 
-40.58856 -23.2486 1.355012 
-53.5886 12.45049 -1.354998 
-21.22023 25.28325 0.07940754 
-2.943963 -8.521786 1.355327 
1.092327 48.57816 1.355 
33.14568 40.70259 -1.355001 
-45.72292 -45.76168 1.348331 
28.4163 41.78662 1.35503 
22.74053 49.77263 1.354999 
33.58064 46.74089 -1.355001 
-28.13571 -42.70913 -1.354999 
30.12138 14.28768 -1.355002 
-51.28968 46.05804 1.348254 
11.13561 -20.73704 -1.355001 
6.881588 36.5741 1.355 
-20.35316 19.05064 -1.354999 
36.05948 -32.32993 -1.355001 
37.89033 -3.623053 -1.355002 
-27.40286 12.46453 1.352582 
45.10711 -16.15769 -1.355002 
7.696983 51.48929 -1.355 
-31.65364 -35.27235 1.355025 
-30.76988 3.663975 1.355149 
15.41186 -43.1044 1.349886 
-25.11523 -54.86515 -1.334942 
-11.0631 -11.98448 -1.355 
-19.52483 17.34467 -1.354999 
-11.22712 -38.59645 -1.355 
50.13406 41.3715 1.355001 
-53.0587 48.14687 1.352076 
18.62623 26.24331 1.354999 
-22.61797 -14.07562 -1.354999 
-14.91705 -54.72234 -1.34605 
18.65114 -43.16416 -0.4114845 
16.85691 -35.58625 -1.355 
38.26208 -12.00941 1.355006 
-38.53276 -16.5957 1.23172 
-8.807438 17.62915 -1.355 
-49.82314 12.47531 1.355004 
26.05081 -27.35752 1.354441 
-37.36999 -52.56594 -1.354998 
-3.960619 -8.046762 -1.355 
46.748 52.56247 -1.355002 
17.05697 -16.40056 1.355003 
48.38516 -29.76146 -1.355002 
30.89735 26.88208 -1.355001 
-4.155091 -0.2850064 -0.4073957 
-6.952334 25.92132 1.352785 
19.55948 12.33337 -1.355001 
-31.91085 13.63372 -1.354999 
25.67978 40.66498 -1.355001 
-37.61497 50.29094 -1.354998 
-9.102932 -53.37457 1.355005 
-19.23769 25.16 -1.354999 
31.38601 -33.90468 -1.355001 
-32.49424 -20.14354 -1.354999 
-5.231919 -42.36652 -1.355 
4.853013 12.70813 -1.355 
-36.20882 21.42445 -0.4116477 
46.78313 42.51929 -0.2073073 
11.94063 37.54268 -1.355 
10.51518 -14.73755 1.35463 
1.995015 -40.19566 -1.355 
13.35667 -11.13072 -1.355001 
-50.71209 51.24989 -1.354998 
-8.850889 0.6899676 0.7180806 
28.68945 29.65949 -1.355001 
52.48415 -30.48225 1.355007 
-8.537704 40.12378 -1.355 
-40.02203 7.059001 -1.354999 
32.57829 30.66481 1.35508 
-3.062921 -13.20959 0.4356245 
31.07556 44.62379 -1.355001 
-55.1 -38.30237 0.713054 
-33.5434 23.73344 -1.354999 
-55.10003 -16.06841 -0.831129 
27.89014 34.57878 1.351361 
-32.31969 -45.23711 -1.354999 
-18.59237 -27.02077 -1.354999 
-47.14351 -2.557474 -0.2690136 
-43.42139 -40.1318 1.355002 
-48.33226 36.54873 1.355006 
52.16702 6.917755 1.355 
-37.03428 -20.69232 -1.354999 
-8.631168 -15.57419 1.023191 
-18.54961 17.55868 -0.2447996 
9.459593 47.66719 1.354999 
-34.34967 47.58676 -1.354999 
-4.158033 -6.666464 -0.05385806 
45.94438 45.58489 1.239944 
53.55553 11.60228 -1.354306 
-14.03121 8.190688 1.349748 
8.619761 4.616378 -1.355 
52.84449 12.95609 1.355 
51.85579 11.01561 -1.355002 
-37.00629 36.69804 -1.354999 
12.15305 -11.54704 -1.355001 
-16.22028 7.407061 -1.354999 
-32.49941 2.524916 1.355007 
24.52785 48.99172 1.354439 
30.21743 -30.65695 1.355084 
40.37501 23.37173 -1.355001 
-33.11809 -47.85224 -1.354999 
1.433666 -33.10154 -1.355 
23.02686 33.69449 1.355035 
15.66295 -51.66946 1.355 
-18.481 21.6037 -1.354999 
2.481612 -27.67453 1.355004 
-35.43269 -25.99039 -1.354999 
25.05739 41.75443 1.354825 
41.99345 -14.44863 -1.355002 
54.07818 -17.1552 1.352687 
-54.82858 20.01881 -1.338274 
-10.0636 51.65289 1.355 
7.841072 18.39729 -1.355 
-13.76469 -4.145175 1.354383 
-27.54384 -10.91483 -1.354999 
21.58601 -54.90528 -1.333853 
-39.01864 53.70052 -1.349418 
48.09515 -26.8643 -1.355002 
20.18062 -37.00552 1.354515 
44.07183 -15.91042 -1.355002 
-30.29752 6.364545 1.355035 
33.70283 39.57367 -1.355001 
37.20005 11.78833 1.355 
16.08846 8.639275 1.355012 
20.75418 -46.04525 -1.355001 
-39.0629 -2.513852 1.355008 
-46.54726 -14.05892 -1.354998 
55.10001 -29.44279 0.2160708 
-48.63705 52.75961 -1.351096 
2.385991 -15.64614 1.35443 
49.88761 53.36108 1.352918 
5.224688 -45.11262 1.355001 
37.04415 36.14445 -1.355001 
30.58624 55.09883 0.9251769 
42.00823 39.04252 -0.4063567 
-47.30861 30.60394 -1.354998 
-1.612571 -16.64309 1.350571 
23.21541 -44.55912 1.355003 
14.52712 27.10084 -1.355 
-54.21422 45.83194 1.355002 
2.541965 20.72926 1.355 
-26.90939 50.08123 1.355007 
-40.46044 46.88746 -1.354998 
-40.93261 -13.14635 1.040792 
2.101116 17.13297 -1.355 
-23.29347 42.63654 -1.354999 
-25.11788 34.01152 -1.354999 
50.04814 -27.07996 1.355007 
31.45354 -26.88906 -1.355001 
-9.077053 -22.59756 -1.355 
-47.52659 -49.46849 1.353792 
-27.30884 -4.327466 -1.354999 
28.40809 35.8061 1.056211 
37.1058 -31.40586 1.355819 
-31.89629 -43.47844 1.352851 
5.792757 44.96172 1.355 
9.10679 39.27877 1.355 
-28.96922 -40.88206 -1.354999 
-49.0582 -37.08295 -1.354998 
23.38519 -27.35277 1.35504 
-14.26428 42.22649 -1.354999 
-13.09482 42.43947 1.354895 
3.590858 41.25325 1.355 
50.92595 -36.31846 1.355003 
-45.61432 -21.33881 1.354944 
-2.741798 -7.320807 1.354789 
-16.09114 -10.47863 0.5134435 
-22.35467 2.1452 -1.354999 
13.97635 -22.84103 -1.355001 
-35.40593 -37.68012 -1.354999 
42.21081 11.82709 -1.355002 
22.19865 -1.550858 -1.355001 
20.76295 45.85542 1.354999 
17.17784 17.89918 1.354999 
51.12592 -11.35212 1.212682 
-46.94642 8.405257 -1.354998 
-50.98836 24.16336 -1.354998 
-35.01271 -14.75315 1.354318 
-48.68833 -26.33624 1.355002 
26.34306 47.43108 -1.355001 
-10.07238 45.30394 -1.354999 
32.44093 29.79282 1.355149 
31.83363 -34.75585 -1.355001 
26.35547 -32.8633 -1.355001 
-5.824365 -0.2862438 -0.2398469 
-11.64741 50.32936 1.354399 
-36.13205 -38.45983 -1.354999 
-55.09937 -25.61427 -0.9525927 
2.208671 45.51142 1.355 
-18.13462 10.85712 0.3846233 
46.80959 -24.3126 1.355009 
17.13491 18.30251 -1.355 
2.308665 -54.62489 1.353182 
31.62339 -1.863254 -1.355002 
-54.85704 -51.433 -1.328319 
-21.52898 -29.44138 -1.354999 
38.65802 -44.06202 -1.355001 
6.346232 7.294063 1.354494 
-23.76482 -9.84836 1.356025 
20.12654 22.19481 -1.355001 
23.15374 36.3433 -1.355001 
5.724496 -33.33664 -1.355 
-44.05421 -45.42451 1.353925 
-21.1999 -53.72593 -1.354999 
-51.65537 -39.00272 1.355002 
25.72005 -33.13924 1.354928 
47.3017 -19.01919 1.353523 
0.6290708 15.9684 1.354999 
-30.86966 36.1903 -1.354999 
-52.69242 -18.35473 1.353557 
29.60956 23.65487 -1.355001 
53.94753 5.952185 -1.354896 
-33.19687 -23.61729 1.355011 
-25.14972 26.81861 -1.354999 
-42.96137 -21.37601 -1.354998 
2.762283 -41.635 -1.355 
-18.17749 33.1797 1.352492 
20.28748 -11.48645 1.355003 
47.4139 -12.46357 1.352482 
40.03581 19.81526 -1.355001 
20.68528 -21.87921 -1.355001 
-20.43285 6.637515 -1.354999 
14.08122 -27.14833 -0.4105982 
15.5476 -22.44239 0.7967517 
-33.72617 -29.31191 1.355006 
47.34603 -32.10631 0.4757179 
13.4101 -43.24174 0.08433648 
33.07399 -40.23386 -1.355001 
32.47897 -43.25946 1.355 
0.1943269 0.1256944 -1.355 
44.58256 41.14217 1.35457 
-52.62135 -31.10246 -1.348949 
11.77488 -42.22655 -1.355001 
-24.64481 -14.08719 -1.354999 
-36.43321 -18.63496 -1.354999 
-46.9397 -7.666093 -1.354998 
42.143 8.985919 -1.355002 
52.45578 -9.624634 -0.0773223 
-12.20775 -42.1432 1.354351 
-54.55765 14.7366 -1.354998 
-46.33044 -42.61115 -1.354998 
-35.11246 -44.15739 -1.354999 
-39.21479 49.04415 -1.354998 
-5.418687 0.8354927 -1.355 
42.33249 -48.19488 -1.355002 
53.47805 23.99644 1.354998 
-39.75959 -1.786397 1.355009 
-25.86412 -6.12424 1.355022 
-24.91349 -25.54001 -1.354999 
-37.36696 49.37248 -1.354998 
-0.7116275 7.287573 1.355 
0.9861023 46.04708 1.355 
13.26068 -38.80618 0.3183277 
43.14232 38.89853 1.165938 
-15.47953 7.001059 -1.354999 
-49.82521 -20.83782 -1.354998 
11.05797 -45.08791 -1.355 
-55.09714 4.827068 0.4422424 
13.67007 -21.83093 -0.2970009 
-5.521766 34.297 -1.355 
-8.456988 44.55764 1.353536 
55.09911 5.63824 -0.2006345 
22.22071 -35.1646 1.353416 
5.724749 36.58153 -1.355 
10.65269 17.98711 1.355 
-24.76504 -49.17441 1.355492 
6.174258 22.87926 1.355 
-11.83878 -18.28667 -0.3837617 
11.16334 2.483857 -0.258106 
-23.04132 7.869485 -1.354999 
-50.43819 9.638479 -1.354998 
30.36638 21.64775 1.355028 
-18.47251 49.10796 1.355032 
26.58359 -30.31469 -1.355001 
23.81821 -23.57499 1.354379 
-44.0983 -4.661283 1.355068 
-32.78416 -16.45312 0.1474701 
-41.44793 43.36279 1.355006 
17.86694 -55.05012 1.147868 
50.59142 -16.29001 -1.355002 
-18.91886 -35.48066 1.355053 
33.11827 -49.31923 1.354999 
-28.10825 19.79081 1.345954 
2.606724 53.50343 1.354999 
4.606221 -38.38458 1.35501 
27.06639 21.39077 -1.355001 
-49.9967 25.68546 1.355006 
42.77156 37.97421 1.345586 
-44.96707 45.78294 1.355005 
-36.94494 30.12921 -1.354999 
-3.720161 -7.205163 0.1360039 
-8.047684 24.18862 -1.355 
-23.02612 -39.63541 -1.354999 
24.48072 45.84216 -1.355001 
15.00749 15.33369 -1.355 
-20.77176 -9.691643 -1.354999 
-5.011609 45.64554 -1.355 
-11.61132 13.43697 -1.355 
29.57616 36.78191 0.4990664 
49.69905 -9.367126 1.349635 
-16.81386 -31.64046 1.355017 
1.233446 -2.787317 -1.355 
-41.10005 26.42474 -1.354999 
53.23709 39.34159 1.354998 
-22.69304 -14.56783 1.351385 
-22.46795 48.46366 1.35501 
26.60053 40.48095 1.354454 
-4.691828 22.15698 -1.355 
-16.39533 -46.66435 -1.354999 
-29.91888 -33.98951 1.355029 
-11.23517 41.09754 1.354942 
54.82613 4.198411 1.337098 
2.650465 20.40514 1.355 
-7.900605 13.98671 -1.355 
49.03162 2.322488 1.354734 
-14.1193 -49.20523 -1.355 
-53.02816 -0.9353848 -1.354998 
-18.9478 -11.43792 -1.354999 
36.36192 -5.502949 -1.355002 
-12.70312 25.64884 1.355002 
27.58798 23.61493 -1.355001 
-24.1082 -43.84541 0.6257542 
-30.78756 32.51887 -1.354999 
11.96645 -6.332635 1.355 
0.119573 -16.28258 -1.355 
16.932 16.33634 -1.355 
30.45816 34.40404 0.4621719 
33.66587 12.96444 -1.355002 
-42.39632 -8.379908 1.355211 
24.88561 55.09881 -0.5826193 
40.31816 49.17889 1.346899 
25.09456 -1.089348 -1.355001 
-30.30272 -4.142773 1.355149 
21.77541 -38.00886 1.355005 
-38.19236 30.66713 1.354692 
-15.22581 46.19839 -1.354999 
-26.75722 29.739 -1.354999 
-19.97609 28.75714 -1.354999 
-6.764676 41.73088 -1.355 
-26.09327 -26.46663 -1.354999 
50.63675 39.38142 -1.354434 
-5.247934 31.85234 1.354247 
-32.40857 -44.70367 -1.354999 
12.77842 -1.996126 1.355 
-6.285334 -5.038054 -1.355 
-28.96779 -52.41935 -1.354999 
-6.912034 -10.70552 1.35166 
41.7534 6.716184 -1.355002 
-30.41982 -27.13827 1.355005 
-22.00064 -55.1 0.662823 
1.344771 -55.1 -0.7374927 
44.87355 -9.84353 1.355006 
15.34789 45.02656 -1.355 
-55.1 31.45937 0.795562 
-52.35527 31.11241 1.355004 
-0.3828187 -6.542231 -1.355 
-13.40285 -50.50605 -1.355 
12.23704 55.09509 -1.014642 
1.830432 -8.857811 -1.355 
-52.17601 -48.66992 -1.33994 
-6.313895 -38.52141 -1.355 
-4.253978 42.24735 -1.355 
33.49904 14.98138 -1.355002 
-25.99378 33.64902 1.31702 
31.32262 44.39957 1.355211 
-53.32612 21.85037 -1.354998 
-13.05588 50.33866 1.352989 
-4.960437 52.38855 1.355 
23.74213 -13.50486 -1.355001 
40.65439 -39.62113 -0.4105893 
13.95667 -18.6534 -1.355001 
-30.10838 18.87318 -1.354999 
-17.55567 -55.1 -0.03389281 
-37.58595 50.2834 -1.354998 
-31.79564 7.021301 1.355023 
-8.270493 -37.83762 -1.355 
30.11267 1.639513 1.355003 
-23.41223 -39.35258 -1.354999 
47.08871 0.3174428 -1.355002 
-33.56654 2.09313 1.355008 
-6.945814 -8.239228 1.337471 
-41.6641 -53.38136 -1.354998 
-46.76728 0.4653487 0.807699 
32.06123 -44.5001 1.355 
7.647031 -31.2188 1.355247 
-2.946257 -33.23164 -1.355 
-37.16255 31.47802 -1.354999 
50.72924 -38.14112 -1.352147 
30.8203 38.12948 -1.355001 
50.78458 45.15848 -1.352154 
-3.331839 -24.80334 1.35489 
-0.5959759 26.07061 -1.355 
-51.94194 -30.44316 1.355092 
-35.48852 -26.92348 -1.354999 
-19.56764 -31.34963 1.355018 
-27.64269 16.87698 -1.354999 
16.93795 19.02385 -1.355 
-37.57771 -13.00624 -1.354999 
-0.1296253 -24.33642 1.354948 
-13.06376 32.94378 1.355001 
37.52009 -40.38475 1.354951 
-55.10001 -39.21055 -0.2784087 
-28.85688 33.95866 1.048224 
-28.18267 -55.1 -0.03258285 
36.15162 -12.2401 -1.355002 
-46.12163 -39.38074 -1.354998 
50.14375 -40.80179 1.355 
45.00111 -42.22479 1.354998 
12.1361 37.21909 1.354999 
31.76333 43.6028 -1.355001 
9.656196 22.50321 -1.355 
-45.70018 8.999743 -1.354998 
20.10786 26.88646 1.354999 
-10.98513 -6.561916 1.354996 
-25.9675 -52.26555 1.211901 
-33.94213 54.97902 -1.315 
9.086746 32.59807 1.355 
10.74895 -55.1 0.9354601 
-13.64853 -1.185167 1.355037 
20.89663 -15.97093 1.355004 
54.09462 -38.00592 -1.3441 
43.36512 -44.19797 -1.355002 
25.32591 32.51672 1.355082 
-34.1397 -42.58961 1.353521 
43.49546 -32.19067 -1.355002 
13.73055 24.48985 -1.355 
4.921348 -53.34436 -1.355 
49.9425 -35.92202 -1.354759 
25.16071 -23.43458 1.354046 
52.01917 42.81348 1.355 
-9.19804 -55.1 -0.0272246 
32.33908 14.39023 1.354999 
-31.34795 -34.57111 1.355021 
39.93324 3.428078 1.355001 
45.0044 32.99989 1.354735 
18.36415 29.49513 1.354999 
-17.92278 42.75155 -1.354999 
-1.167595 -11.82509 -1.355 
43.13268 -44.20419 1.354998 
29.39053 30.16641 -0.299612 
-8.709717 51.24145 -1.354999 
29.98767 -20.06444 1.352386 
-14.31996 19.59775 1.355004 
-29.22464 -27.82198 -1.354999 
37.255 -34.25018 -0.4109415 
45.26085 -27.62985 -1.355002 
-12.31901 45.76106 -1.354999 
20.33643 54.48827 -1.355001 
52.8835 -26.52424 -1.350739 
5.285697 19.37095 1.355 
-52.06419 0.06650463 0.9502086 
-37.32801 33.22243 -1.354999 
14.57671 -15.08992 -1.355001 
-19.15016 22.24757 1.348852 
-6.776668 5.31977 -1.355 
43.30818 -24.66197 -1.355002 
27.86813 40.16679 -1.355001 
-51.25355 -4.94982 -0.243785 
-49.66927 -49.77731 1.343745 
4.688694 -13.38996 1.35177 
44.67921 32.81704 -1.355002 
-10.30693 13.4413 -1.354999 
48.88489 -52.5843 -1.351891 
51.43556 46.20483 -1.349833 
51.14807 -18.01848 1.353067 
-3.999836 2.175066 1.355223 
51.45539 -1.034224 1.355003 
-6.860064 -2.664401 -0.4067544 
-52.24905 40.70074 -1.354998 
-43.21529 53.29267 1.355003 
-11.83189 9.096252 -1.355 
41.97695 43.3475 -1.355002 
-10.50902 5.115893 1.355919 
36.70352 -22.18974 -1.355001 
27.39736 1.886399 -1.355001 
33.57806 -43.31115 1.355 
-54.23101 -30.33202 1.350816 
52.71525 -17.20072 -1.354171 
34.32016 12.38696 -1.355002 
24.30066 -6.033814 -1.355001 
-19.56116 13.61911 0.2149689 
12.87218 49.05126 1.354999 
8.950899 4.035607 0.07212576 
-9.636346 -45.21555 1.354858 
-37.85172 -22.53546 1.355014 
16.47245 -4.516397 1.355001 
-44.44956 47.98584 1.355004 
37.44438 -42.26185 -1.355001 
-17.86199 -38.34026 -1.354999 
-9.7791 -36.86406 1.354733 
-7.093864 -15.74549 -1.355 
44.50546 5.038777 -1.355002 
-37.368 40.88607 -1.354999 
-45.47522 9.723959 1.355006 
-11.04514 38.57193 -1.355 
-48.30433 -0.8556218 -1.354998 
-37.97248 -43.27802 1.355013 
50.5274 54.41923 1.349692 
-15.89929 46.76459 -1.354999 
-37.13336 -26.1876 1.355012 
19.6104 37.17216 -1.355001 
-48.9 -1.544239 0.09581067 
41.17564 -5.644779 -1.355002 
-23.70836 19.32079 1.355337 
-46.11914 47.12984 -1.354998 
-33.13378 -14.74158 0.711523 
-36.71878 -4.063182 -1.354999 
10.34697 42.0341 -1.355 
-5.085916 -31.64274 -1.355 
11.4628 29.2491 -1.355 
-55.09435 -28.90406 -0.4825377 
-32.78126 -52.98721 -1.354999 
-16.5148 -0.7833074 1.35502 
-28.44278 -31.7406 1.35502 
-13.15048 30.63317 -1.355 
45.31118 -42.34563 1.354998 
11.63285 -14.20836 1.355212 
42.83699 -52.45372 -1.355002 
-3.640397 -30.05521 -1.355 
9.549519 -50.2707 1.355001 
6.022274 -49.33555 -1.355 
-20.92348 37.3798 -1.354999 
-46.01381 -7.902646 1.354703 
-12.60239 29.25501 1.355001 
40.51048 -35.82992 1.240608 
27.8942 54.60113 1.353124 
-22.54384 -45.23429 1.351094 
-52.82629 -43.72012 1.353004 
-24.00331 4.147784 1.354522 
13.09323 -34.47369 -1.355 
-14.69502 -40.96154 1.115847 
-49.46104 -29.93198 -1.354998 
-38.88845 -31.11937 -1.354999 
42.95536 -46.83321 1.354998 
-8.479517 40.18149 1.354927 
-30.0556 34.58365 -1.354999 
10.21915 54.78911 1.340782 
-31.35486 8.934143 1.354961 
35.72302 -49.74136 -1.355001 
40.5753 28.57711 -1.355002 
-46.32754 36.82616 -1.354998 
-26.29333 -27.71622 -1.354999 
47.22326 -32.24339 -1.355002 
-29.58295 -52.34961 -1.354999 
19.64799 18.71206 -1.355001 
46.21852 -6.745787 1.355005 
8.840221 34.74858 -1.355 
-12.16058 -22.00926 -1.355 
-42.65369 -8.193836 1.355183 
45.59663 -32.87251 1.205469 
-24.99059 -37.70975 1.353114 
-26.7178 -15.51203 1.355004 
-15.29174 -26.51132 -1.355 
-43.88818 -13.03194 1.355026 
34.3605 -5.228898 1.355005 
-17.59319 36.86688 -1.354999 
-52.98813 -44.34898 -1.33955 
-34.37693 -29.29348 1.355007 
-4.510763 46.28931 1.355 
1.579206 -51.03652 -1.355 
15.32772 -49.09731 -1.355001 
12.49146 -35.51102 -1.355 
28.60765 -18.82556 1.352956 
-52.80618 46.14502 1.355003 
2.197137 8.772648 -1.355 
8.848664 -47.2817 1.354753 
43.74957 25.26727 1.354955 
20.81427 -53.01508 -1.355001 
44.5198 19.93187 1.354733 
-30.76453 -29.92718 -1.354999 
-24.44831 23.04668 1.217075 
10.20844 19.05746 -1.355 
55.02688 -12.17064 1.180049 
36.90107 38.37211 -1.355001 
-17.59399 20.99836 -1.354999 
-6.578951 18.673 -1.355 
55.10001 -36.87914 -0.3416795 
55.0882 -22.96368 -1.032442 
53.06189 -10.04674 0.4213656 
-30.70072 -32.58091 -1.354999 
29.66638 54.92628 1.323202 
-14.34409 55.10001 -0.8518395 
-31.41364 -43.71593 -1.354999 
43.69482 -16.78107 -1.355002 
-35.04636 45.2635 -1.354999 
34.75866 -55.1 0.7553153 
49.75951 -0.3737655 1.354943 
-5.563109 25.0824 1.354966 
27.62893 -48.12199 -1.355001 
-25.10515 47.53795 1.355011 
-48.43994 -17.83635 1.351476 
33.82109 14.38891 -1.355002 
-25.88392 30.35998 -1.354999 
12.12635 -12.81678 -1.355001 
44.14968 51.42267 0.7980935 
-39.21035 30.00489 1.354453 
-3.26176 -39.39851 -1.355 
-0.4246588 -52.22731 -1.355 
55.1 -49.11315 0.6324899 
-21.89647 -5.379056 -1.354999 
-40.70954 -14.40739 -0.2089517 
54.9418 -3.563208 -1.330002 
-20.78056 -21.1622 1.355001 
-38.11423 -16.36498 -1.354999 
-48.8509 -11.68495 -1.354998 
-27.80347 -23.75121 -1.354999 
-24.48582 23.18234 -1.354999 
-25.61162 -17.6609 1.355003 
52.49631 4.417372 -1.355002 
34.62061 21.55269 -1.355001 
-31.84703 -20.02072 -0.4035637 
-16.73034 35.01548 -1.355 
-48.69191 4.169992 -1.354998 
11.61883 34.95888 1.354999 
38.49371 21.57967 1.354998 
39.6254 -19.0106 -1.355001 
41.30657 -29.50673 -1.355001 
-45.26088 -52.14692 1.355013 
4.72477 38.60476 -1.355 
-39.36724 -24.74817 1.355012 
6.961219 -44.72964 -1.355 
14.87943 45.42828 1.354999 
-33.3507 -19.22566 -1.354999 
-29.4651 -33.0281 -1.354999 
35.57745 37.93846 -1.355001 
-34.11517 18.56427 1.355003 
4.439041 -36.03042 -1.355 
4.311371 -19.05891 -1.355 
41.07591 54.93335 0.3840207 
27.06073 -4.983716 1.355003 
-18.68219 -24.06717 1.355001 
-21.6852 3.474862 -1.354999 
53.51358 44.39537 -1.344056 
37.2714 11.10611 1.355 
-30.65956 -47.83772 -1.354999 
6.919203 55.0994 -0.3351265 
-27.1193 53.94956 1.355001 
38.36133 -44.45118 -1.355001 
-9.669365 -5.745626 0.2413537 
47.42699 -50.09612 1.354998 
-6.226455 -2.338044 -0.4120415 
42.38084 47.89063 -1.355002 
50.10905 37.62835 1.355 
-21.25638 -29.77771 -1.354999 
-27.84189 45.1053 1.355009 
-23.24858 -42.04346 1.023312 
38.35724 -21.23018 1.032044 
52.22325 0.8618174 1.355002 
-46.09565 -50.44377 -1.354998 
10.76272 -45.60296 1.347584 
-15.32804 35.2178 -1.355 
-33.31311 -14.81357 -1.354999 
37.27097 -37.21195 1.351936 
-13.33784 51.03678 -1.354999 
-8.083729 -53.9873 1.355005 
-55.09763 1.216155 0.04380029 
44.94398 -26.12626 1.35502 
-5.061785 -19.54411 -1.355 
40.33192 39.47599 1.355006 
-39.65862 -52.11607 1.355028 
-48.09467 -4.121951 -1.354998 
-47.86758 -53.20971 1.355009 
-34.15786 -15.11482 -0.2233108 
28.26254 34.40261 0.0671291 
51.11854 15.19095 -1.355002 
45.30644 39.36797 0.1119389 
18.5126 8.6778 -1.355001 
-15.18179 23.39224 -1.354999 
-20.09314 47.94588 -1.354999 
-46.53634 -1.618598 -1.354998 
6.347792 4.937582 1.355 
-12.09584 -54.57652 1.355006 
54.14124 -6.646982 1.355034 
7.585643 -10.09522 -1.355 
-39.87484 -17.05716 1.353693 
33.07956 4.946739 -1.355002 
34.53329 -20.6303 1.260029 
43.85 -30.67875 -0.1968137 
38.25378 -40.06086 -1.355001 
-23.47581 -42.66027 -1.354999 
21.54449 -34.92869 1.353204 
-5.060116 36.48895 -1.355 
51.93211 10.63727 1.355002 
-39.41005 33.70251 1.35496 
6.116916 -28.40237 -1.355 
-7.633724 -10.03055 -1.355 
-32.84958 -43.27441 -1.354999 
-49.08715 -41.51875 1.355002 
-13.91141 -14.53079 1.143182 
15.34014 -25.64363 0.8363749 
48.21003 17.67906 1.354494 
-14.87634 -17.27094 1.335939 
29.5652 0.3204358 -1.355002 
12.12785 -19.51563 -1.355001 
37.80065 12.46139 -1.355002 
-52.31907 -25.08621 0.7329742 
-9.991405 -14.56638 1.354707 
29.92788 -27.1967 -1.355001 
8.509819 53.86945 -1.355 
46.19118 -51.98938 1.354373 
13.89094 -8.934601 -1.355001 
-12.24635 -47.03296 1.355048 
-7.576123 17.21676 -1.355 
-44.12317 -40.45943 1.355002 
-13.49261 -8.844121 0.4072701 
16.27927 46.87103 1.354999 
0.8925982 -19.33702 -1.355 
27.91006 -2.075374 1.355003 
-50.36705 -37.67342 1.355002 
22.46819 44.61121 -1.355001 
46.05071 -32.57433 -0.341177 
5.736131 -42.95289 1.355005 
-50.50021 0.3432484 -1.354998 
-2.912357 26.25096 1.354962 
-7.863092 34.08109 -1.355 
-31.85783 39.08672 1.353442 
-47.07016 2.332924 1.354817 
-29.49885 -34.76638 -1.354999 
44.99573 29.64601 -1.355002 
-13.28084 -51.58039 -1.355 
-52.22013 -12.11173 1.355183 
-37.12871 2.868177 -1.354999 
27.6055 37.76826 -1.355001 
-34.63162 -30.52685 -1.354999 
25.47126 7.739227 1.355001 
-46.6852 -31.5539 1.355002 
31.57113 24.21346 1.355053 
20.20547 32.40066 1.354999 
-5.829068 10.82756 -1.355 
27.88363 -17.21 -1.355001 
-49.0996 12.91211 -1.354998 
10.76726 -23.05013 -0.4113393 
14.70003 54.09967 -1.355 
-6.446655 -42.30926 1.354622 
41.24392 -32.74557 1.355755 
-12.51997 37.93201 1.355002 
-29.55844 40.55281 1.355052 
-2.981663 -40.49388 -1.355 
27.45408 40.8192 1.354733 
23.66707 -36.43397 -1.355001 
-1.576719 26.70038 1.354961 
-20.36713 -21.25999 -1.354999 
32.19024 37.61385 -1.355001 
-28.93447 -32.65285 1.355025 
-24.22763 -51.40662 1.35668 
-28.02658 -6.209876 -1.354999 
2.512104 -10.83295 0.1948174 
26.06262 54.14286 -1.355001 
-47.79156 -31.37834 -1.354998 
24.896 10.85091 -1.355001 
-54.19326 -4.057271 -1.354998 
-36.70013 -2.079041 1.355007 
-9.497816 47.6354 -1.354999 
-45.95638 -48.95768 -1.354998 
5.236123 -51.14119 -1.355 
53.93295 31.36744 1.354998 
-8.846951 50.64001 1.355 
-51.84449 -7.467183 1.355173 
-25.15394 -42.94196 -0.2889127 
-46.45657 13.83585 -1.354998 
-23.16263 -9.433167 -1.354999 
-7.414997 -50.80049 1.355012 
8.17201 19.23588 1.355 
-8.562132 -23.30378 -1.355 
37.43168 -0.536683 -1.355002 
-38.62057 53.40713 -1.351345 
-18.48449 4.484659 -1.354999 
-13.0718 -41.21613 1.355327 
5.596284 -51.38326 -1.355 
4.837032 28.02655 1.355 
-24.65192 -5.138599 1.355028 
-38.26107 -1.024939 1.355008 
26.02129 -36.77893 1.354804 
20.88212 -2.843047 1.355002 
-42.10226 -35.71696 -1.354998 
12.3577 23.06976 1.354999 
-50.38894 -36.15657 1.355002 
10.85655 50.11434 -1.355 
-28.11277 31.37393 1.352835 
24.07035 -49.49747 -1.355001 
-19.3757 20.347 1.354419 
-22.0802 -18.3763 1.355002 
34.05842 16.79442 -1.355002 
55.0371 50.45031 1.15357 
-18.37931 -44.66428 -0.1719755 
-46.37142 13.87843 1.355005 
-54.99725 -48.5332 1.302003 
-43.98058 2.707659 -1.354998 
43.79587 20.95607 1.354816 
-55.1 -46.88418 0.4824291 
0.9753497 30.7091 1.355 
15.03879 -45.4528 -1.355001 
-41.53429 39.11424 -1.354999 
-32.47617 -54.98756 1.293757 
-46.96941 -39.85501 1.355002 
-55.09963 -15.65314 0.5732929 
22.05818 35.48186 1.355016 
1.088976 -53.61303 -1.355 
38.46383 -22.0599 0.8149137 
23.89961 -7.85089 1.355003 
52.40977 -8.710039 -1.355002 
-7.792125 55.05877 1.122242 
-55.09494 -5.474661 -0.1071481 
-3.832241 -25.94376 -1.355 
10.00786 -20.25359 -0.4087426 
-44.15826 -26.26933 1.355007 
16.48779 -50.69476 1.355 
-1.808751 -16.82389 1.348717 
49.1319 -48.54027 1.354998 
35.24358 -50.21308 -1.355001 
-20.64706 -19.43423 -1.354999 
-0.2527676 -3.66706 -1.355 
54.31824 -16.51852 1.353722 
-32.27457 -7.912145 1.355257 
-41.1442 51.069 -1.354998 
20.3541 23.54786 1.354999 
-27.5366 32.0005 -0.2169228 
33.03484 14.8467 -1.355002 
-40.34293 -47.62239 1.355016 
-0.09723712 -6.654437 0.1922186 
8.498355 39.51628 1.355 
33.28569 15.83856 -1.355002 
-21.48834 -6.888844 -1.354999 
-10.83451 34.19955 1.355 
10.71958 -36.55585 1.353612 
-34.72913 5.582124 1.355011 
24.90227 24.27239 -1.355001 
-44.32187 27.05173 -1.354998 
-49.30999 -20.37731 1.350507 
47.79131 -26.17609 -1.355002 
-25.40662 43.20226 1.354404 
-30.45686 8.822569 -1.354999 
49.50345 47.3765 -1.355002 
-44.54544 34.85911 -1.354998 
21.57724 34.98418 1.355005 
15.98778 -43.34897 -0.3587712 
47.3742 -25.50876 1.355008 
-12.90702 24.26512 1.355002 
-45.89134 -53.18633 -1.354998 
-55.09894 -0.008312196 -0.2779402 
-25.14544 14.71995 1.352811 
39.36379 -19.16808 -1.355002 
44.06687 -54.77931 -1.345263 
22.67841 35.97137 1.355029 
25.8524 26.74544 -1.355001 
-20.57091 22.79949 0.3807478 
-54.25613 8.269934 -1.354998 
-41.11002 -13.15277 1.346631 
-16.99465 40.01575 1.355007 
-2.283637 2.566866 1.355 
-3.429574 51.03163 1.355 
30.14178 -3.242185 -1.355002 
-48.09073 -29.14557 -1.354998 
12.53499 -46.3412 -1.355001 
13.27524 -45.28162 0.7127484 
-50.87357 -12.50368 1.35518 
-46.91431 -18.75818 1.352666 
-39.11658 -50.68013 -1.354998 
22.27188 -26.41483 -1.355001 
29.08672 1.482612 -1.355001 
2.324263 28.46989 -1.355 
54.26131 45.07873 1.351552 
-6.640028 55.00957 1.268107 
-23.04955 -52.27293 0.02476486 
-44.92392 1.919594 1.354777 
39.58304 33.59981 1.355004 
0.3179111 -48.08849 -1.355 
-48.27747 23.47708 0.3614416 
-21.75973 55.1 -0.8505785 
3.865277 -17.61363 -1.355 
36.11723 -33.95268 -0.1689416 
-32.50436 -26.20957 -1.354999 
-54.04023 7.028147 -1.354998 
52.3526 33.76009 1.354998 
53.37828 40.43523 -1.345722 
29.71198 -22.48459 1.352843 
-31.89082 6.391837 -1.354999 
19.33249 10.8268 -1.355001 
46.41338 52.01355 1.352339 
54.61694 -53.07972 -1.337587 
50.80403 -30.26456 1.355003 
-8.078361 -5.060385 -1.355 
11.95594 -43.06494 -0.2901895 
30.77904 34.71008 -0.2566175 
-25.10023 4.832905 -1.354999 
-44.85407 -45.61355 1.35051 
-30.46692 -8.91326 -1.354999 
9.981247 -44.87783 -1.355001 
8.389523 35.93327 1.355 
-13.22423 -13.64069 0.7694526 
-4.155267 -3.123799 0.1743844 
-34.65285 14.57166 -1.354999 
31.02741 23.87643 1.355051 
9.135043 13.6132 -1.355 
26.45049 -33.9079 1.354838 
16.43335 -53.98434 1.355001 
-19.97517 -28.63914 1.355 
7.012835 -21.00975 -1.355 
-23.77119 -7.766074 1.35562 
-4.740908 -9.219358 1.3547 
-26.41839 -39.13693 -1.354999 
0.7931008 -15.20044 1.355001 
6.705894 -8.508836 -1.355 
39.98518 -14.70731 -1.355002 
42.81333 -51.54681 1.354998 
47.33457 0.8414736 1.354926 
10.21301 47.63428 -1.355 
21.1051 -27.22076 -1.355001 
-36.22552 -41.41308 1.353937 
-52.23519 -0.3590232 1.266077 
-39.53669 -16.04354 -1.354999 
-19.88034 -8.657934 -1.354999 
-51.453 -46.71613 -1.343807 
49.61646 12.33496 -1.355002 
-28.41719 36.27071 -1.354999 
-18.95385 25.10844 0.554705 
44.67492 12.39259 1.354662 
-30.43437 17.68441 -1.354999 
2.523124 -24.88902 1.355001 
37.42592 -23.83754 0.1845066 
3.445644 -52.59193 1.355003 
6.267557 43.69449 1.355 
-27.42218 41.00347 0.6961348 
38.6627 55.09855 0.9159241 
-5.006786 -39.16296 1.354849 
-45.18292 -25.55733 1.355006 
-18.68446 24.87557 -0.09980346 
-45.56812 -55.1 0.5033731 
15.78527 -43.60718 0.216159 
30.99718 40.80496 1.355076 
-17.88984 2.217675 -1.354999 
-19.21443 19.35042 1.353261 
-52.47713 -5.20207 -1.354998 
-19.49647 53.58188 1.355001 
-21.46031 -25.65026 1.355001 
-14.04699 -40.64676 -0.3664761 
-44.94386 -55.01823 1.199636 
14.98923 -43.54171 1.310475 
-30.32998 -6.453067 1.355004 
39.50132 30.53116 -1.355002 
-47.68182 -45.29656 1.349475 
-38.07828 -34.59596 1.355006 
16.27875 26.49765 -1.355 
51.73299 3.912358 1.355001 
-14.36093 23.10526 -1.354999 
4.759377 -34.60626 1.355015 
-32.68542 42.98671 1.35498 
-33.49321 -51.70101 -1.354999 
-38.77458 -24.61301 1.355012 
38.80481 6.302821 1.355001 
36.74702 -29.1739 -1.355001 
41.01024 50.22837 -0.3232945 
-28.51598 17.14091 1.351129 
-41.63635 -34.30506 -1.354998 
54.14718 39.94482 1.354998 
-1.833523 52.98323 -1.355 
-25.08512 53.55851 1.355002 
-33.36594 37.71956 1.354412 
-4.670673 33.39354 1.354504 
10.24454 48.78452 -1.355 
-18.51703 -1.565265 1.355021 
-5.253074 30.16499 -1.355 
-17.02882 30.94719 1.354062 
-43.96925 -24.41656 1.355007 
16.9318 21.26069 1.354999 
26.13365 54.00063 -1.355001 
-29.08284 31.95783 -1.354999 
45.99853 39.05553 -1.355002 
7.578963 23.69147 1.355 
0.413609 12.91722 -1.355 
12.66459 24.67685 -1.355 
10.65519 18.4349 1.355 
-38.03123 33.38005 -1.354999 
33.73214 -10.35996 1.355006 
-8.735426 23.06746 -1.355 
-53.90583 -37.89344 1.35436 
13.7775 -20.2417 0.6981016 
-2.570513 55.09999 0.7526332 
-40.35105 -18.23698 -1.354999 
-53.58768 -5.609047 -0.4044202 
-7.083353 -49.53218 1.355019 
9.418131 -44.95924 1.35328 
-38.92069 -45.45109 1.355015 
44.32055 42.24747 -0.1758214 
-51.06097 26.98372 1.355005 
28.28309 -5.243691 1.355004 
24.35918 39.84607 1.355017 
1.760316 49.69671 -1.355 
21.69897 54.2016 1.354926 
-21.20843 -12.95488 1.336672 
-9.396722 -16.71905 1.353961 
55.1 -23.74378 0.618122 
-3.319336 -20.10213 1.354655 
8.874802 -43.05088 -1.355 
17.84691 8.920926 -1.355001 
-19.76376 45.02589 1.354903 
-37.24573 -18.76128 1.354181 
49.6727 -48.93414 -1.351182 
27.71376 17.74337 -1.355001 
25.80705 -2.617307 1.355003 
15.11383 52.56752 -1.355 
3.27819 14.82628 -1.355 
23.50626 -20.91769 1.354044 
41.88436 -17.67064 1.355089 
-38.11108 24.79672 0.1838366 
-18.349 -40.92331 -1.354999 
44.02042 -19.62159 -1.355002 
8.030636 -6.900013 -1.355 
-53.8138 -20.07367 1.355413 
-27.81534 -16.62083 -1.354999 
43.02388 51.25224 -1.355002 
-12.24714 -52.36143 1.355015 
-36.26699 43.42045 1.355006 
-31.73518 -19.96157 -1.354999 
-40.72134 -12.509 0.5353177 
38.34271 53.67491 1.354453 
39.10275 -11.34871 1.355006 
-55.03913 -11.34828 -1.180423 
52.71619 -38.52192 -1.347246 
-44.74572 -3.249751 -1.354998 
30.20653 -44.25155 1.355001 
25.27421 40.24046 -1.355001 
15.68288 -42.99165 0.08620618 
-12.36749 -18.31605 1.34281 
6.355278 8.690992 -1.355 
1.634546 48.94064 -1.355 
18.88644 -22.57349 1.355224 
-22.40525 20.36923 -1.354999 
-38.44733 -16.66287 -0.1144622 
-29.41924 -26.51109 1.355005 
-44.59755 14.99258 -1.354998 
27.31003 -53.66995 -1.355001 
20.09821 -3.57137 -1.355001 
-42.41865 0.08895648 1.355012 
-6.979925 53.64795 -1.354999 
-19.15737 -38.37837 -1.354999 
-14.87464 39.98585 -1.354999 
40.5841 -16.10967 1.353606 
37.87185 -22.18738 1.207779 
-11.33446 -7.26559 -1.355 
12.20658 -40.51355 -0.1751802 
3.652371 52.08538 1.354999 
-16.07989 -36.63575 -1.354999 
-29.43386 51.30796 -1.354999 
-8.586901 -24.08219 -1.355 
-41.88433 -13.00689 -1.354999 
7.257686 50.51131 -1.355 
-24.18401 25.47947 -1.354999 
-22.91211 22.19719 1.354783 
7.438989 -3.548772 1.355 
45.42238 35.16335 1.354675 
14.34822 -41.62787 0.6475591 
-38.12342 -35.7824 -1.354999 
-18.87789 -8.014002 -1.354999 
46.29987 43.37061 -0.4135211 
-1.255931 49.90139 -1.355 
-26.93077 -8.201769 -1.354999 
10.63272 34.07251 -1.355 
-31.4917 -9.306421 1.352938 
-36.12376 -3.452319 -1.354999 
20.30989 20.48438 -1.355001 
-21.87459 -39.7937 -1.354999 
22.04027 32.416 -1.355001 
-53.83069 27.3725 1.355003 
-14.62475 -14.38226 -1.355 
-40.46646 -12.8605 -1.354999 
-5.249743 12.64716 -1.355 
-13.89748 -40.73629 1.351499 
5.928381 39.39363 -1.355 
-23.76451 41.72936 1.355015 
-42.96582 -0.2438278 -1.354998 
-17.49917 26.76536 -1.354999 
13.46957 -23.12935 0.08323365 
27.59205 36.89846 1.355204 
-10.79997 -42.00438 1.354427 
-32.82251 -3.225009 1.355003 
-20.95486 -34.41517 -1.354999 
14.41346 -47.64533 1.355017 
-45.09825 -42.88788 1.352448 
-54.51316 11.36513 1.351886 
-1.975502 -1.367861 1.355 
-33.77441 -43.22733 1.353704 
-27.24306 34.85145 -0.4120143 
32.58212 7.686686 -1.355002 
36.20898 13.4781 -1.355002 
-33.59065 3.352831 -1.354999 
-8.760668 42.04273 -1.355 
-55.04934 14.29172 1.146737 
-9.071959 37.99913 1.355002 
19.23523 -37.70618 1.354757 
-50.67068 -5.053898 1.355246 
-6.35906 -0.1972026 -1.355 
45.17367 -28.58978 -1.355002 
-18.58426 23.14811 1.353259 
-27.98829 38.95947 -1.354999 
13.86803 -47.86721 -1.355001 
-23.87475 -40.38112 1.354587 
15.17478 -47.02711 -1.355001 
-25.55843 3.642231 -1.354999 
21.03977 13.71855 1.354999 
49.54015 -45.53976 1.354998 
0.1129699 -25.76001 -1.355 
-21.24952 47.36771 -1.354999 
41.92535 40.95788 -1.355002 
55.06747 46.20071 -1.093997 
-49.91664 -43.6546 -1.351363 
-16.46294 3.341372 -1.354999 
-28.66112 34.87459 -1.354999 
-19.43443 -26.93779 1.355001 
-50.94868 -27.25081 -0.1037008 
-45.21198 41.92007 -1.354998 
-25.97747 52.11327 1.355004 
45.805 -36.82893 -1.355002 
-53.68514 -1.20067 -0.1585864 
-28.01359 29.43328 1.354968 
-25.15524 8.492763 -1.354999 
38.00646 54.44626 1.353429 
1.973414 16.48346 1.354998 
-36.00389 16.83276 1.35409 
-7.585137 -20.6897 1.349611 
-25.08394 20.96268 -0.4091546 
5.399427 55.09949 -0.3005633 
-52.65485 -1.93759 1.073992 
46.15307 -16.06606 1.354246 
-46.72812 25.93216 0.4091827 
-45.14624 -53.45313 -1.354998 
39.16235 -31.33928 1.355498 
34.21318 -41.72359 1.355 
-9.137489 -11.96341 1.354968 
-25.60038 22.22408 -1.354999 
-36.20718 22.96563 1.355524 
55.09874 -1.870705 0.2898712 
44.65638 34.38211 -1.355002 
4.606355 15.55344 -1.355 
-0.8054906 -18.83792 -1.355 
2.525647 -36.39071 -1.355 
52.87631 -52.30988 -1.342385 
6.556933 -13.5436 -1.355 
-33.25117 16.38861 -1.354999 
26.72217 25.14869 1.355079 
-16.17882 -38.95949 0.7641032 
-32.92683 -17.19077 0.4809507 
-11.18309 -22.36258 -1.355 
-32.3645 5.900353 1.35501 
52.62626 42.61613 1.354999 
-32.9426 -48.99302 -1.354999 
27.82353 15.37322 -1.355001 
-0.6128044 -40.60334 -1.355 
16.67917 -54.59715 -1.355001 
-29.72046 -36.89787 1.35506 
8.97684 -29.17364 -1.355 
-15.11568 12.28276 1.354936 
1.585108 -5.128849 1.355003 
23.06015 -10.28507 1.355004 
21.16508 4.719893 1.355001 
37.58385 -34.4718 -1.355001 
30.20305 -30.0886 1.35497 
-52.99102 43.19277 1.355003 
-24.02887 10.78364 -0.3549647 
-52.51318 20.40912 -1.354998 
-54.99956 17.37092 1.297758 
1.058531 31.64724 1.355 
45.67357 1.50211 -1.355002 
35.06145 51.12971 -0.2242055 
-36.57126 -3.182145 1.355006 
44.11334 44.65385 -0.4111089 
-37.71537 51.3053 -1.354998 
51.79224 18.70137 1.355 
33.28722 -30.73862 1.355005 
32.48587 -46.12012 1.354999 
-27.87139 -55.10001 0.1822935 
22.59818 -15.76026 -1.355001 
35.03018 30.9198 1.355 
-20.33154 35.37268 -0.4105438 
-14.86095 -17.80894 1.354805 
-3.182314 33.96916 1.353433 
-1.993503 -53.13163 1.355004 
-46.51385 18.25801 1.355012 
-28.21823 -18.68978 -1.354999 
6.358337 24.35633 -1.355 
-12.11938 -3.12802 -1.355 
-8.572103 -20.15458 1.356137 
17.40484 -27.34171 -1.355001 
-2.031682 28.40065 -1.355 
-23.30281 -37.04392 -1.354999 
-0.07406616 3.760473 -1.355 
39.86396 -39.24742 0.5026803 
-42.25556 41.87862 1.355006 
12.65867 32.15967 -1.355 
6.736982 -25.74841 1.351437 
-15.54867 -24.40519 -1.355 
32.63075 -26.14886 -1.355001 
48.69707 25.08295 -1.355002 
-21.15901 24.27983 0.6690229 
-8.603795 -22.14101 1.350415 
-44.949 -20.55957 -1.354998 
29.15959 15.21532 -1.355001 
30.24402 -28.31437 -1.355001 
35.76159 2.934478 -1.355002 
2.808256 4.351309 -1.355 
33.96849 -3.26577 -1.355002 
-13.8118 -15.30316 1.353532 
32.35724 1.645786 -1.355002 
-10.82798 -46.23454 -1.355 
-52.92089 -36.58166 1.355033 
-2.130274 45.14958 -1.355 
38.68583 -7.970562 -1.355002 
4.370167 15.19009 -1.355 
-41.3665 36.31145 1.355003 
23.31172 -21.66939 -1.355001 
-52.27932 3.659489 0.4620399 
-50.12498 -11.84694 -1.354998 
-28.33784 -42.09218 -1.354999 
37.13033 -54.04787 1.354998 
23.23933 11.46278 -1.355001 
37.52535 -37.17496 1.342919 
18.04896 -50.26092 1.354999 
55.1 47.24852 0.4004282 
15.88421 55.09892 0.04358095 
-33.28896 11.21012 1.354767 
51.37276 8.75563 -1.355002 
-16.23002 37.82219 1.355002 
29.09195 36.09612 -1.355001 
27.58896 6.441364 1.355002 
35.34723 5.609429 1.355001 
23.09574 -54.18986 -1.355001 
-46.13421 -14.02921 -1.354998 
-19.10901 -1.837161 1.355022 
46.29626 -21.24778 -1.355002 
29.47468 -39.76807 -1.355001 
-52.63646 36.39633 -1.354998 
-55.09806 12.16373 0.2200494 
33.86393 -0.746839 -1.355002 
-9.266708 -22.6577 1.35556 
-11.80851 5.926028 -1.355 
-16.43251 32.1026 -1.354999 
14.00402 46.24736 1.354999 
