ply
format ascii 1.0
comment VCGLIB generated
element vertex 1589
property float x
property float y
property float z
element face 0
property list uchar int vertex_indices
end_header
-13.19488 -47.56404 7.63176 
-20.34398 12.982 15.00398 
-12.30598 -58.39811 5.18875 
-12.96052 -29.90381 7.656656 
-19.39011 -18.89524 -8.126735 
-12.95771 -38.85904 0.8120589 
-15.20174 -2.073968 -26.65078 
-15.46013 11.96545 -21.55277 
-16.82052 -8.746449 17.07644 
-14.68942 15.90644 20.63214 
-13.2389 -36.82546 -8.811392 
-15.10189 1.865924 10.76359 
-18.74223 -8.429765 -12.54568 
-13.56123 -26.38778 -34.64312 
-23.14055 12.65671 12.28013 
-10.87403 -26.34222 -37.79198 
-27.73852 11.98333 3.237473 
-19.8195 -9.319058 -24.93787 
-16.15374 -25.96249 3.541116 
-12.02566 -30.82028 15.29248 
-17.80435 12.12798 -26.00395 
-10.21634 -24.97453 -37.81154 
-15.64808 7.982931 -28.2261 
-13.38817 -29.54498 -11.20727 
-12.43451 -52.7339 3.304963 
-15.38462 12.09857 5.368635 
-13.04533 -27.51386 -21.40401 
-13.65804 -29.11367 -24.90072 
-15.36735 8.035477 -20.26878 
-12.13435 -38.03987 -36.00158 
-12.65142 -40.99298 10.02866 
-13.55475 -55.63431 -22.31755 
-17.17425 -6.661066 0.769163 
-15.06731 0.7366236 11.72791 
-14.78077 1.012465 -34.82343 
-14.0536 -31.03318 -11.94559 
-13.23035 -43.89877 -25.07453 
-31.34287 11.91324 4.261951 
-20.08703 -17.79728 -11.1284 
-13.96098 0.6132957 15.8072 
-16.24924 12.13534 -10.59932 
-15.35138 2.814443 -32.81039 
-12.21396 -34.04379 -35.89478 
-17.79477 13.0286 -18.81408 
-19.06068 -10.72106 -12.96128 
-15.14593 -2.031307 -1.050799 
-12.79819 -41.55173 -32.74852 
-14.30815 -31.53407 0.6568009 
-12.80083 10.47372 -38.04759 
-12.64119 -48.48756 -32.17138 
-15.82814 9.872946 2.261418 
-14.24204 -27.6364 1.343319 
-19.27741 -10.41838 -24.53325 
-13.07722 -46.71449 5.322763 
-19.6805 -15.96943 -21.59561 
-12.6196 -47.13165 -19.85957 
-11.35841 -5.780605 21.04088 
-8.423424 -66.00004 20.93807 
-12.40699 -59.3445 0.3910314 
-19.31736 -12.00341 -10.04063 
-15.09754 -1.858071 -0.4016611 
-16.60558 -25.5821 0.383661 
-27.56389 11.91529 -10.05282 
-15.38338 9.047228 -12.70396 
-12.63165 -46.85625 -21.24877 
-13.07355 1.24906 -37.87309 
-16.33251 -14.70176 -37.78739 
-12.86189 -30.20391 9.369835 
-27.96472 11.81839 -15.92241 
-15.26616 -1.043415 -31.52337 
-15.38377 9.529797 -14.35961 
-12.25888 -62.29946 2.788664 
-19.35733 -7.941386 -11.84035 
-12.60611 1.351305 19.11229 
-13.66275 -1.095602 17.85461 
-25.7951 13.38249 15.63857 
-11.8226 -20.41936 -37.8975 
-18.66402 -9.393288 -4.325912 
-27.80706 12.86927 14.27751 
-17.0953 11.83699 -12.64831 
-14.07226 -29.54142 -12.61785 
-11.25241 -33.09736 17.10572 
-11.48259 -1.781086 20.83325 
-12.63649 -47.45821 -22.76577 
-15.37473 5.832229 -3.200509 
-16.16163 14.06662 -36.11255 
-12.9065 -30.6728 -2.970027 
-25.53747 16.01764 -15.50905 
-8.769114 -54.53345 20.77542 
-14.57128 -65.24328 -16.14231 
-12.84595 -44.03928 11.60488 
-13.36554 -29.41816 -1.041605 
-17.19457 13.38661 -37.89154 
-12.59677 -50.88741 -30.97679 
-18.63026 -64.83051 1.274909 
-15.93333 -5.904834 8.818005 
-18.52036 -22.58551 12.09625 
-16.19949 -26.64888 -24.53647 
-12.69665 -55.4613 6.703098 
-12.55969 -52.01332 -24.13102 
-12.9659 -28.5242 -8.788792 
-31.16931 11.90295 3.38346 
-14.47847 3.696862 12.48026 
-19.74631 -15.83151 -4.090978 
-12.85236 -34.62191 -9.23003 
-29.24184 11.89429 -10.05237 
-12.73976 -41.99118 -29.87767 
-10.84904 -51.11894 18.85321 
-17.94553 14.52683 -20.71161 
-9.435898 -27.00717 20.56966 
-22.28826 12.9302 13.05088 
-18.10932 -9.791496 -37.18331 
-13.22483 -56.8483 -28.15961 
-16.71005 -1.286744 -7.965713 
-13.75809 -32.05787 5.267074 
-21.39163 14.30954 18.29093 
-12.83597 -35.79729 -28.0185 
-12.63628 -43.43082 -2.792058 
-13.08886 -65.19006 -22.78895 
-19.95325 12.16092 5.297526 
-26.49628 12.04239 9.078493 
-18.65285 -22.29071 -7.651942 
-26.64826 19.27779 -15.84624 
-12.93215 -45.22159 0.8688334 
-18.46085 -7.148795 2.306818 
-18.98381 -21.25504 -24.06132 
-16.85226 -6.44384 -18.62572 
-13.43983 -65.1077 -7.256726 
-17.72923 11.97037 -27.64214 
-12.36144 -60.62936 -1.192078 
-12.87606 -49.99149 -7.350607 
-16.20524 1.77171 0.7795607 
-15.59817 -7.171498 15.76952 
-12.85281 -52.47003 6.241527 
-11.35861 -30.39449 -37.6743 
-13.71608 4.903517 17.69313 
-26.07826 18.33173 -15.69174 
-12.94334 -30.46077 -10.14099 
-15.98689 -25.18469 -37.72789 
-11.85598 -32.63827 -37.69255 
-12.72685 -39.05258 -1.867708 
-15.37728 7.0605 -22.0604 
-9.556643 -63.57531 19.08664 
-19.41763 -18.72176 -8.316056 
-10.59935 -13.09199 -38.11184 
-18.93605 -8.951809 9.452531 
-12.43816 -56.66131 0.5944611 
-11.01315 -48.60971 17.40688 
-20.15411 -12.51613 -4.127996 
-20.52786 -12.58928 -5.021896 
-15.32136 5.30988 -20.07377 
-12.44917 -54.28562 6.319757 
-16.33139 -14.62985 20.15354 
-17.47759 -24.79893 2.951679 
-13.26249 -18.50912 -37.84577 
-12.76654 -41.03347 -30.88577 
-15.02954 -5.553675 9.314834 
-15.13169 -5.050514 -21.88616 
-20.57905 -14.20642 -4.678954 
-13.75758 -31.95703 -12.6381 
-19.14816 -20.39966 -14.7733 
-13.58481 -26.62377 6.728528 
-19.46976 -17.88462 10.50049 
-12.67238 -41.5832 -4.641812 
-10.29822 -59.79696 18.70131 
-17.14758 -64.59662 -26.18144 
-12.66113 -46.38627 -22.93564 
-12.44535 -57.41829 -6.289299 
-20.20741 12.08387 -5.131258 
-17.00302 -23.69111 -37.74918 
-17.81562 11.30744 1.986801 
-13.16644 -34.32453 -1.578313 
-18.02955 -65.38146 3.681839 
-12.54135 -59.01595 -13.50254 
-20.06903 16.81103 -19.8512 
-11.39574 -25.63184 15.80284 
-10.84742 -24.42414 19.13866 
-13.65122 -65.22984 -13.79294 
-12.8534 -36.36666 -16.8326 
-13.10635 -27.04138 -31.61245 
-12.48389 -48.89396 3.899327 
-15.45645 -5.682535 4.507676 
-13.15466 -26.82685 -29.55603 
-19.60419 -11.99043 -24.52079 
-11.84552 -48.09552 13.35763 
-15.3597 10.65024 3.589061 
-13.47117 -64.1665 -4.709253 
-10.71794 -67.40269 16.56132 
-22.33328 12.08423 2.315133 
-19.48585 -21.74217 0.8072203 
-18.16585 -23.85605 -32.94303 
-14.40575 2.7385 15.58176 
-11.83219 -12.15124 -37.99581 
-23.40553 14.80314 19.29144 
-17.82774 12.45642 -15.85917 
-10.76843 -60.19218 16.1208 
-12.67653 -40.93076 7.862934 
-12.43983 -56.12075 -4.796357 
-15.18076 -65.04576 0.1653995 
-15.16339 -1.059176 -16.15957 
-30.45744 11.88585 -2.036812 
-15.64563 12.81673 -37.26221 
-12.81644 -22.81651 20.98958 
-12.81868 -38.14848 -14.06122 
-19.23285 -7.639004 -11.24444 
-12.32851 -57.23625 4.651744 
-15.18379 6.080919 12.05217 
-15.13706 -4.595426 -21.54648 
-19.57866 -18.09183 -32.47573 
-14.03622 -64.26759 -2.249793 
-13.05818 -26.92291 -22.59914 
-14.68983 -25.59468 15.75523 
-15.37477 11.51147 5.731976 
-19.17463 13.0554 -30.42604 
-16.177 -5.984325 12.30673 
-12.4288 -56.58279 0.06910582 
-12.64935 -46.25488 -19.02615 
-19.00348 -10.64484 -0.3846181 
-16.48493 -65.27271 -16.86562 
-13.37918 -54.23664 -26.3582 
-16.39845 -6.234607 12.3948 
-12.62958 -43.48609 6.041766 
-12.91803 -30.83273 8.157018 
-15.7413 -5.113822 -24.54168 
-19.579 -17.28667 -9.173071 
-19.62726 -15.18528 -7.339656 
-15.18528 5.127779 9.916061 
-12.79447 -39.20518 -12.97792 
-16.39851 -25.76826 -3.939633 
-21.1353 15.9501 -14.95771 
-11.64702 5.680324 -38.11608 
-16.87044 -25.52655 -29.66371 
-21.10486 12.18552 11.42584 
-12.79028 -40.96654 -23.10365 
-15.44713 -6.677152 -35.36369 
-15.32887 1.47956 -32.04579 
-14.11017 0.5459943 15.86305 
-13.15145 -44.45397 -8.410175 
-11.29959 -29.95995 17.11913 
-11.71712 -34.01225 15.67924 
-12.42792 -58.60777 -7.121083 
-19.92588 -12.05491 11.89452 
-10.27357 -47.62715 19.81015 
-10.5998 -66.56813 17.66398 
-12.9101 -53.77654 -23.95064 
-13.28292 -44.85157 -7.816961 
-21.28043 15.82589 20.76113 
-18.70504 -14.37987 15.93644 
-19.47845 -12.58436 -31.22203 
-16.77164 12.07311 -17.53661 
-10.87713 -52.20442 16.27763 
-12.36474 -61.40438 -15.32622 
-12.54657 -51.353 -8.769485 
-12.94681 -31.852 -19.68273 
-16.85287 14.45062 18.97953 
-19.32135 -64.41189 2.115325 
-12.54904 -65.41238 9.721385 
-15.39184 8.946024 -19.94307 
-12.94613 -29.48678 -6.814375 
-11.53679 -52.2336 15.7649 
-17.99316 11.24181 -12.58251 
-15.39951 5.929272 -7.053352 
-19.09015 -21.53081 8.813259 
-9.961079 -41.02259 -37.83399 
-14.39895 -2.690286 12.40541 
-16.75689 -8.618361 16.93578 
-19.42483 -12.24939 -24.47863 
-24.29187 11.98077 -10.01086 
-15.79787 12.1815 0.418341 
-12.6552 -39.9306 11.45734 
-11.54042 -55.68251 14.44116 
-18.88972 -65.31139 -21.32011 
-16.04582 -14.32508 20.48998 
-20.18854 12.97075 -14.89032 
-18.72691 -6.817118 -12.0705 
-12.32768 -57.89629 3.420473 
-15.21058 -7.937956 18.97217 
-12.64532 -42.88895 -0.752942 
-16.31373 12.14994 2.182753 
-19.3426 -18.0628 -34.53766 
-17.52666 -3.584209 -11.47378 
-19.1215 -10.65286 -5.343351 
-20.67772 -14.20548 -12.50523 
-11.55025 -36.12029 15.65768 
-15.34724 3.25482 -13.36205 
-12.8728 -30.5002 -34.59369 
-12.38491 -55.15657 2.716631 
-25.97781 11.9775 -2.977798 
-18.72733 -21.84697 0.5395514 
-12.87138 -29.7498 10.09947 
-12.81055 -29.87487 12.3128 
-11.73643 -66.20797 12.60868 
-12.86326 -33.94183 -7.535747 
-15.35229 6.874752 -19.38508 
-13.08515 -1.836649 19.04173 
-15.73256 -25.20826 13.20528 
-19.12317 -20.45468 5.482544 
-19.44675 -13.23529 12.07606 
-18.97425 -16.34269 -37.1383 
-28.19196 12.20189 12.31522 
-12.85455 -37.42957 -22.14845 
-16.28975 -6.055334 2.642883 
-16.27283 1.435734 6.654117 
-17.72295 -24.52274 8.352353 
-25.54541 11.65088 0.8694874 
-18.13216 -8.000135 -7.417764 
-19.04428 -65.3996 -4.852715 
-15.20493 1.296033 -13.01255 
-18.63894 12.97867 13.85188 
-13.52957 -45.45473 -26.13224 
-12.45249 -37.08941 -34.88112 
-14.14341 -46.6982 -12.09979 
-15.94302 -25.22579 -35.69247 
-17.88302 -24.0752 -0.4836265 
-12.82822 -44.78518 2.292548 
-25.35627 11.99131 -3.844337 
-29.1135 11.91179 -0.3236991 
-15.22572 2.217978 0.1296249 
-13.50907 -59.34608 -11.49916 
-11.07872 -41.27752 17.051 
-15.14298 -26.37413 -3.907652 
-11.47312 -61.65294 14.19297 
-12.53082 -57.90174 -30.37796 
-21.94959 12.05976 -0.09770987 
-18.70988 12.11633 -6.034559 
-12.55826 -51.05279 -21.41318 
-22.47126 12.02896 -7.646075 
-19.18308 13.0673 -30.5164 
-19.48409 -17.61091 11.39558 
-15.8738 18.93225 -37.96529 
-12.83154 -35.08305 -3.112068 
-12.73322 -38.65632 -4.954575 
-19.1963 -11.08751 -28.97354 
-12.60761 -30.66363 -34.85921 
-21.08595 -9.540677 12.16497 
-14.70622 -54.01734 -17.52615 
-8.786987 -56.73595 20.62364 
-15.04939 -4.097342 4.957742 
-12.74266 -43.56108 -20.61805 
-12.51377 -60.53492 2.038491 
-12.53572 -61.47313 -0.5940194 
-13.33305 -32.74774 -2.621517 
-19.50605 -17.70386 -5.318232 
-23.18958 12.0184 -8.311184 
-19.67211 -16.30001 -21.30962 
-12.44707 -61.32525 -26.99158 
-13.32642 1.833364 -37.87728 
-17.25709 -6.784639 -17.71084 
-14.02522 -28.58778 1.721619 
-13.1566 -26.62562 -22.39861 
-30.11117 13.92165 18.1025 
-9.444704 -65.58615 19.08983 
-12.94353 -33.03561 -29.1897 
-18.19591 -17.90431 15.79341 
-11.93688 -36.55979 13.65647 
-12.41443 -61.06393 0.2613526 
-16.48592 1.718704 4.18386 
-15.74879 5.386962 -24.59239 
-15.21683 -65.14353 -11.27901 
-13.13889 -56.49244 -10.84658 
-12.07935 -40.71484 -36.03593 
-15.32339 7.696058 -7.062879 
-10.8414 -53.6171 16.27797 
-18.03373 -24.84063 0.8176041 
-19.26465 -11.4332 -31.83883 
-18.91844 -10.71195 7.485999 
-16.34863 -0.4971811 -25.87416 
-12.86932 -58.71454 -27.03909 
-16.59954 -18.04937 19.74861 
-19.17376 -10.95597 8.921108 
-11.25093 -33.68687 15.97368 
-27.42387 13.10283 -15.9128 
-18.283 13.15878 -14.96215 
-13.98311 -64.43655 -25.57076 
-20.19015 19.29688 -15.17703 
-16.41096 0.7266057 -11.33983 
-15.25089 -21.80806 20.2478 
-16.34858 -65.38282 0.5078048 
-16.62519 12.13045 -8.916601 
-13.01563 -31.54748 -31.26463 
-12.88881 -33.33711 -9.967289 
-12.78993 -38.6943 -27.39565 
-17.39084 -6.943371 3.696655 
-14.8524 -26.45974 6.746815 
-12.91621 -31.85876 -9.620272 
-12.79611 -51.56251 -20.75954 
-13.03334 -42.25351 -14.4713 
-16.50267 -19.95978 19.18844 
-11.84162 -51.4113 12.59382 
-17.75116 -24.52824 -32.13984 
-20.52306 11.97187 -13.3298 
-18.25346 12.12774 -4.979434 
-15.29451 4.60821 -18.08952 
-12.92038 -34.89045 -9.90006 
-22.14824 12.1262 9.069796 
-17.8089 -24.2986 -10.81704 
-16.08949 -25.98747 -7.133538 
-15.21248 1.378716 -15.37487 
-17.93454 14.15576 -22.30043 
-19.22893 -11.22127 7.122487 
-17.75924 -7.40687 -26.76454 
-12.38717 -59.83488 -2.933075 
-18.59392 -65.41349 -1.335747 
-22.89871 12.08368 4.532804 
-18.40707 -23.18699 -19.71779 
-12.01168 -34.48418 12.83123 
-11.37529 -65.87826 13.42066 
-12.6494 -39.12384 12.51379 
-16.34405 -1.488485 -11.73273 
-12.64997 -51.91936 -24.69197 
-19.51574 -18.18196 -19.11971 
-12.43736 -55.24356 -2.515849 
-16.57603 -23.4988 15.74651 
-15.35219 2.498439 -32.76389 
-17.1245 12.24846 8.145531 
-19.15816 -20.44728 -21.29833 
-13.0295 -32.089 -33.39983 
-12.41402 -59.12627 -6.175871 
-12.95691 -28.18648 -4.835209 
-12.92033 -44.49514 10.39896 
-12.73411 -44.07381 -21.32011 
-15.41578 10.72761 -15.40812 
-22.57463 12.03288 -5.895689 
-19.15817 12.11155 -3.803111 
-11.14066 -36.85079 17.31643 
-13.06725 -55.91755 9.956725 
-12.53011 -57.53791 -29.83976 
-15.71829 1.550025 -24.54918 
-20.72636 -14.9066 -12.42064 
-27.42839 11.93119 -8.568937 
-11.70093 -48.65902 19.12273 
-11.60567 -56.49823 14.05663 
-13.7276 -45.14306 -25.77866 
-18.63756 -8.553276 -10.75578 
-12.57311 -50.93075 -27.51484 
-19.63926 -14.15322 -23.64758 
-12.2702 -29.14902 -35.91772 
-19.37132 -18.9312 6.77562 
-13.09304 -38.9119 -9.194551 
-14.29608 -25.82997 -36.57664 
-12.74498 -43.2037 -18.89889 
-13.78563 -41.68772 1.496314 
-18.93887 -21.25742 5.466063 
-13.2535 -4.484414 -37.93717 
-15.39739 5.882355 -31.75425 
-19.22836 16.22619 -19.22836 
-12.77155 -37.57587 0.3586925 
-17.2191 -3.214523 -9.2932 
-17.39912 -7.023998 -2.632899 
-13.8086 -55.30405 -13.3497 
-13.18611 -43.32849 -10.58396 
-18.45852 -23.07164 -16.27886 
-18.69943 -17.11699 13.23475 
-32.40082 11.67702 -11.03389 
-12.02022 -44.65474 -35.1943 
-12.54717 11.14629 -38.06586 
-12.52223 -50.08955 -2.003828 
-12.74038 -42.30652 -31.5535 
-14.5814 -4.919454 12.3995 
-19.23098 16.16788 -20.87678 
-16.82474 12.24013 5.058286 
-12.66717 -41.97372 -4.099782 
-15.42937 11.42763 -18.15592 
-17.27159 11.36776 -30.22492 
-15.87015 -5.887568 11.48098 
-18.97305 -21.16829 9.309026 
-19.453 -12.45063 -31.83921 
-13.10703 -58.9531 -22.54845 
-12.85954 -30.64263 11.49216 
-16.56532 1.959424 -8.23564 
-13.02247 -31.37988 7.990504 
-16.46619 2.542711 -8.792347 
-11.40225 -16.68199 -38.01322 
-12.51498 -53.09598 -8.213813 
-13.01258 -30.29756 3.811322 
-12.97369 -28.39075 -10.69053 
-15.16003 4.878998 11.6519 
-12.74779 14.78783 -38.22413 
-19.81128 18.65309 -30.36726 
-12.80528 -37.80995 -28.07812 
-18.46748 -22.7265 11.90011 
-14.02392 7.093353 15.69879 
-17.57645 -22.65248 13.33258 
-12.72239 -40.3521 -7.819076 
-11.11921 -64.32572 15.97547 
-19.98381 -10.95757 0.8256643 
-13.86731 -2.4646 -37.90002 
-17.8441 12.38637 -29.27189 
-19.63472 -13.86781 -7.902308 
-19.4744 -9.750711 -11.12611 
-12.52892 -48.46198 -2.335886 
-29.84024 11.9739 7.29184 
-19.79041 -15.45447 -3.682871 
-19.77569 12.10806 -0.6018755 
-15.63847 -26.25728 -28.64924 
-12.82798 -39.99565 -24.44343 
-15.32568 -2.279015 -33.15409 
-19.92943 -9.745978 1.262156 
-10.694 -63.29896 16.8834 
-13.70485 -2.395283 17.79739 
-24.54707 12.01099 -0.5947908 
-18.46671 -8.596582 -12.97088 
-16.52373 -64.89523 -26.20829 
-15.26118 -5.573872 -24.30638 
-19.64735 -16.21509 -16.51439 
-14.42953 -0.8709099 14.60874 
-16.63648 -65.25333 -22.42621 
-12.71487 -40.43095 -6.247354 
-15.22545 0.8029454 -20.00506 
-13.78877 -40.19654 -26.11388 
-15.04694 0.03792423 12.15638 
-16.4375 2.564996 -7.355446 
-20.79309 -13.63734 -5.259736 
-17.04207 -6.30076 -24.55306 
-14.68997 -26.52024 -30.50696 
-12.72808 -39.62252 -6.86275 
-18.39653 -23.02019 -7.433341 
-17.16204 12.28364 11.65636 
-15.31179 -65.32249 -5.612054 
-15.38967 8.922227 -18.10234 
-13.23719 -41.85832 -13.26116 
-13.1545 -52.96219 11.21439 
-15.06689 0.3889696 10.79947 
-15.46357 -10.98117 20.59284 
-18.44207 -22.74199 0.6024747 
-20.33152 -16.16693 -12.55985 
-13.88715 -39.32169 -12.02793 
-13.41022 -33.32349 2.631106 
-12.33311 -57.55658 11.81556 
-15.29523 5.755404 -14.10729 
-15.25149 3.459672 -14.0497 
-15.60239 6.134025 0.8875294 
-21.2005 14.64601 -14.92318 
-14.08879 -30.25675 -25.80407 
-13.80182 11.63201 15.85598 
-19.55201 -17.79411 -16.12674 
-19.49713 -17.46462 -0.9320609 
-17.81812 -24.26789 -8.331985 
-16.47083 12.16859 -1.547724 
-15.29681 6.678875 -2.599093 
-12.90925 -34.28437 -22.35803 
-19.39165 -19.34081 -22.38425 
-21.41443 12.13534 7.356806 
-12.80419 -39.17785 -14.89394 
-16.65022 -6.353132 -28.07763 
-19.32957 -19.61497 2.617428 
-15.97175 -10.01525 19.57824 
-19.52868 11.67362 2.025872 
-19.21193 -19.98732 -8.151545 
-18.68915 -22.35426 -29.03939 
-21.11646 -13.38567 -5.393277 
-12.59985 -44.78902 -0.9451555 
-12.4475 -56.69803 -8.538705 
-15.42706 -65.24848 -19.79379 
-19.55423 -22.79956 2.155068 
-13.73483 13.88238 -38.09965 
-16.99627 -22.05063 17.63757 
-12.40777 -62.90049 -26.43311 
-20.73608 11.01124 1.434494 
-10.76891 -60.1713 17.08301 
-16.76856 10.20358 -27.78652 
-28.11918 19.13255 -16.01433 
-10.23482 -64.07075 18.8518 
-12.61423 -44.72375 9.574337 
-17.44987 11.47814 1.071852 
-20.3175 -11.39954 -25.91192 
-19.34418 -11.87925 -27.03627 
-11.90262 -38.30492 13.54683 
-18.62445 -22.50654 -19.1643 
-21.39618 10.91271 -11.44671 
-9.239287 -25.85925 21.14342 
-18.8931 -10.7083 -34.4338 
-13.15983 -57.25691 -19.22478 
-13.00235 -28.80704 -16.33813 
-12.92371 -33.05779 -19.97119 
-28.90014 10.83361 0.9623752 
-13.32783 -47.32243 -3.556978 
-15.54483 3.383936 -13.13253 
-11.29942 -29.71045 17.22614 
-12.48615 -59.94007 -28.25483 
-17.86258 13.2061 -35.1392 
-13.79042 -26.59099 -16.34713 
-18.49072 12.10718 -9.035675 
-13.60503 -65.22899 -15.54629 
-30.74927 11.77675 -18.62705 
-17.09772 -65.29036 -12.89223 
-16.34727 -0.790486 -24.88777 
-13.94766 -7.986702 -37.90827 
-22.39355 12.05501 -1.985881 
-14.68091 8.229115 -35.29102 
-15.27999 3.09578 -22.64201 
-19.63486 -14.92463 -18.04547 
-12.34966 -62.27748 -13.10205 
-17.23019 -7.934559 -37.70792 
-12.59479 -48.17365 -18.00183 
-14.41658 -54.16188 10.64655 
-15.77951 17.76654 -36.01991 
-16.73542 10.09956 -28.08305 
-17.31052 -65.27873 -19.32742 
-11.92778 -37.19802 13.51863 
-12.92485 -27.38087 9.70802 
-15.25333 7.398021 8.27494 
-14.3073 10.77896 -37.97597 
-12.02311 -31.95282 14.70768 
-17.95662 -7.53787 -23.30352 
-13.31462 -26.61636 -17.09659 
-15.2936 1.165227 -29.14815 
-8.73105 -52.88594 20.9531 
-18.29303 12.1174 -6.533272 
-13.7368 -0.6818838 -37.88361 
-11.43501 -62.86901 15.18473 
-19.45766 -18.6346 -18.61032 
-13.63646 -54.78506 -25.90277 
-14.0143 14.35009 -38.11258 
-12.79872 -35.9791 -1.343916 
-18.07768 -8.370901 -34.48573 
-13.97261 -55.10543 -16.94154 
-15.30391 8.652765 4.745858 
-14.51827 -3.45466 14.55642 
-23.43271 12.94788 15.30049 
-11.08186 -41.87664 16.54074 
-20.36618 -14.1754 -5.896871 
-11.32179 -28.90467 17.32116 
-12.61591 -49.07645 -23.14231 
-14.34101 -2.96599 13.04648 
-29.93172 11.95108 5.086535 
-13.0301 -26.82579 -13.53939 
-12.54682 -53.08629 -27.4491 
-12.41984 -60.28931 -20.29569 
-18.36357 -8.600955 6.894564 
-15.41614 -15.05456 -37.79952 
-12.38311 -61.08602 -8.657183 
-15.48996 -64.35924 2.142697 
-28.89062 11.97214 4.502488 
-11.64182 -51.16859 13.39155 
-16.45827 12.17037 -1.400383 
-11.58444 -53.08989 14.69141 
-19.55372 -16.76879 -0.6172817 
-11.30173 -8.666613 21.2121 
-18.19557 -8.179966 -0.1856033 
-19.57306 15.5375 -28.24931 
-12.02566 -43.28476 -35.56697 
-12.62714 -43.75748 5.830553 
-10.39637 -24.5689 -37.85934 
-13.53741 -57.32127 -26.492 
-12.83386 -38.80767 -31.00378 
-17.25791 -15.69993 19.17938 
-18.01146 -25.40011 9.157408 
-17.49202 11.68661 -27.04666 
-12.48429 -59.73427 -27.63317 
-18.81218 12.98149 14.08361 
-15.94817 -16.03183 20.72389 
-12.42297 -58.40846 -5.324335 
-15.38518 9.572643 -13.90333 
-18.71998 -65.38351 -5.392733 
-16.61328 -23.04182 16.15138 
-16.49972 2.025592 2.686011 
-13.00757 -40.23568 0.8453943 
-15.35637 4.092214 -26.15319 
-12.90056 -28.19814 10.87697 
-16.51612 -19.36008 19.50381 
-13.58617 -53.07874 -11.66628 
-15.34417 8.501276 -6.492358 
-18.84825 -65.32513 -19.49643 
-17.20063 -13.83246 -37.78298 
-18.37664 -23.18093 -14.22568 
-12.5899 -47.96262 -16.33143 
-13.23886 -44.29208 -16.7608 
-11.75004 -8.247055 20.25213 
-10.85471 -40.48432 18.39366 
-20.82947 17.51605 -22.56285 
-14.66245 5.825759 -36.96473 
-15.4037 -5.670327 6.417807 
-10.63668 -33.30177 18.44641 
-19.28296 -19.48121 8.133547 
-20.62366 -17.68471 -25.66489 
-12.87996 -33.85922 -2.234592 
-19.77388 -16.01781 -6.208468 
-13.03292 -28.52995 -23.96325 
-14.05037 -65.30984 2.73375 
-16.21325 -7.903686 16.98794 
-12.82994 -38.89493 -23.27556 
-12.36832 -62.05254 -20.05401 
-16.24821 1.697077 7.056156 
-17.16003 -6.703315 -33.37299 
-17.59116 -11.15563 16.41356 
-10.65431 -36.05194 18.9115 
-12.65345 -45.31462 7.168001 
-13.63642 -53.01276 -19.21724 
-12.54882 -59.53042 -16.46729 
-18.75577 -9.390198 -20.60027 
-17.01845 -23.84678 14.30487 
-12.9295 -27.26328 8.910458 
-10.23874 -40.33837 -37.72543 
-14.63908 12.29026 12.28027 
-18.10903 13.90848 17.9262 
-16.70283 1.073976 -7.963436 
-13.64666 -46.39297 6.460529 
-13.76469 9.599957 16.65965 
-19.01363 -21.12095 -27.95822 
-15.29989 1.29756 -29.79588 
-11.54716 -15.92522 -37.96426 
-12.92068 -46.70913 -16.82604 
-18.55375 -65.42279 7.279262 
-12.00986 -30.36398 15.5984 
-16.33511 -25.92314 -31.48261 
-19.20332 -65.39384 2.976575 
-19.58814 -17.7811 -31.60036 
-12.3441 -61.36076 -1.667996 
-15.40862 -25.50598 -35.84074 
-12.80567 -43.87512 -33.31754 
-17.74801 -25.61768 -13.02329 
-14.3698 -0.2595202 12.54489 
-12.93685 -27.67674 7.500528 
-19.25801 -19.76649 4.02883 
-13.97778 -31.30199 1.661323 
-10.58859 -35.8972 19.03168 
-17.84007 13.55153 -19.03293 
-8.974764 -59.90331 20.2617 
-13.3596 -53.0035 11.09027 
-17.18355 -25.0539 -0.2542478 
-12.85494 -48.40602 -13.90555 
-19.46228 -18.59679 -17.06679 
-13.15403 5.795492 19.32581 
-12.63672 -41.86405 9.633127 
-18.58217 -9.148466 -3.780789 
-13.09549 7.196458 -37.96267 
-9.403436 -27.52227 20.59242 
-17.46975 11.36441 1.039691 
-19.28391 -19.77687 -27.04064 
-13.49858 -50.48096 10.25074 
-17.76469 -24.61185 -33.48403 
-24.02967 11.90468 -13.33774 
-12.61537 -44.15698 7.166418 
-13.7547 12.94067 17.74479 
-19.3739 -12.07349 -29.13739 
-19.37541 -12.85143 7.678393 
-12.08925 -27.40991 14.9571 
-12.32119 -28.29935 -37.12928 
-12.33769 -63.94524 -18.92587 
-18.61537 -11.57818 -37.51644 
-25.36029 10.91135 1.73682 
-16.20827 -6.020469 -20.15079 
-15.38654 11.14488 -0.6096752 
-17.1529 -6.742136 -0.6843861 
-13.47185 -56.41092 -22.18742 
-15.32941 6.103025 -4.875032 
-12.62023 -65.03172 2.104457 
-12.04883 -42.79502 -36.32095 
-29.69257 11.27234 -12.61925 
-13.43056 -29.50382 -11.20629 
-12.8648 -35.05666 -6.682567 
-12.39383 -63.36249 -26.66467 
-12.25965 -59.08992 11.9867 
-12.17529 -27.00913 14.50111 
-19.67748 -14.72964 -23.97028 
-16.85973 -25.40671 -3.337569 
-13.68728 -65.04191 -25.05897 
-12.69263 -41.04796 3.561102 
-15.07478 -64.25287 1.470256 
-15.80825 -5.846763 10.29695 
-8.852911 -45.52832 20.99861 
-19.69713 -19.01809 2.366433 
-15.33437 10.40881 8.833481 
-12.07289 -26.96114 15.61122 
-12.78747 -36.77039 0.5782378 
-13.82995 -45.13811 -12.74059 
-27.63728 11.9409 -3.285027 
-19.64017 -15.9206 -19.25072 
-23.82829 10.8453 -11.87169 
-13.66581 -57.63479 -25.59109 
-16.66655 -16.76589 -37.80286 
-14.63407 12.98095 13.88305 
-19.63268 -14.03165 -23.92822 
-17.21354 -6.761452 -31.14768 
-17.32626 12.12583 -7.145494 
-12.3489 -56.99 3.336484 
-20.92215 12.13089 4.753702 
-15.78168 17.95978 -38.09819 
-15.28379 4.975812 -14.94347 
-13.09948 -26.84238 -30.30073 
-16.46764 -26.96986 1.328307 
-13.08079 -33.96302 3.506336 
-15.33069 7.265402 -15.99162 
-11.88202 7.435183 -38.07731 
-17.87249 14.35912 -26.173 
-14.71835 -6.423975 -37.23666 
-13.44737 12.73537 18.0681 
-12.94127 -39.29481 -16.59453 
-15.96792 12.17844 -3.725456 
-19.59832 -17.17364 -26.25544 
-12.44004 -56.12943 -4.179945 
-10.54302 -60.62563 18.74652 
-12.87338 -33.48065 -6.756186 
-20.10122 -14.82369 2.828694 
-12.25886 -59.94183 8.001837 
-11.71288 -19.50684 -37.892 
-19.4385 -12.50588 -28.35861 
-19.57872 -15.78173 4.394355 
-28.98825 11.75999 -14.45439 
-16.47458 -5.047229 -25.73234 
-16.08941 4.066444 -6.491508 
-13.01358 -38.55886 -12.66099 
-15.17842 -4.077669 -30.1564 
-18.31956 -8.333094 -27.0227 
-15.19526 2.433887 -0.3745502 
-15.35761 9.145815 -4.853706 
-11.36204 -41.9575 -37.48145 
-17.63101 -19.44666 17.4087 
-15.24609 2.779285 -17.73819 
-14.35348 -0.7501817 14.26252 
-18.59989 -65.38795 -3.786366 
-26.3829 14.46052 -15.67145 
-30.66011 11.88538 -5.787462 
-13.54571 -61.68935 -12.33806 
-14.5647 -3.529793 14.57947 
-15.17363 1.932827 -1.00456 
-13.85713 -46.98629 -12.45437 
-13.24774 -54.85276 -22.65962 
-13.57525 -64.9133 -6.823976 
-11.44728 -63.39227 13.37387 
-21.19979 12.06405 -5.670367 
-13.78721 -42.16964 2.094841 
-12.905 -32.61743 -10.44625 
-12.84146 -38.21585 -24.00049 
-28.56136 13.02053 15.68906 
-12.72632 -47.03644 4.262983 
-15.1927 0.1432682 -16.41791 
-15.47719 12.053 -17.82267 
-17.8126 -24.34816 -14.33388 
-13.31788 -65.21326 -16.67158 
-28.36378 11.92716 -2.808626 
-15.60549 2.324002 -1.771898 
-19.17745 -10.99727 -28.56041 
-18.81958 -21.7656 -15.36945 
-12.3647 -62.00077 -17.85501 
-10.28189 -64.66434 18.82746 
-25.82736 10.90917 -12.60449 
-14.32791 13.5658 -38.07842 
-12.06962 -29.4936 14.02283 
-14.31085 -66.27528 15.09356 
-16.44548 -6.151012 12.34686 
-24.279 12.04373 2.873923 
-20.6992 -10.16603 10.21644 
-8.71805 -57.78496 20.73632 
-14.39673 -4.870957 -37.32909 
-16.53601 9.654115 -25.93152 
-12.16692 -65.08099 7.871758 
-15.69525 -65.42592 9.141882 
-22.76697 12.04125 -4.157423 
-18.48511 -9.820882 14.21613 
-14.36479 0.7093401 15.14586 
-17.40031 -24.91533 -15.06315 
-20.35105 -11.59546 -11.32051 
-12.67876 -41.06253 -2.309319 
-12.81487 -36.02749 6.134084 
-13.59588 -38.48422 -25.42637 
-12.38546 -62.21352 -24.03216 
-12.56719 -51.6521 -27.86112 
-12.59737 -50.01398 -29.8663 
-11.94977 -36.71053 12.76693 
-29.29172 12.81459 13.15499 
-14.00206 -30.04068 1.069947 
-18.07876 -7.36987 -5.608614 
-12.61968 -64.94553 -8.375307 
-14.02022 -28.23205 1.236574 
-15.64816 -65.37531 5.893826 
-14.69858 7.524923 -37.32861 
-14.0593 -55.61928 -19.51287 
-19.37987 -12.47862 -16.7316 
-12.6504 -42.80359 -34.55634 
-15.57518 7.61607 -33.13078 
-17.32663 -12.84497 19.04902 
-12.4353 -57.56015 -3.84205 
-18.83147 -21.9481 11.41711 
-15.13833 -3.143878 -16.84593 
-17.28935 -23.35394 13.46915 
-16.10382 9.264538 -24.63374 
-15.02429 -65.27196 -0.2866403 
-29.98626 13.73224 17.937 
-16.15936 8.469724 -28.72761 
-19.89223 -16.22918 -26.59824 
-19.61667 -15.20098 -7.944779 
-12.88008 -35.62583 -19.67407 
-17.75676 -11.87407 18.95456 
-12.56056 -52.48329 -29.21713 
-9.555485 -30.30561 20.29449 
-17.86163 -7.471802 -16.93073 
-19.78648 -9.181072 -12.49097 
-12.44233 -55.6328 -4.162271 
-13.39713 -8.582542 -37.91927 
-13.34984 1.220364 18.68887 
-18.40506 11.66369 1.965837 
-9.509685 -28.19702 20.41314 
-19.29309 -23.84452 -25.30074 
-25.6541 11.98958 -0.4949384 
-10.53254 -37.23541 18.47388 
-20.22691 16.84464 -28.05099 
-13.05674 -29.3615 -31.43167 
-16.04962 -64.59172 -11.28379 
-12.91424 -33.34316 -15.40081 
-27.38803 12.0322 8.895294 
-12.2652 -61.53415 3.691842 
-18.53258 11.16868 0.9546629 
-19.68526 -15.09055 6.815752 
-19.36533 -18.86105 10.68702 
-13.0039 -56.54688 8.043553 
-19.25348 -11.45216 -22.87252 
-17.19036 11.94316 -33.39085 
-12.72531 -45.69584 -32.92333 
-16.45524 -2.43052 -4.755917 
-12.31556 -53.98168 12.83182 
-18.67094 -17.05019 15.58623 
-11.67662 -49.00911 15.73652 
-9.273775 -24.44419 20.99782 
-13.17292 -65.21548 -14.41349 
-27.83525 12.03209 11.14832 
-13.02358 -29.84976 -31.16793 
-16.87832 11.01115 -26.40403 
-13.71022 -28.72472 -0.4889004 
-18.4173 -8.224182 0.8607444 
-18.99926 -20.99672 -8.355847 
-16.0295 -26.04383 -27.13747 
-13.54393 -56.05975 1.734488 
-12.60282 -49.21078 -27.82154 
-25.77076 11.06763 -11.20232 
-18.35492 -25.33211 1.422285 
-15.3656 2.457678 -31.19942 
-16.25779 10.39815 -11.19115 
-13.24427 -51.93775 11.02039 
-28.85568 11.96008 3.952806 
-14.1726 -55.11999 -17.55732 
-12.48534 -61.77478 -2.277862 
-10.3291 -34.62879 19.16136 
-12.5386 -35.27464 -34.87076 
-13.48082 -43.01327 -13.33913 
-18.63082 -22.40216 11.3743 
-12.65385 -46.53709 -27.54703 
-16.54348 9.845151 -30.37422 
-17.14003 -5.576186 0.6553206 
-22.15096 11.77851 -12.64133 
-18.42518 -7.80119 -24.54801 
-15.25662 -2.677153 3.747152 
-27.70242 12.00194 5.106841 
-13.746 -46.9439 -13.84478 
-12.03154 -60.40163 12.26081 
-17.26246 -6.803346 2.787037 
-17.29091 -25.85275 9.801638 
-18.39803 14.86643 19.18097 
-12.39807 -59.68578 -5.487464 
-14.43246 -26.5231 -4.279532 
-13.45291 -52.06975 -19.50524 
-18.99264 -9.975893 -22.66731 
-12.68814 -46.10172 -18.13441 
-14.40695 18.93879 -38.19153 
-14.39694 0.8714021 14.58646 
-21.6279 12.17468 11.29805 
-12.69691 -32.70718 12.30266 
-16.18832 1.402685 6.858555 
-12.35436 -62.33875 -14.88913 
-12.98562 -32.97253 -32.7295 
-14.20621 -65.45161 10.51052 
-28.57595 10.86155 2.153537 
-16.88606 -15.54812 19.45851 
-13.63297 -37.70004 -12.60975 
-15.17943 5.417134 10.95111 
-21.56858 12.05087 -6.812607 
-13.61695 14.99013 -38.13675 
-18.89126 12.01728 -13.03915 
-13.0774 -11.29674 -37.93867 
-24.32938 11.10449 -11.20921 
-28.05586 12.02357 8.562619 
-17.99184 -7.668639 -13.70136 
-12.67489 -44.73005 -27.10697 
-15.00743 -26.43569 5.013227 
-18.0306 -24.04323 -22.24821 
-18.21544 -7.936099 -24.40393 
-18.47424 15.26618 -22.56641 
-19.21266 -11.20029 -27.16285 
-10.34925 -43.03917 -37.5154 
-15.4589 -1.501463 -33.32061 
-16.62933 -7.268592 13.63372 
-8.695339 -54.12922 20.99683 
-9.742509 -43.2897 19.71878 
-13.39746 -38.13826 -9.042704 
-16.19352 2.349193 -6.852508 
-13.60933 -29.48146 -0.7345001 
-16.205 -7.896457 16.58515 
-20.16905 -13.10748 -6.530903 
-12.69547 -26.88149 -34.81614 
-18.99475 -10.89039 5.010432 
-13.4809 -60.64109 -24.56214 
-12.61065 -47.58979 -20.40946 
-16.65844 -17.66616 19.72976 
-18.94911 -21.37004 -22.88595 
-14.31503 -2.188628 15.22694 
-13.17525 -40.81162 -11.31006 
-16.12831 -65.39469 7.416078 
-13.13445 3.036657 -37.8914 
-13.54523 -4.465326 16.0753 
-13.16887 -64.8076 -6.829038 
-16.44591 0.5355889 2.59391 
-15.29148 -1.378304 0.8220859 
-12.89339 -62.98893 -3.648556 
-12.58333 -51.37637 -30.27779 
-15.32738 7.869046 -3.552 
-19.36948 -18.64015 -1.031452 
-12.40438 -59.47301 -6.032606 
-13.21557 -30.20245 -12.64086 
-12.43878 -55.72318 -3.670234 
-18.375 -8.557028 -7.20802 
-12.86633 -29.8232 10.11938 
-19.77439 -14.95388 -3.151207 
-12.25554 -60.11605 8.549085 
-19.04152 -10.625 0.8341686 
-15.67541 -27.33332 1.694343 
-12.87101 -33.29395 -6.493799 
-27.93323 11.98311 3.558801 
-13.50768 -58.10498 -13.93538 
-15.37337 9.601096 -6.938752 
-19.76808 -10.69078 9.699058 
-12.99507 -56.6452 9.443628 
-13.00432 -43.79073 -16.76369 
-18.69888 -22.88476 -26.04354 
-18.93529 -21.33034 3.274549 
-15.71381 -26.22592 -30.30486 
-18.37429 -8.930382 -34.42219 
-12.02572 -31.73646 14.15081 
-15.92827 3.331058 -26.07657 
-12.35995 -62.22756 -17.59586 
-13.24213 -64.73364 -12.74085 
-13.95058 -50.40341 -17.5248 
-12.7967 -44.55344 -33.87011 
-15.29147 5.522712 -14.59052 
-16.22408 -25.93731 -27.39265 
-15.62524 -66.25497 14.87836 
-14.52302 7.395247 13.33934 
-12.97725 -27.21605 2.963883 
-11.90997 3.838283 -37.93689 
-16.0022 12.08415 -18.71814 
-15.31221 6.610443 -13.9155 
-12.99623 -27.12431 -6.134148 
-12.55789 -49.94757 11.53835 
-19.6539 -16.94065 -31.8783 
-11.02584 -49.78754 19.2222 
-15.26862 3.256758 -20.09552 
-12.67292 -39.48494 11.07654 
-20.81662 11.22362 2.046001 
-16.5906 6.640011 3.767375 
-15.41547 11.60826 -6.098119 
-15.35665 -1.355411 -33.17527 
-18.40438 -8.623211 -6.324479 
-16.67031 -25.59525 -13.07657 
-12.45848 1.979703 -37.92876 
-20.55369 13.70429 16.27825 
-12.33397 -62.19519 -4.946099 
-12.25145 -60.94402 6.458694 
-13.5989 -44.87938 -15.44567 
-18.34808 -23.27543 -27.62131 
-18.12762 -17.50643 15.79366 
-19.69366 -16.28876 -33.56122 
-13.03032 -29.98345 2.277476 
-18.22097 18.9428 -17.2737 
-11.6048 -52.82306 13.32569 
-18.58588 -8.879704 -31.82776 
-15.69174 -64.17539 -11.9198 
-26.63099 11.96768 -3.411482 
-12.81751 -43.86541 -5.887493 
-17.82414 -4.867095 -10.87182 
-24.34792 12.05597 5.374403 
-19.46285 -18.90284 -23.96796 
-15.39348 9.972112 -9.285499 
-12.71767 -58.62463 2.13761 
-19.78951 -21.94859 1.294179 
-16.70853 3.389954 2.419939 
-15.48007 -14.29474 -37.8133 
-12.52954 -52.01504 -8.052208 
-13.25278 -27.56664 -3.908967 
-19.83363 -13.31151 -7.330394 
-28.49835 11.92933 -0.7631876 
-10.85946 -52.22003 18.17558 
-8.995886 -62.52202 20.05414 
-27.12663 11.85677 2.233587 
-13.59533 -53.84457 8.681109 
-10.18264 -32.83584 19.2214 
-17.2233 -24.99996 -34.41537 
-13.87915 -51.73082 -17.71089 
-15.16372 -4.499157 -28.75364 
-15.29412 0.3607905 -31.4248 
-12.72752 -42.52516 -10.36056 
-14.2931 -4.174934 12.6489 
-15.22688 0.9311455 -20.17511 
-19.1043 -22.89223 -24.51922 
-16.60153 -65.39017 -0.04108534 
-29.86946 11.89309 -1.030832 
-15.15189 0.2663781 0.5271396 
-21.93671 18.52964 -15.00567 
-9.900084 -40.3702 -37.82827 
-13.41383 -57.54679 -27.59741 
-20.22342 16.84743 -26.3931 
-12.93616 -39.70503 -11.15776 
-18.6974 12.11295 0.4213585 
-11.60491 -57.30851 13.94614 
-10.45219 -33.05444 19.12298 
-9.282785 -35.88736 20.58456 
-12.51116 -47.06057 10.89687 
-21.99648 12.09923 2.389975 
-13.74968 8.822773 17.17523 
-16.21026 -6.039732 6.165059 
-12.97175 -34.42284 -33.95038 
-18.83818 12.1307 -1.431486 
-12.92661 -34.89676 -32.9475 
-10.44699 -28.92904 -37.87381 
-21.18467 12.13782 6.627198 
-13.5301 -54.99348 -20.96662 
-17.84282 -18.18077 17.48117 
-12.75833 -37.40157 -3.64181 
-15.44997 7.60066 -12.63277 
-12.7544 -42.19722 -18.53185 
-12.67397 -40.69017 8.111578 
-15.29622 8.83519 7.895551 
-12.71295 -37.72984 10.47047 
-15.61432 -21.22312 -37.83969 
-12.64735 -48.71524 -20.39408 
-12.71069 -44.04066 -30.71062 
-15.01749 -3.45032 10.01859 
-20.19592 -9.736242 12.57993 
-18.84909 12.23616 11.25476 
-18.60222 -22.6135 -30.46341 
-15.62849 5.065934 -2.015715 
-19.83241 -9.200372 -11.8933 
-12.76301 -35.63036 9.036591 
-18.57809 -8.943872 2.578224 
-15.94598 -26.37419 -24.56867 
-13.44752 -54.771 -26.95901 
-14.50927 6.489463 14.07319 
-15.33896 7.408852 -16.58081 
-12.54239 -65.30182 3.432759 
-19.73506 -14.36057 -24.50054 
-13.88062 -37.96352 1.623896 
-11.58495 6.528247 -38.12677 
-12.55711 -51.38562 -9.965945 
-19.01958 -20.90744 7.741283 
-12.84268 -37.99858 -20.78278 
-18.01229 14.09085 -27.99428 
-12.64422 -47.96591 -30.1534 
-19.97117 12.07391 -8.824514 
-12.92734 -29.29366 4.434668 
-19.23101 15.59295 -23.94701 
-27.45606 11.94281 -4.970089 
-12.84692 -36.73861 -29.57275 
-8.928848 -55.82168 20.46584 
-18.9068 -7.526752 -12.52772 
-13.63588 -46.85566 -9.673343 
-14.45252 -65.229 -18.04652 
-12.61657 -9.248706 -37.92839 
-13.89466 -43.67859 -11.33003 
-10.78223 -45.81087 18.82211 
-12.72813 -39.2472 -4.915017 
-12.03386 -32.33562 12.9379 
-20.19876 -15.33275 0.8570125 
-17.10433 12.24536 9.221869 
-13.00029 -33.25766 -32.68871 
-16.44028 -65.29074 -13.36981 
-12.32661 -58.31702 3.045449 
-12.34175 -63.09872 -14.92664 
-12.80491 -37.82455 -26.36472 
-15.2408 0.3907188 -24.34436 
-15.37959 10.9121 -1.212832 
-19.66252 -16.55094 -31.51468 
-17.6099 -8.179968 15.62877 
-15.43748 11.58971 -18.08045 
-20.1729 17.75283 -29.40147 
-13.51346 -58.32227 -13.8813 
-13.26739 -24.45498 -37.76594 
-18.72656 -21.83845 -0.4436561 
-21.40878 11.93579 -13.7882 
-20.9029 17.7218 -26.20418 
-12.01566 13.20789 -38.22211 
-15.08124 -26.45604 -30.22035 
-12.83719 -37.02024 -13.10624 
-15.23573 -1.6653 -29.92258 
-15.38997 5.000967 0.8064991 
-12.65979 -41.73315 6.620671 
-12.77841 -36.16594 5.681498 
-16.84426 -6.345376 -14.65473 
-15.07026 1.239322 9.897689 
-21.91923 16.80676 -15.01288 
-8.783127 -47.77432 21.15659 
-17.5079 -20.07642 16.14627 
-15.12948 -4.615779 -20.06271 
-12.04713 -7.553245 19.94109 
-20.09435 -64.58336 1.148513 
-12.16255 -25.04247 16.97408 
-15.14935 -2.163463 -16.36665 
-12.99097 -46.28989 -26.13259 
-12.894 -28.22422 10.10545 
-15.9018 8.204807 -26.64935 
-12.80418 -33.10675 12.01935 
-10.95998 -50.35611 18.14979 
-15.38063 5.69548 -30.58861 
-10.76729 -51.89374 18.96762 
-11.12136 -34.84409 -37.56599 
-12.35456 -62.68284 -13.97308 
-12.95653 -28.3643 -5.541017 
-12.37333 -41.43899 14.8829 
-17.78236 -9.271593 -37.76038 
-21.32951 12.18237 11.39017 
-19.59362 -15.38792 -34.24446 
-20.52061 11.04221 0.8333141 
-25.96026 12.4157 -15.52353 
-18.65164 -9.016539 -23.82223 
-28.42129 11.83274 -13.57285 
-12.56102 -49.96382 -5.206175 
-15.21808 1.729517 -12.91198 
-16.55962 -65.38998 7.246079 
-19.31716 -23.87552 -11.46741 
-10.6134 -63.55074 17.80109 
-17.00875 -66.48214 15.59882 
-12.53793 -51.96497 -8.92354 
-11.42634 -66.19377 14.24152 
-11.52262 1.144834 20.88447 
-12.9671 -59.80948 1.95919 
-18.64739 14.33101 -28.06907 
-12.81732 -26.63205 13.21764 
-17.791 -25.07998 -26.05758 
-17.93716 -24.07409 6.134527 
-15.26639 -0.5037947 -30.54423 
-19.53681 -13.64405 -16.64304 
-18.35319 -20.54691 12.39474 
-12.96754 -30.6664 7.104116 
-13.36452 -37.80889 -9.232403 
-28.45071 11.10456 -11.20844 
-29.8356 11.9805 8.978394 
-18.79602 -21.90914 -20.48562 
-12.99992 -30.45708 -24.30191 
-11.7005 -48.03327 15.70431 
-16.90251 -14.00679 19.1937 
-16.4209 1.0714 3.684324 
-14.13871 -30.82434 0.5843562 
-18.05095 -23.9738 -18.0207 
-19.91861 -14.16867 -7.118524 
-12.59991 -53.36459 6.724648 
-13.69341 -54.55113 -12.38306 
-31.65813 11.88543 -18.7401 
-19.89196 -8.238903 10.61533 
-17.69156 -6.743929 -24.55618 
-12.86086 -40.37453 -33.63013 
-18.03785 -7.584781 9.682001 
-10.24684 -62.92948 18.88127 
-19.22381 -11.74127 -34.04111 
-13.53535 -63.21261 -25.96044 
-19.14759 -20.34193 -6.663987 
-16.33929 -6.113423 -33.55232 
-10.60533 -62.69928 18.64054 
-18.20901 -7.342384 12.32069 
-12.37951 -60.43093 0.5756947 
-19.38753 -12.65617 -1.264364 
-13.95915 3.993298 15.69563 
-19.15903 -65.38667 -9.960463 
-12.44515 -54.5962 0.004471621 
-10.99909 -35.07545 -37.5807 
-11.2076 -24.42767 -37.80725 
-15.84979 1.179699 -3.040063 
-12.42354 -66.16158 12.15097 
-14.15292 -64.97277 -5.501232 
-13.18795 -57.64053 -20.7648 
-17.81882 -12.26603 16.63435 
-12.93202 -40.36584 -24.69354 
-18.26951 14.16595 -32.91985 
-12.71071 -43.72579 -29.95426 
-17.49113 -8.254269 -36.15822 
-13.32328 -58.96936 -26.16881 
-15.30186 -65.25325 -18.18164 
-18.62928 -7.055154 -12.52028 
-15.60695 4.639557 0.8669831 
-11.03976 -55.43331 18.69662 
-13.09772 -57.98418 0.8971915 
-11.11287 -36.13044 17.67654 
-25.64581 14.87583 -15.555 
-19.54349 -14.99181 11.34706 
-14.59266 13.80647 17.26184 
-12.75797 -37.85896 0.03073473 
-19.38475 16.39319 -26.87716 
-11.89641 -36.95776 15.22205 
-12.60015 -49.51646 -30.11519 
-20.67089 12.3798 -14.85285 
-18.98359 -15.98708 -37.1556 
-13.62966 -54.64913 -26.10386 
-15.18254 -0.331651 -14.9774 
-19.35369 -12.27566 -17.37663 
-18.49777 -6.715362 2.335264 
-13.32521 -53.03506 -20.05655 
-18.1868 -20.5692 13.08895 
-14.11537 -25.72421 13.86751 
-12.25977 -59.61649 8.164275 
-12.49032 -64.5507 -26.27053 
-14.37529 -26.58491 -11.11107 
-14.21877 -17.46864 -37.85499 
-12.04477 -29.34508 14.91354 
-29.98229 11.9303 3.502152 
-20.71477 12.06946 -5.717587 
-19.39101 -18.6282 -3.897935 
-15.54451 -27.17178 0.387582 
-15.36625 -9.732316 20.18569 
-13.97505 -35.18278 -11.85548 
-27.94318 11.98893 4.701605 
-12.91827 -29.58384 4.194549 
-29.19488 12.83966 14.12927 
-12.93538 -29.84999 -6.881474 
-13.46655 -55.79488 -22.20924 
-12.4491 -54.87456 -4.929779 
-15.75216 -25.34346 -36.98616 
-18.09675 -65.30191 -17.30618 
-12.87306 -57.97444 -15.15766 
-15.30656 0.2086408 -32.75059 
-15.68116 -65.23473 -21.91077 
-12.91217 -50.29045 11.0556 
-20.60707 -13.56097 -11.09392 
-27.03786 15.86403 -15.79771 
-11.50734 -60.17216 12.87159 
-12.77637 -36.6862 -1.981228 
-12.8934 -32.13475 -7.044351 
-13.08268 -28.44161 -31.82082 
-12.94638 -35.00175 -33.14858 
-14.9183 -24.86759 15.72487 
-19.0057 -10.59834 -3.744697 
-16.22891 0.1729366 -5.420164 
-14.9852 -5.327764 7.552565 
-14.03138 -28.76394 0.2915685 
-14.43942 -4.412299 15.02989 
-13.6848 -56.17791 -25.58155 
-15.37112 5.649121 -29.74532 
-18.63872 -19.74677 -35.15553 
-11.39373 -25.61767 19.03716 
-14.12588 -28.636 -12.50156 
-13.44161 -26.58915 -8.988649 
-13.00123 -58.11622 -11.24429 
-17.93127 14.49247 -18.25489 
-12.60777 -65.17637 -23.34654 
-12.78588 -12.58106 -37.91212 
-12.61531 -44.10991 7.439136 
-15.37632 11.54202 6.37812 
-12.33135 -57.63953 3.678706 
-12.43903 -58.16913 -9.365493 
-12.25821 -59.47861 8.652858 
-13.47999 10.699 -38.02325 
-15.4528 -1.787077 -1.890104 
-21.26773 14.57739 18.96849 
-12.84674 -65.19075 -17.68355 
-14.45944 8.334455 15.73353 
-17.16701 12.05959 -16.06214 
-14.64868 -6.261827 14.31686 
-19.77611 -13.52401 -2.602088 
-11.54142 -57.72299 15.29472 
-26.81923 11.95298 -8.49999 
-19.27648 -19.60167 -7.80644 
-9.840005 -42.16974 19.60199 
-18.77677 -7.949861 12.42643 
-12.78995 -63.07826 -24.50994 
-15.59035 0.5764362 7.311971 
-19.26081 -11.73869 -16.03686 
-11.98612 -39.64191 14.98075 
-15.14561 -3.285794 3.52022 
-15.51632 1.612796 -1.34819 
-16.00441 -5.90473 -17.01506 
-11.27309 -57.81003 15.59247 
-14.77811 11.81636 -36.12491 
-19.09196 -10.57488 -31.127 
-17.52943 -5.647729 1.80208 
-18.50359 -23.02676 -32.65393 
-19.57284 -16.65562 -6.447885 
-12.24264 -60.39069 10.31808 
-16.02387 -25.57098 12.3752 
-13.4546 -43.42103 -14.96262 
-18.08301 -23.72439 12.13624 
-19.54723 -17.80929 -14.19571 
-16.50632 5.015179 -11.41341 
-12.85186 -37.39377 -20.27958 
-12.86977 -30.15839 8.789204 
-12.73008 -37.6876 8.226042 
-17.80611 13.75755 -26.88655 
-28.95811 13.85852 18.01447 
-13.52596 -55.41983 10.89411 
-16.89925 -6.548717 -1.093055 
-18.70332 -19.62775 -36.50355 
-15.97352 4.718738 -24.60248 
-13.82143 -25.00462 16.29041 
-18.58172 -20.30941 -36.77606 
-15.13977 2.557523 11.78591 
-18.43733 -8.483509 -18.13476 
-15.40914 -2.364399 -26.04397 
-18.6413 13.64147 -14.82867 
-12.44576 -54.78547 0.5172585 
-14.87068 -26.44358 -5.333706 
-14.61042 12.17176 12.66023 
-13.95869 -35.02924 -11.32394 
-18.24337 14.95447 19.38758 
-12.93304 -1.690013 19.11899 
-15.34592 6.799184 -19.0047 
-18.0097 16.70561 -35.35308 
-12.37094 -53.92993 6.145288 
-12.67256 -41.08356 6.569493 
-14.62582 4.579096 -36.07107 
-22.76123 12.1311 -15.04583 
-11.58156 -53.41614 15.55592 
-18.75589 -65.14349 1.092481 
-17.30823 12.99401 13.57341 
-18.51229 -8.61652 -23.47339 
-19.58587 -14.55366 -0.05932868 
-13.61642 -51.01656 -15.50622 
-15.27039 -0.2405612 -30.04429 
-16.1365 -6.007993 11.82142 
-12.87781 -32.63581 -3.819911 
-12.45437 -51.13246 4.871444 
-15.22022 0.9478742 -18.07996 
-19.60591 -15.34125 -0.9399558 
-10.67016 -31.0769 19.07601 
-19.96661 -21.32161 1.970487 
-16.34727 3.375095 -12.48223 
-10.89988 -23.7639 19.46037 
-29.35341 11.85476 -11.09761 
-12.98688 -30.38655 -23.36252 
-19.20269 -19.96873 8.032619 
-14.13856 -51.17895 9.974749 
-12.56895 -53.3041 -32.0273 
-18.27742 12.19773 4.44625 
-20.70617 12.94159 12.57716 
-17.66642 -26.03468 -11.08023 
-12.68422 -50.37333 -20.00794 
-17.9964 -11.86816 15.80717 
-18.72907 -12.46383 -37.6517 
-15.90487 -65.35631 3.766912 
-12.72818 -39.65608 -7.167079 
-30.22588 11.88006 -4.322444 
-14.24081 -6.011959 12.79418 
-10.61989 -49.47433 19.59541 
-12.56073 -52.28976 -24.18428 
-11.29275 -4.550706 -37.96075 
-23.48481 19.35598 -15.14808 
-12.63027 -4.10473 19.09721 
-12.67212 -41.3136 -3.749964 
-15.0745 3.534754 -34.65035 
-16.21574 -1.063533 -4.729529 
-12.69016 -46.89277 -28.72409 
-14.48218 -0.6473991 -36.15345 
-12.22167 -47.45683 -34.92427 
-9.352384 -33.48323 20.49263 
-17.73583 12.69629 -27.53646 
-31.07252 12.46336 -15.82372 
-15.19024 -1.844922 -23.31618 
-19.1986 -10.90856 -5.224525 
-15.30689 6.101763 -16.1879 
-15.21619 0.807861 -18.19494 
-17.88094 -21.68707 14.86263 
-18.06978 -23.9296 -16.56521 
-11.73167 -45.86229 15.26855 
-15.25952 1.583749 -23.33359 
-13.63025 8.484386 -37.95839 
-14.18535 -30.73764 -0.2511325 
-16.1114 -24.96831 12.45305 
-19.57141 -16.23737 4.578966 
-20.35095 -19.56231 -12.60226 
-13.58251 -56.19396 -17.14765 
-14.02534 -7.044623 17.93353 
-16.61889 10.14445 -27.06303 
-17.71701 -4.474164 -7.891812 
-12.7007 -40.03537 -1.113337 
-14.73281 10.22869 -36.1176 
-16.11261 4.008721 -6.699845 
-12.92044 -37.4892 -6.859287 
-15.36825 -65.21278 -24.54221 
-12.56813 3.871379 19.29509 
-14.72093 7.732865 12.30822 
-19.65504 -11.62807 9.905772 
-11.73678 -50.8417 12.45687 
-13.39838 14.27194 18.72584 
-12.54698 -53.00637 -29.188 
-15.67419 -2.237458 3.22056 
-12.66406 -51.68418 -22.10778 
-16.41555 -6.086736 -33.11849 
-19.82295 16.08536 -30.01025 
-12.73058 -44.22232 -21.63164 
-17.91721 -25.10331 -24.52102 
-17.01874 2.945645 5.208103 
-20.79646 13.5415 -14.98591 
-13.16601 -57.3065 -15.06669 
-10.07243 -65.45652 18.52366 
-20.13561 18.63103 -28.76121 
-9.571863 -63.42921 19.05418 
-12.82576 -38.84981 -24.05309 
-12.55862 -53.46874 -32.10994 
-19.23714 16.27603 -22.14342 
-22.87583 12.9066 12.43368 
-13.75107 8.602161 17.03034 
-12.27545 -58.3082 11.97016 
-12.71428 -38.78899 -34.61583 
-18.80414 -22.29455 9.374389 
-18.77484 -14.72903 15.59608 
-18.49208 -22.88962 -28.23961 
-12.47118 6.400132 -37.9818 
-25.89992 11.96921 -6.52818 
-18.82719 -22.05494 2.341991 
-19.57711 -17.58303 -18.02815 
-16.79108 -22.59298 16.89324 
-17.34059 12.085 -34.12542 
-18.87374 -10.70728 13.00681 
-13.74138 9.661906 17.53619 
-13.5123 -6.144973 16.03919 
-19.4794 -9.636534 9.489951 
-12.21525 -62.99111 6.343918 
-12.25771 -31.42136 -35.85189 
-13.0761 -57.48818 -16.91722 
-15.17119 -64.95854 -12.74406 
-15.98021 -5.780132 2.411987 
-12.79051 -55.01595 2.183761 
-16.1871 12.27405 8.380023 
-14.58024 11.04793 13.11981 
-20.77196 -15.5613 -11.17047 
-30.38891 11.87802 -0.06203096 
-12.53871 -48.99834 -0.07331821 
-15.4101 9.732051 -18.27843 
-13.35253 -53.57031 7.209081 
-12.57095 -23.12381 -37.8537 
-12.78375 -36.33933 -5.728158 
-18.91163 -9.88414 -30.36732 
-19.21508 12.02444 0.6975693 
-12.47362 -43.75878 12.8673 
-17.9744 -5.665472 -9.193048 
-18.7736 -16.7159 12.52979 
-12.88758 -36.38926 -32.50211 
-19.6645 -14.22697 -12.61468 
-15.20253 -5.623969 11.30158 
-17.66674 -10.07713 18.80883 
-12.45809 -56.98888 -3.225509 
-10.52499 -32.82362 19.14412 
-18.2726 -7.955359 -9.824996 
-20.19779 -13.83812 5.615495 
-13.45169 -51.04834 -13.85182 
-13.28012 -65.31516 4.120104 
-16.88601 -66.25865 15.07881 
-18.49238 -8.912261 -0.9136966 
-18.71642 -21.95611 -4.40579 
-19.97929 -15.2921 -26.95612 
-16.35306 -64.36356 -25.5922 
-15.40301 1.995317 -31.43886 
-14.55451 9.788708 14.6061 
-17.81312 13.12973 -23.76029 
-15.34137 12.22997 11.91301 
-15.13635 -3.188514 -16.68437 
-14.02879 -3.417757 -37.90911 
-18.25515 -13.90005 15.85717 
-19.57356 -17.44536 -26.7994 
-27.91095 10.89271 2.176083 
-10.81085 -58.26903 16.64271 
-19.59615 -16.67402 -7.988591 
-12.28886 -58.23846 7.581598 
-12.90481 -35.10299 -31.0391 
-13.55639 -61.58066 -25.42953 
-10.47098 -55.92899 18.96878 
-13.48859 -30.83419 -24.80555 
-20.98899 14.88026 19.38929 
-19.15732 -22.53912 -24.52785 
-12.62697 -44.09069 4.535102 
-10.79977 -58.57847 16.58379 
-20.60752 -13.42008 -4.655868 
-18.13393 -7.981542 -27.02602 
-12.59835 -45.08196 9.222968 
-16.48487 3.987206 -11.44313 
-13.29688 -26.93403 -26.11822 
-14.13898 -51.18148 9.962264 
-14.34961 -7.642338 18.52774 
-23.47246 11.63035 0.999565 
-15.29371 -65.42932 9.509976 
-13.41524 -56.54946 -23.83257 
-15.9939 -5.93318 9.033785 
-19.10865 -20.24969 -0.1419265 
-15.07031 1.342548 9.859127 
-15.31435 9.363371 6.9133 
-12.73993 -41.36059 -26.97407 
-12.83612 -38.63667 -23.9238 
-16.31058 10.26692 -33.00756 
-23.2704 11.99474 -10.95331 
-18.034 -16.45767 15.92015 
-19.57179 -15.89565 9.817752 
-19.01207 -20.9199 5.879435 
-19.55792 -17.56552 -9.186116 
-15.22164 6.426646 9.064951 
-12.71394 -46.33215 12.22999 
