ply
format ascii 1.0
comment VCGLIB generated
element vertex 1561
property float x
property float y
property float z
element face 0
property list uchar int vertex_indices
end_header
-5.499845 2.525938 4.755278 
-1.974707 -0.387539 -1.382237 
-4.37457 -0.1421235 -3.268036 
-4.529942 2.768616 -4.273253 
-4.721807 0.1763701 3.003451 
-4.59211 -0.03106024 8.130651 
-4.497671 2.576198 -3.767617 
-1.85022 -0.4106023 -1.247087 
-3.870474 -0.1942279 5.739486 
-5.37635 2.480663 4.476594 
-2.873046 -0.54138 -2.642984 
-5.259704 2.778886 3.553765 
-4.547686 1.806463 -1.66712 
-4.146103 -0.5454791 -6.554581 
-4.511956 1.489231 -2.303913 
-4.671447 0.06344247 2.218895 
-4.593335 -0.1360389 5.889446 
-3.310267 -0.3880951 -0.7609631 
-3.004537 -0.4910393 2.689943 
-4.664749 -0.1622534 5.047736 
-2.520063 -0.08395346 7.192053 
-4.806466 1.372621 3.642714 
-4.839406 1.402484 4.409675 
-4.715207 -0.1636777 3.169025 
-4.490176 2.685061 -3.85782 
-3.086207 -0.04817747 7.752476 
-3.757042 -0.3661402 -0.08206366 
-4.642666 0.1153796 9.464726 
-4.374037 2.107729 -5.326851 
-3.920746 -0.5856394 -6.727005 
-3.020872 -0.2408749 4.63865 
-3.145865 0.006754683 8.365758 
-4.542153 2.093879 -1.66747 
-4.333482 0.6429742 -4.873663 
-1.857706 -0.3932925 -1.490338 
-3.679767 0.1497381 9.889416 
-3.218934 -0.2352535 4.597704 
-4.522081 -0.1624048 -0.4097808 
-2.698912 -0.5141231 -1.584562 
-2.696075 -0.1684129 6.150813 
-2.317349 -0.5269305 -2.607146 
-4.62106 0.3904778 0.5921101 
-3.960154 0.1075634 9.507607 
-4.816724 1.274106 4.03751 
-4.318234 -0.506379 -3.978192 
-3.710297 -0.2025127 5.176948 
-2.168731 0.09949367 9.592134 
-4.38713 0.6944416 -3.814386 
-4.739185 0.6415097 2.991374 
-4.275653 0.3870712 -6.046136 
-2.189636 -0.6241313 -6.414167 
-5.311063 0.6061898 9.458 
-4.632883 1.837805 -0.1242991 
-4.715316 1.038401 1.880305 
-4.764654 2.379195 1.877617 
-4.760333 2.360717 1.716537 
-5.025702 0.8674303 8.135558 
-3.297375 -0.439599 -1.550396 
-3.739533 -0.2021272 5.580802 
-5.438225 2.434377 4.455188 
-2.37648 -0.2382561 4.368445 
-4.7361 0.4543449 2.911933 
-2.92291 -0.5612398 -3.374217 
-4.275107 0.6517168 -6.311067 
-5.012908 0.2211161 8.07654 
-1.997558 -0.6364999 -6.277829 
-5.076994 0.2416234 8.970502 
-2.954913 -0.7044784 -6.614064 
-5.029508 1.948305 5.775885 
-4.235266 0.2984222 -6.944182 
-4.445687 1.820367 -4.347721 
-2.842823 -0.431416 -1.936496 
-2.950039 -0.4995381 1.708861 
-5.080767 3.162317 3.244257 
-4.214495 -0.5342115 -3.029953 
-3.575686 -0.5986938 -4.540046 
-3.386403 -0.60886 -3.312248 
-4.461705 -0.2432793 -1.395417 
-2.946784 -0.5099275 2.679839 
-2.90928 -0.4996939 1.840941 
-1.869796 -0.1736591 6.088205 
-3.025976 0.0304276 8.748009 
-4.444971 0.1563939 9.771999 
-3.543371 -0.5005856 -3.846337 
-1.833574 -0.1927712 5.642808 
-2.483903 -0.3396972 0.8434247 
-4.234618 0.03440291 -6.32517 
-3.505336 -0.204999 5.569179 
-4.700365 0.07696798 9.005878 
-2.252416 -0.3591927 -1.274402 
-2.911059 -0.6557963 -4.536549 
-2.112309 -0.6874169 -5.946285 
-4.096392 -0.5483615 -4.336423 
-4.454873 0.1564937 -2.268952 
-4.982745 0.9175032 7.371867 
-1.834983 -0.6142181 -5.167189 
-4.82779 2.796214 3.363746 
-4.799879 0.1206606 9.303991 
-4.036822 -0.2666926 3.204759 
-2.946717 -0.2863833 1.201868 
-3.272749 -0.3521176 0.8141102 
-4.769161 2.409825 2.023469 
-4.740768 1.923781 1.975025 
-4.318732 -0.4591464 -2.449443 
-5.063553 1.326921 7.441046 
-2.917137 -0.4580062 -2.397785 
-3.329574 -0.3119707 2.869129 
-2.780908 -0.2156422 5.406119 
-4.914745 1.280041 5.754943 
-5.038872 0.1724755 8.650745 
-3.02453 -0.5389172 2.254911 
-2.256094 0.05534823 9.215211 
-2.670151 -0.6430833 -4.833093 
-4.683323 0.7781044 1.784579 
-3.378901 -0.5107112 -3.605304 
-4.611873 0.8843901 0.1881849 
-4.52085 2.399801 -3.161182 
-4.313393 -0.4826955 -4.115434 
-2.551357 -0.3728683 -1.123216 
-4.492615 1.910221 -3.348463 
-5.60234 1.066216 8.943357 
-4.390718 -0.08782679 7.35531 
-4.663625 2.035441 0.1872346 
-4.641491 2.782517 -1.018119 
-3.260994 -0.6635372 -4.502763 
-4.829903 1.548992 4.280422 
-1.875858 -0.4003539 -1.38666 
-4.506049 1.256009 -2.595498 
-4.627811 0.4484658 0.7312636 
-4.34241 1.211913 -5.150967 
-2.369723 -0.536036 -2.496023 
-4.937324 1.10687 6.210442 
-2.823928 0.1198002 9.739801 
-4.888046 0.6093769 5.634042 
-2.956426 -0.5775738 -3.788584 
-4.517888 0.6161512 -1.248817 
-4.983916 0.5169506 7.335176 
-4.528285 0.6948754 -1.092118 
-4.32049 -0.3225966 0.8193117 
-3.466212 -0.09162398 7.268859 
-4.988553 0.6226788 7.650575 
-4.658981 0.7069103 1.112824 
-2.071091 -0.6446084 -5.177226 
-3.301928 -0.5948424 -3.254176 
-3.631422 -0.3474179 2.122342 
-4.146274 -0.1891162 5.583586 
-4.342348 1.340811 -5.322288 
-3.594215 -0.5626268 -2.930714 
-4.745943 2.491843 1.164341 
-3.189424 -0.5375275 1.747432 
-4.605589 1.643895 -0.4617867 
-5.755138 1.406286 7.736421 
-3.710002 -0.1614798 6.32238 
-2.857522 -0.5173815 0.6939172 
-4.180847 0.1160793 9.550123 
-2.515537 -0.6511404 -5.42164 
-4.376093 2.445007 -5.621692 
-3.831422 -0.4172751 -1.397632 
-4.291862 1.378169 -6.714377 
-3.504179 -0.5638045 1.072235 
-4.275213 0.08126183 -5.602139 
-4.464633 0.1682056 -2.150522 
-3.239654 -0.2609584 3.978903 
-5.469003 0.8633384 8.739254 
-4.460131 -0.3184931 0.1208533 
-4.698403 -0.1325832 5.712404 
-4.700941 1.35133 1.279124 
-3.482243 -0.2701588 3.679279 
-3.217589 -0.2619825 3.848922 
-4.427078 -0.2434026 2.788343 
-3.269736 -0.4649248 2.28085 
-2.774974 -0.07600758 7.40712 
-4.507131 1.212997 -2.216457 
-3.33716 -0.2311549 4.672276 
-3.988412 -0.08147945 7.470419 
-1.768036 -0.0967738 4.983036 
-4.581692 -0.2095594 0.7638522 
-4.674898 0.2843151 1.746943 
-3.395507 -0.3794289 -0.8613132 
-4.483829 -0.2714278 -1.171188 
-3.113614 -0.5532732 0.4411251 
-4.383475 0.7282109 -3.924124 
-5.34411 1.349 7.346639 
-2.261534 -0.3167185 -0.06249049 
-4.361414 0.8800512 -4.475014 
-2.441149 -0.5212654 -1.505545 
-2.817495 -0.6501985 -4.464741 
-4.456403 -0.3069515 1.597269 
-1.908354 -0.5953772 -4.331201 
-2.273561 -0.3314076 0.7585639 
-3.673574 -0.211321 4.999754 
-1.980811 -0.6630602 -5.986969 
-4.306053 -0.2761761 2.748716 
-4.425247 -0.1898434 -2.511784 
-3.788099 -0.3637494 0.2800352 
-3.093406 -0.5443159 -4.289627 
-4.966725 0.08986342 8.55361 
-4.794516 -0.07141539 6.573873 
-3.242774 -0.6358501 -3.50036 
-4.610607 -0.0943711 0.8668052 
-3.313792 -0.223562 4.955882 
-4.848455 2.613195 3.835174 
-4.501335 0.09046215 -1.298957 
-2.064581 -0.5111846 -2.602997 
-2.735475 -0.6380643 -4.545736 
-4.677832 3.108544 -0.2202875 
-4.900719 2.661705 3.905036 
-4.769849 1.841034 2.735299 
-3.511526 -0.7037159 -5.29507 
-4.315704 -0.1782919 -4.514712 
-4.101109 -0.1386508 6.638981 
-4.353169 1.623477 -5.308768 
-4.037607 -0.6648014 -6.969282 
-3.534225 -0.1609301 6.236478 
-3.535091 -0.2889543 3.432523 
-4.204076 0.1450795 9.770624 
-4.483422 0.6034455 -2.92102 
-1.937505 -0.1927039 5.212099 
-4.41748 0.7006665 -3.201925 
-2.138112 -0.6375 -4.407718 
-3.380039 -0.3030798 3.225704 
-3.082928 -0.4474902 -2.019783 
-4.961578 0.07841166 8.705153 
-4.962848 0.5132635 7.210053 
-4.731743 3.124405 0.2772966 
-5.00299 0.2259007 8.018168 
-2.633102 -0.5878612 -3.321366 
-3.458735 -0.4661548 1.575365 
-4.487381 1.059915 -2.803972 
-4.445059 -0.0949238 -2.099772 
-5.624731 0.9585871 8.507223 
-4.313241 -0.5287624 -3.509881 
-4.568562 2.582171 -1.605168 
-4.262957 -0.5588756 -4.91883 
-4.902851 2.968299 3.078664 
-2.68868 -0.3824366 -1.079682 
-4.800157 1.553155 3.573195 
-4.484588 2.582426 -3.844044 
-3.559624 -0.3631073 1.644186 
-4.856896 -0.05557554 6.758051 
-2.673764 -0.2436678 1.412298 
-3.889472 -0.6175697 -5.003808 
-4.340446 1.428067 -5.354989 
-4.903248 1.547886 5.271355 
-3.584316 -0.4469944 -1.991146 
-5.361112 1.947695 5.735458 
-4.282762 -0.08320445 7.554944 
-4.854261 1.256318 4.738745 
-3.395875 -0.5274362 2.65867 
-4.740269 0.5954325 3.141354 
-4.548291 0.1834226 -0.3700121 
-4.348251 2.268488 -5.923552 
-4.444602 0.8504968 -3.141699 
-4.617593 -0.1648536 5.275183 
-2.018155 -0.6015571 -4.174038 
-5.702521 1.358781 8.195831 
-3.854608 -0.1370082 6.651402 
-3.634907 0.09499911 9.412932 
-4.350692 2.319615 -5.703127 
-4.785726 2.131008 3.149333 
-4.261643 -0.5102932 -3.88274 
-4.646842 2.520607 -0.3866692 
-1.916223 0.1131368 9.703051 
-4.332542 0.3545283 -4.523343 
-2.263667 -0.6707093 -5.409435 
-2.996063 -0.519606 1.598804 
-4.50905 2.79181 -4.207465 
-4.271297 -0.002316791 -5.435765 
-4.175557 0.1280287 9.630537 
-4.219543 -0.1591513 -6.646644 
-4.359797 1.662788 -5.299708 
-2.079179 -0.5809915 -4.056214 
-3.55034 -0.499387 -4.047343 
-3.16855 0.1394544 9.866262 
-4.486032 0.4473692 -1.942705 
-4.61089 0.1322364 9.555253 
-2.758869 -0.6061223 -3.707751 
-2.852099 -0.6062981 -3.560745 
-4.609065 2.493718 -0.972952 
-3.044938 -0.5146217 1.832634 
-4.958397 1.001563 6.886022 
-4.310043 1.910137 -6.816761 
-4.72476 1.405693 1.909924 
-4.849988 0.1785869 5.128733 
-2.697712 -0.5701664 -2.788078 
-3.520155 -0.3926408 -0.8884583 
-3.631849 -0.3236122 2.604221 
-1.567528 0.1460463 9.700738 
-4.271777 -0.01942321 -0.9559475 
-4.638143 0.7264382 0.5987182 
-4.314381 -0.402636 -4.372831 
-4.675216 -0.1275032 2.052878 
-3.024682 -0.5392241 0.04289705 
-3.047795 -0.6029398 -3.386823 
-3.740232 -0.3733275 0.08436732 
-5.574386 1.694031 6.918383 
-4.3962 2.725971 -5.888473 
-4.299243 1.404134 -6.655152 
-4.487988 2.027205 -3.437034 
-4.495773 -0.3281077 -0.8892937 
-4.233926 -0.2568583 -5.757202 
-2.934838 -0.560407 -0.002554244 
-3.270521 -0.6457568 -3.623681 
-3.375021 -0.4888962 -3.435614 
-4.786356 2.978021 0.4860044 
-4.208091 -0.3523265 -0.1646186 
-2.568314 0.003934864 8.537656 
-4.522741 1.762818 -2.436074 
-4.810493 1.375314 3.866933 
-4.261578 0.266127 -6.098624 
-4.182965 -0.3209426 0.8691773 
-4.622798 3.179357 -0.3255619 
-4.338115 1.772198 -5.876018 
-4.479159 2.73127 -5.25477 
-4.417856 2.358526 -4.975687 
-3.616713 -0.448782 -1.94934 
-4.30815 0.6369222 -5.510115 
-4.49072 -0.2867203 -1.151264 
-4.614681 0.4585167 0.2292412 
-3.269501 -0.4919235 0.07380208 
-4.419426 -0.2309019 4.119035 
-2.878392 -0.70033 -6.510356 
-3.498846 -0.5275422 -3.501205 
-4.653144 -0.2269795 2.387666 
-2.146844 0.1271088 9.830059 
-4.659488 3.082718 -0.5265108 
-4.542577 1.011575 -1.128825 
-4.729239 2.780553 0.7051735 
-5.336903 2.51917 4.211212 
-3.772918 -0.3961433 -0.7593294 
-4.985433 0.9503305 7.441181 
-4.59368 2.82278 -3.365782 
-4.136437 0.03416933 8.846314 
-3.095215 -0.6937227 -5.594247 
-4.054817 -0.2362209 4.297558 
-4.523737 2.770861 -5.003217 
-3.975286 -0.3743806 -0.09555277 
-4.860254 -0.09650064 5.840641 
-4.839238 1.155333 4.598674 
-3.865633 -0.6386503 -5.555297 
-4.444797 -0.07673141 -2.854163 
-4.864305 2.545689 4.152959 
-5.265864 2.073129 5.427917 
-3.972594 -0.4314152 -1.541044 
-1.585438 0.1952974 9.801694 
-4.777859 1.648527 2.858051 
-2.271276 0.1087253 9.662867 
-1.841283 -0.3942837 -1.556537 
-4.484336 0.4430231 -1.809669 
-4.367821 -0.0576601 7.924042 
-4.79987 -0.1244274 5.147511 
-5.007305 0.5323578 8.060885 
-5.528477 0.7977937 9.482269 
-4.831983 2.077298 3.788323 
-4.44964 -0.2184579 3.87144 
-4.087661 -0.5964295 -5.293409 
-2.749968 -0.6575956 -5.458566 
-3.796245 -0.6591885 -6.130168 
-4.199505 -0.249467 -6.925723 
-4.847956 2.18598 4.1511 
-4.261215 2.947963 -6.176869 
-4.194336 -0.1776821 5.756538 
-2.647364 -0.341133 0.9325409 
-4.997481 0.2994027 7.572039 
-4.923145 3.012664 2.689346 
-4.518016 2.604025 -3.27314 
-2.611677 -0.5510809 -1.877289 
-2.164577 -0.545575 -3.320466 
-4.684946 2.845719 -1.046521 
-4.807562 1.388245 3.734699 
-5.543285 1.639884 6.534013 
-5.798875 2.05727 5.84208 
-3.676637 -0.5856054 -4.828031 
-4.541245 2.238594 -2.143697 
-4.363658 -0.2738154 2.525603 
-4.94369 0.03367292 6.477376 
-3.390164 -0.6599383 -4.782964 
-4.714968 1.602612 1.346374 
-5.033651 2.271655 4.929426 
-3.287538 -0.688983 -6.338007 
-4.941841 0.02935215 6.586923 
-4.621771 2.684548 -1.178233 
-3.472674 -0.4550056 -2.225096 
-4.354324 0.6083999 -4.305489 
-4.395081 2.433765 -5.240628 
-4.79176 1.52919 3.278907 
-4.800553 1.577136 3.463924 
-2.665637 -0.2917994 0.6711352 
-4.177101 -0.3458778 0.760717 
-3.769748 -0.3353288 2.296455 
-1.755616 0.07007072 9.254825 
-4.661914 2.919078 -1.651325 
-3.843241 0.04550384 8.89324 
-3.644597 -0.2938638 3.144777 
-4.510775 1.11553 -2.113864 
-3.050691 -0.5308245 0.1172007 
-4.856308 -0.02838429 8.011312 
-4.526682 2.784572 -4.125363 
-2.943012 -0.06526098 7.477678 
-4.44223 -0.1835771 -2.916884 
-4.843266 1.703175 4.373935 
-3.13143 -0.1304419 6.865359 
-1.581074 0.1472467 9.614146 
-2.713574 -0.1471526 6.601029 
-4.760631 3.110524 0.6116033 
-4.86132 1.732612 4.742551 
-4.053963 -0.580568 -6.577778 
-4.42181 -0.3696858 -1.267794 
-4.729114 -0.0692048 3.360316 
-2.572176 -0.1888153 5.785881 
-4.421035 1.988546 -4.460774 
-3.050121 -0.002044531 8.354605 
-4.214342 0.1154488 9.603519 
-4.141926 -0.3964191 -7.08671 
-4.816257 1.32488 4.013187 
-4.651144 1.034637 0.6225606 
-4.343115 1.151281 -5.530567 
-4.587043 1.797731 -0.910816 
-2.279688 -0.6799937 -6.31811 
-4.349195 1.553335 -5.403968 
-4.683521 1.325747 1.106414 
-4.560228 2.348271 -1.645663 
-4.717691 0.4257874 2.526347 
-4.317203 2.787148 -6.521059 
-2.664229 -0.3655653 -0.501693 
-4.22472 -0.5412337 -3.817575 
-4.275332 -0.2704356 -4.991609 
-4.639297 0.100459 1.201532 
-4.485156 1.009777 -2.48684 
-4.767959 3.020931 0.3895745 
-4.661962 2.812756 -2.076252 
-2.128838 -0.3305057 -0.8308433 
-4.545662 0.2841366 -0.4250824 
-4.528789 2.128297 -2.286049 
-4.423805 -0.1958824 4.81257 
-2.888769 -0.2089496 5.406513 
-2.296561 -0.2204134 3.834197 
-4.821567 0.1188074 9.243298 
-3.210784 -0.3495955 0.434079 
-3.333678 -0.1084085 7.02587 
-4.539951 2.22017 -2.095804 
-4.354661 2.33722 -5.714343 
-4.311022 1.900591 -6.79483 
-4.527116 2.341165 -2.981201 
-2.43818 -0.3516347 -0.5856788 
-2.775405 -0.3507972 3.136053 
-2.518617 -0.6040562 -5.121479 
-2.878843 -0.3856665 -0.8459018 
-2.153723 -1.454967e-05 8.256078 
-4.561076 -0.2249779 3.216079 
-3.700688 0.1520342 9.901906 
-4.54896 0.5356722 -0.5661553 
-2.509044 -0.6486217 -5.412762 
-4.514934 1.217307 -1.954371 
-4.807035 2.517438 3.309194 
-2.665709 -0.2074997 5.515742 
-4.937259 1.805356 5.869818 
-1.787455 0.03722549 8.993316 
-4.622928 2.367623 -0.647307 
-4.593929 1.465734 -0.5565801 
-2.861022 -0.4650592 -2.560927 
-5.740595 1.799533 6.097141 
-3.631582 0.03522879 8.787709 
-3.883056 -0.2481652 3.717787 
-4.556274 2.312971 -1.672068 
-4.586945 0.5735847 -0.07701467 
-5.061979 0.6023306 8.730042 
-4.805157 1.159661 3.846398 
-2.372629 -0.5404749 -3.254274 
-3.457705 -0.3918437 -0.916685 
-4.373724 -0.2392423 4.08383 
-3.109607 -0.3346715 1.051963 
-4.292688 0.9438301 -6.323626 
-4.8882 1.763026 5.106671 
-4.373816 -0.03993817 -3.291054 
-2.427345 -0.3212839 -0.136267 
-4.375177 1.197746 -4.515375 
-3.96035 -0.2276512 4.202469 
-4.870656 1.787219 4.907879 
-4.473465 1.847689 -3.737472 
-4.711308 1.851541 1.113007 
-4.750259 1.229589 2.433767 
-2.19525 -0.5181496 -2.151895 
-4.643877 1.647866 0.1446521 
-2.295884 -0.6405125 -5.946152 
-4.752646 0.09785358 9.201962 
-3.036396 -0.2399006 1.526829 
-3.180135 -0.6705363 -6.822432 
-4.554072 2.000413 -1.580325 
-4.340778 2.392109 -6.471159 
-3.423613 -0.2967961 3.032237 
-4.676651 2.665622 -0.002483713 
-2.233207 -0.03878564 7.942373 
-3.99048 -0.3200541 1.936364 
-3.079519 -0.64279 -4.338305 
-5.799706 2.587234 4.304786 
-2.794744 -0.5594103 -2.128201 
-4.904445 1.921369 5.124096 
-4.984789 0.6432149 7.370193 
-1.667311 0.116321 9.318545 
-4.327133 -0.2804194 -4.287187 
-4.891409 0.8760538 5.284431 
-5.500333 1.576395 6.825588 
-5.46168 2.19531 5.172151 
-3.217775 -0.6852483 -5.177232 
-1.940194 -0.6078625 -4.632252 
-3.931545 -0.3641546 1.142092 
-2.49499 -0.6799151 -5.892721 
-5.565886 0.9498514 9.13343 
-2.918233 -0.3506329 2.931112 
-3.689046 -0.5895556 -5.416647 
-3.476939 -0.3707139 -0.3987366 
-3.629774 -0.2060358 5.160755 
-4.749324 -0.100779 4.094502 
-4.282253 2.825541 -6.609543 
-4.588378 2.239824 -1.088103 
-4.105783 -0.3782339 -0.9697205 
-3.308119 -0.2987714 1.415833 
-4.552177 -0.0911071 0.006341214 
-2.494028 -0.5241283 -1.521806 
-5.01413 0.8788158 7.908501 
-3.858808 0.05801025 9.12275 
-2.08669 -0.540783 -3.089414 
-4.662455 2.537313 -0.235992 
-5.462788 0.6505054 9.815586 
-4.530252 -0.5490565 -0.3923428 
-3.618577 -0.5755565 0.3546205 
-3.128675 -0.549941 -4.327208 
-4.585585 0.03427285 0.3636441 
-4.617311 0.9885246 0.1769732 
-2.219591 -0.5660152 -3.174003 
-4.444475 0.4042461 -2.712575 
-2.534916 -0.5557991 -2.611678 
-2.672899 0.1030813 9.583636 
-3.344375 0.00263427 8.196829 
-3.012475 -0.06271297 7.495564 
-2.476282 -0.6789413 -5.739949 
-4.998825 0.3215309 7.617779 
-4.427768 0.04937852 8.847095 
-2.271018 0.0565864 9.195996 
-2.830532 -0.6144235 -3.104473 
-3.453396 -0.5456195 2.189914 
-2.195806 -0.3272636 0.4079436 
-4.22807 -0.01667726 -6.993915 
-3.267795 -0.07615501 7.572139 
-4.43389 -0.219717 -2.82058 
-4.739382 0.05400256 3.424803 
-4.442048 -0.05092007 -2.975973 
-4.588853 -0.1161146 6.391366 
-3.856827 -0.6809057 -4.587564 
-3.865677 -0.2494337 3.808782 
-4.593068 0.09439941 0.3180926 
-3.717025 -0.695154 -6.747416 
-3.90235 -0.02565622 8.205643 
-4.728347 2.89501 -0.1066293 
-4.405136 1.604494 -4.493551 
-2.730486 -0.04090162 7.76071 
-3.736729 -0.6625972 -6.109116 
-3.087156 -0.2074069 5.385805 
-4.50188 1.306607 -2.755051 
-3.115124 -0.2949453 3.360018 
-3.594276 -0.5486801 -4.746584 
-2.652533 -0.06398047 7.582569 
-3.102208 -0.6602221 -6.816414 
-4.66769 -0.1020204 1.606479 
-3.335041 -0.08548982 7.567776 
-4.670018 1.46037 0.5855474 
-4.126379 -0.5565418 -3.238562 
-3.193735 -0.2792283 3.642354 
-5.023952 1.842932 6.108812 
-4.617155 1.065345 0.1369002 
-2.411276 -0.5459731 -1.834972 
-4.819171 2.803506 1.810672 
-4.544548 2.322657 -2.459626 
-4.012895 0.008506911 8.466799 
-2.571151 -0.03205011 8.051378 
-3.858194 -0.392215 -0.765176 
-4.557201 2.58461 -1.756701 
-1.547696 -0.05770036 5.551183 
-3.760774 0.1347031 9.759741 
-4.146646 -0.5798871 -5.045631 
-5.723892 1.716145 6.358094 
-4.598887 2.343264 -1.027117 
-4.737588 1.477241 2.118144 
-4.867788 3.121381 2.641549 
-4.276206 0.145222 9.774246 
-4.800948 1.225616 3.813051 
-4.055877 -0.3245665 2.088576 
-4.274135 0.09549832 -5.550345 
-4.817577 -0.01187307 8.39208 
-3.473718 -0.5512573 1.016305 
-5.738737 1.188117 7.901713 
-4.194518 -0.4166393 -1.549174 
-2.747674 -0.1494815 6.477703 
-2.073498 -0.3131429 -0.194967 
-4.263709 -0.5260131 -3.166811 
-1.912413 0.02195564 8.656873 
-3.546116 -0.4264238 -1.211248 
-3.878625 -0.642294 -5.644025 
-4.617295 2.143621 -0.6492136 
-4.263438 -0.1110401 6.956007 
-3.118129 -0.3299762 0.8907098 
-5.735715 2.185162 5.024791 
-4.15379 -0.3362155 0.408925 
-4.44395 0.4471399 -2.75185 
-4.456537 -0.2548999 2.622697 
-3.369834 -0.1523649 6.340778 
-4.542805 2.466297 -1.775119 
-4.3365 2.31109 -6.324964 
-1.646377 0.05203456 9.310288 
-4.460106 1.991326 -4.129442 
-3.877025 -0.3653602 1.578914 
-4.731747 -0.02513334 3.745973 
-4.955463 1.483003 6.267616 
-3.496317 0.05316593 8.961677 
-3.279757 -0.2224768 5.011658 
-4.193848 -0.1217289 6.686088 
-4.738706 3.116276 0.334023 
-3.306669 -0.3145401 2.786957 
-5.083955 0.1579903 9.278727 
-4.919377 2.021668 5.426376 
-2.680266 -0.2842744 0.7160887 
-4.455513 1.749272 -3.865103 
-4.922322 0.8162537 6.323342 
-4.60727 2.156058 -0.8870163 
-3.088117 -0.5329845 0.7974424 
-3.783963 -0.373854 -0.3320727 
-4.711325 2.045591 1.111591 
-5.077826 1.564366 6.791414 
-3.054657 -0.1764191 6.016709 
-4.30001 -0.104507 -1.112289 
-3.574937 -0.4712785 -3.276515 
-5.479043 2.531832 4.953696 
-5.58679 0.9364562 8.917389 
-4.875605 2.966987 2.063071 
-2.385071 -0.3289797 -0.4080813 
-4.321745 1.211411 -6.080288 
-4.308703 -0.4677643 -2.301305 
-3.278819 -0.330789 0.6748828 
-4.365859 -0.3183959 0.5054742 
-5.258019 1.77184 6.237643 
-4.819037 2.732323 2.651773 
-5.511188 2.456189 4.634045 
-2.799052 -0.264608 3.831974 
-4.638158 2.425668 -0.4833024 
-2.802055 -0.2823325 1.106528 
-3.919387 -0.5044855 -2.367389 
-5.794322 2.079043 5.824959 
-4.847836 0.3301188 5.072564 
-2.896719 0.03345887 8.816761 
-3.767277 -0.3686888 -0.3311151 
-3.211324 -0.3162614 3.129279 
-4.25121 -0.1982115 5.172769 
-4.989698 0.1205462 7.308601 
-4.759007 1.434754 2.663941 
-4.750066 1.256824 2.535006 
-5.537557 1.002395 8.365375 
-4.300136 1.078876 -6.321341 
-3.423912 -0.6327189 -3.317594 
-4.904895 0.377072 5.930261 
-4.544841 -0.1531849 5.855821 
-5.31279 0.9857296 8.394927 
-4.887376 0.6747437 5.49628 
-4.697807 2.878869 -0.7021594 
-2.015036 -0.6188157 -5.676362 
-4.246387 -0.03379546 8.635568 
-4.233806 2.924497 -6.313771 
-4.516706 1.133453 -2.02501 
-4.920362 2.918823 2.35095 
-4.955194 0.1190574 6.441719 
-4.892059 0.04748125 8.502426 
-4.377292 -0.004642437 -3.219116 
-3.683539 -0.2119554 5.363894 
-4.779643 -0.1262934 4.763575 
-3.681495 -0.5434146 1.059476 
-2.819267 -0.06276387 7.543048 
-3.461715 -0.4749861 1.518664 
-4.614888 1.184178 0.03874941 
-4.681659 1.145147 1.081556 
-3.102388 -0.2600698 1.308171 
-2.958979 -0.5434215 -4.131876 
-2.570492 -0.07952201 7.375184 
-3.459055 -0.3025857 1.537322 
-4.368995 1.372628 -4.879162 
-3.563917 0.08541135 9.376246 
-3.254819 -0.3165278 0.7042966 
-2.919924 -0.7020786 -6.571804 
-3.822169 -0.1216493 6.864838 
-4.295017 -0.2592195 3.007551 
-3.543791 -0.0875627 7.467523 
-4.468536 2.270419 -3.979318 
-2.590081 -0.6602514 -6.003336 
-2.435454 -0.2840169 0.7031888 
-3.628449 -0.3052858 2.87869 
-4.526441 1.60861 -1.9684 
-2.684985 -0.2606699 3.940996 
-2.351241 -0.3109611 -0.1808543 
-4.206233 -0.4603963 -2.270265 
-4.666901 -0.02880041 8.157451 
-4.802793 2.901897 1.36355 
-4.774221 1.100265 3.347319 
-4.774012 2.03368 2.661795 
-4.353978 -0.2951748 -3.288748 
-4.406366 2.689135 -5.520081 
-5.748212 1.401142 7.835513 
-3.269411 -0.5432341 1.651593 
-4.336493 1.500666 -5.644129 
-4.631248 2.807995 -2.027221 
-3.52621 -0.6764345 -5.162574 
-4.454333 -0.2706406 1.4309 
-4.569323 0.03360896 0.07269031 
-3.440011 -0.4487429 -1.808916 
-4.102661 -0.5013922 -2.76314 
-4.562479 1.282205 -0.9818996 
-2.861632 -0.5203216 0.1487407 
-4.978958 2.840713 3.415106 
-2.376266 0.04023251 8.935689 
-3.246456 -0.4852982 2.8064 
-4.677423 0.2814811 2.143644 
-4.384966 -0.364367 -0.687368 
-5.12615 0.2283813 9.494642 
-4.113472 -0.6155455 -3.459691 
-4.833688 2.433204 3.68476 
-4.648879 -0.01628873 8.503407 
-4.869244 0.009880755 8.445682 
-2.69136 -0.3948026 -1.382405 
-4.614878 -0.2170705 1.04958 
-4.261177 0.2959059 -6.18928 
-4.083143 -0.6421428 -3.048214 
-3.366885 -0.4369208 -1.404291 
-4.628917 0.8718889 0.4060494 
-4.297349 0.4562128 -5.700524 
-3.336663 -0.2152066 5.088982 
-4.754381 1.451315 2.589961 
-4.60765 0.4507014 0.1869715 
-3.630539 -0.165848 6.126447 
-2.630517 -0.5119852 -3.648418 
-2.678531 -0.3946961 -1.405806 
-3.747902 -0.2344707 4.221482 
-4.626232 2.803259 -2.16969 
-4.965071 0.08184968 8.707518 
-2.174978 -0.634938 -5.652759 
-4.619248 0.2662506 0.8698667 
-2.641055 -0.6409538 -4.563195 
-5.754667 2.315581 5.192568 
-4.921516 -0.0005979814 6.623535 
-2.981254 -0.1349677 6.735119 
-4.669456 0.1915931 1.498216 
-2.842596 -0.5838695 -2.758242 
-4.231499 -0.4278503 -1.921489 
-5.780895 1.677577 6.446235 
-4.334974 1.935406 -6.288449 
-2.11866 -0.06004523 6.792346 
-2.191356 -0.01599469 7.902392 
-4.696042 1.524035 0.9062608 
-4.019641 -0.4651557 -2.290063 
-4.487648 2.733374 -5.042755 
-4.284251 1.284669 -6.843513 
-4.346669 -0.03470621 -0.9911031 
-3.01848 -0.4927875 2.576019 
-5.731575 1.321516 7.942889 
-3.810733 -0.08516254 7.362368 
-5.413971 1.563441 6.767208 
-4.792845 2.751615 1.833329 
-4.350741 -0.2393527 3.552217 
-2.21066 -0.09276783 6.767787 
-5.127425 2.544616 4.177703 
-4.852215 2.12747 4.22695 
-3.134228 -0.652366 -4.328519 
-3.843717 -0.2667813 3.565425 
-2.931621 -0.5307583 -2.994552 
-4.064672 -0.3311057 1.852331 
-4.660164 -0.09676002 1.449365 
-4.710716 0.165153 9.65881 
-4.204569 -0.5102754 -6.260909 
-4.162913 -0.3880474 -0.4720041 
-4.037129 -0.2018244 4.777147 
-4.808378 2.039132 3.480747 
-2.317117 -0.534871 -2.188451 
-4.509277 0.04886395 -1.127295 
-3.039572 0.1112264 9.634119 
-2.898539 -0.2861393 3.41115 
-3.936401 0.03480089 8.754816 
-2.953131 -0.5045527 0.1729973 
-4.783358 2.649372 2.734935 
-2.867882 0.04655959 9.019175 
-5.76695 2.611515 4.389132 
-1.863197 -0.1515229 5.104001 
-4.812622 1.120489 4.018267 
-4.320786 -0.3398237 -4.460807 
-4.411081 -0.3571461 -0.4980316 
-4.793593 -0.1394875 5.372095 
-4.683506 1.098427 1.143172 
-3.82166 -0.08180599 7.378288 
-4.793548 0.875825 3.872868 
-5.094339 1.475244 7.035341 
-3.546438 -0.2207907 4.746965 
-2.082311 -0.1572718 6.098289 
-4.327854 -0.4652791 -2.62662 
-4.639606 3.016451 -2.188785 
-4.18859 1.611777 -7.163552 
-4.838545 2.040487 4.053907 
-2.633208 -0.3855646 -1.21702 
-4.775143 0.424975 4.141856 
-4.238719 0.4770191 -6.859895 
-4.630413 0.1899067 1.033129 
-2.931855 -0.6013671 -2.962969 
-4.260375 0.3103429 -6.100817 
-4.364431 0.3723089 -3.731549 
-5.247856 0.3202633 9.839508 
-4.86456 1.319804 4.873102 
-4.928767 -0.02143879 6.159795 
-3.099171 -0.5386351 -4.275082 
-3.3707 -0.2924021 3.016042 
-4.720157 0.4671046 2.538377 
-4.916487 0.5515566 6.119431 
-1.918274 -0.1783111 5.876359 
-3.557396 -0.2285354 4.246392 
-4.812987 0.8648442 4.331661 
-4.523659 1.569623 -2.2152 
-5.814456 2.261684 4.86078 
-4.560387 2.499091 -2.123176 
-4.732868 2.859295 -0.6813361 
-4.255805 0.6681981 -6.653247 
-2.6255 -0.1210442 6.909288 
-2.493374 -0.3793337 -1.320383 
-2.554179 0.04278898 9.019992 
-3.382819 -0.7171544 -6.685555 
-3.982257 -0.3344894 1.974064 
-4.449635 0.07079041 -2.314789 
-4.625285 0.4678578 0.599153 
-4.336618 -0.1534029 -3.959299 
-3.832508 -0.6361809 -3.825852 
-1.877469 0.08380044 9.514093 
-3.431469 -0.3888006 -0.73364 
-1.926063 0.1029943 9.531115 
-4.506198 0.197281 -0.9203436 
-4.777289 2.045911 2.784049 
-4.199971 -0.2438172 3.487513 
-2.682362 -0.3130618 3.397041 
-5.723993 2.394118 5.252289 
-4.259758 -0.3564307 -0.1701939 
-4.854963 1.101536 4.848932 
-5.133268 1.073054 8.109842 
-3.063011 -0.3548149 0.4422629 
-4.699659 1.010754 1.514066 
-4.804577 -0.07189822 6.912705 
-5.493345 0.5101054 9.684389 
-4.947132 0.3408196 6.547409 
-4.768612 0.3304266 4.054592 
-4.761973 0.7465445 3.554118 
-4.430604 1.597781 -4.027449 
-4.810715 -0.02702812 8.124059 
-4.289445 1.423776 -7.014021 
-5.601098 1.033963 8.921048 
-4.314272 0.5730395 -5.215511 
-4.94872 0.8395525 6.593263 
-1.724798 -0.06546895 6.278123 
-4.318402 1.731277 -6.482758 
-3.71598 -0.3309303 2.323846 
-2.729053 -0.5237408 -3.493557 
-4.100913 -0.5578215 -3.262185 
-4.535446 2.375976 -2.263839 
-3.753262 -0.2567142 3.758576 
-4.650026 2.767353 -0.7117991 
-5.409659 2.390424 4.738165 
-2.254483 -0.2373118 4.296051 
-3.653495 -0.5183178 1.004591 
-4.990057 0.2607487 7.337673 
-4.688216 1.330459 1.162289 
-4.872099 1.823678 4.787712 
-5.249263 2.80216 3.504722 
-4.756518 -0.04800218 7.806527 
-4.373268 1.464863 -4.938571 
-4.843652 -0.01332106 5.536573 
-5.692421 1.270288 8.189568 
-3.383519 -0.324331 2.718126 
-4.906923 1.489735 5.39503 
-4.880425 1.662366 5.021162 
-2.430839 -0.6435087 -5.176896 
-2.722965 -0.2160743 5.321182 
-3.762159 -0.3780206 1.407151 
-1.947709 -0.628563 -6.272362 
-1.693639 0.09439565 8.546819 
-3.047077 -0.4074094 2.844781 
-4.854727 0.6817381 4.893154 
-1.59307 -0.06941593 5.410569 
-2.168614 -0.6830388 -6.045372 
-4.633082 2.828705 -1.813393 
-4.507316 0.21115 -0.9950178 
-5.738874 1.940485 5.736642 
-4.435641 1.243469 -3.480093 
-2.937573 -0.4756252 -2.824962 
-4.671756 1.157151 0.8657648 
-4.978775 0.1085264 8.769711 
-2.702233 -0.3527887 1.502656 
-2.876988 -0.3022248 1.335751 
-3.308044 -0.6926432 -5.36413 
-4.935932 1.733157 5.907372 
-4.821761 -0.08362591 6.217313 
-4.345108 0.2367073 -4.284098 
-2.869713 -0.5713387 -1.502709 
-3.478026 -0.6544523 -4.589627 
-4.284768 1.629345 -7.039907 
-3.674154 -0.298833 3.055161 
-4.797304 2.774866 1.922312 
-3.496523 -0.6536558 -4.525852 
-3.793438 -0.3811448 -0.5107871 
-2.242873 -0.3503429 -0.9460373 
-2.826784 -0.3768896 -0.5675247 
-4.783306 2.367809 2.675029 
-2.337387 -0.5453807 -3.5345 
-4.764117 1.6088 2.620765 
-4.081522 -0.3709778 -7.136588 
-4.007702 -0.4610292 -2.190185 
-3.738153 -0.3027273 2.783895 
-3.414114 -0.6639622 -4.583197 
-4.453073 0.5415996 -2.766898 
-4.567402 0.3195676 -0.1779523 
-4.810945 0.4379717 4.562859 
-4.809282 1.833376 3.598225 
-4.378737 0.6179951 -3.706576 
-3.40509 -0.5521408 0.470687 
-4.056082 -0.6092305 -5.471781 
-4.458061 -0.3299443 -0.09159514 
-4.010401 -0.3725739 0.7204672 
-3.369797 -0.4710717 -3.137007 
-4.382177 2.578501 -5.787313 
-3.364495 -0.5767729 -4.710406 
-4.675451 2.868765 -0.4607391 
-4.332354 2.191323 -6.336208 
-4.353483 0.7113124 -4.451353 
-5.01521 1.32437 7.405277 
-4.503675 1.234658 -2.66524 
-4.397958 0.6495988 -3.500855 
-2.563733 -0.5623575 -2.194599 
-3.518775 -0.6778594 -4.743927 
-4.343466 0.02209428 -4.152606 
-4.557056 1.15041 -0.9904318 
-4.953476 0.6521147 6.878276 
-4.754673 0.9651053 3.065836 
-2.663754 -0.2465078 4.455338 
-2.99971 -0.6600357 -4.555901 
-2.271341 -0.2202186 4.153078 
-4.515984 2.246001 -3.074676 
-4.48781 2.291658 -3.559698 
-4.675229 1.319843 0.8575312 
-4.463428 2.839525 -5.113028 
-3.220068 -0.5821813 -3.568659 
-4.33115 -0.09492566 -4.388577 
-2.414552 0.05532943 9.208919 
-5.800971 2.023132 5.834496 
-4.280467 0.6147819 -6.133697 
-3.149435 -0.3507878 0.468163 
-5.732015 2.556322 4.099469 
-5.395038 1.827009 6.045578 
-2.310524 -0.6695175 -5.708238 
-3.852575 -0.03168292 8.106707 
-4.217783 -0.1951455 -6.46501 
-2.674714 -0.5596093 -2.7503 
-4.676434 0.3472063 1.957592 
-4.733811 -0.08455224 3.810888 
-3.226852 -0.541793 0.69641 
-3.448774 -0.3570793 1.902009 
-3.377745 -0.4560358 -2.909046 
-4.28814 -0.2600682 2.925635 
-3.153419 -0.4925317 -3.518058 
-3.753071 -0.3757687 -0.4961769 
-4.679274 2.867348 -0.5541428 
-4.952124 0.363374 6.687048 
-4.475483 0.937587 -2.680311 
-1.874721 0.1120469 9.452902 
-3.841146 -0.6567614 -4.478229 
-5.049824 0.1980163 8.716839 
-5.338189 1.811015 6.117507 
-3.38257 -0.5077227 -3.941625 
-4.538843 1.358162 -1.439344 
-4.548738 1.084936 -1.040954 
-1.993916 -0.6589428 -6.036259 
-3.683021 -0.4251728 -1.516606 
-4.542757 2.765379 -4.702199 
-2.92387 -0.5425346 -0.2662165 
-4.381401 2.893936 -5.613874 
-2.941737 -0.3047919 1.003661 
-4.367791 1.017834 -4.418391 
-3.064403 -0.4258848 -1.516533 
-3.543757 -0.1992652 5.568024 
-2.232087 -0.5794951 -4.527772 
-3.555461 -0.7030998 -6.733788 
-4.918656 0.04798589 6.038837 
-4.757377 1.250974 2.774917 
-4.638482 0.1669733 1.087021 
-4.750192 2.157756 2.050652 
-5.117792 1.974236 5.73753 
-4.394281 0.8262156 -3.85603 
-3.646099 -0.1119542 7.037962 
-4.338907 1.885643 -5.772677 
-2.650185 -0.6679858 -6.164131 
-3.333922 -0.6910984 -5.269982 
-4.516889 0.8178335 -1.659135 
-4.781235 1.145422 3.491875 
-4.349731 0.8010939 -4.496437 
-4.302604 1.098512 -6.447284 
-4.24432 0.4480433 -6.820051 
-4.642272 1.880107 0.007067937 
-4.526917 -0.2897953 -0.1702332 
-4.360847 0.4854151 -4.04654 
-3.633085 -0.02463524 7.915617 
-4.422633 0.1535728 9.800364 
-5.236825 1.535922 6.827596 
-3.977234 -0.2672802 3.552357 
-5.403686 2.037604 5.506326 
-3.143275 0.1108903 9.597732 
-4.534513 0.6822636 -0.9179869 
-4.819048 1.509322 3.944898 
-4.037211 -0.2033868 5.33868 
-3.404275 -0.5640557 0.5291128 
-4.94381 -0.006136084 6.876542 
-3.752301 -3.503473e-05 8.352622 
-4.422915 -0.3986645 -2.111297 
-4.805793 1.691632 3.451 
-4.194799 -0.3359324 0.969533 
-4.52385 0.8641136 -1.458072 
-2.074813 -0.5121295 -2.649165 
-1.973197 -0.1450897 4.581886 
-4.231774 -0.2527679 -5.777541 
-2.451939 -0.3446219 0.8663077 
-1.541807 0.1875166 9.32321 
-4.371281 0.2183143 -3.565825 
-5.294601 1.905998 5.869743 
-2.675729 -0.287291 0.283148 
-4.827129 2.447655 3.604953 
-2.953182 -0.507511 2.156872 
-4.727046 0.7443414 2.496207 
-5.012387 0.01773319 8.331059 
-3.541897 -0.4415575 -2.649957 
-4.444664 2.730135 -4.708719 
-4.988681 0.2326066 8.099693 
-4.366803 1.374534 -4.938483 
-2.720105 -0.3018581 3.43051 
-2.322179 -0.5385475 -2.151591 
-3.466605 -0.4452594 -2.67197 
-4.937492 0.0472227 6.269063 
-2.180733 -0.5020978 -2.011077 
-3.144408 -0.3360336 2.952878 
-5.121203 1.365911 7.337119 
-3.644254 -0.4394439 -1.7383 
-4.252714 -0.2193039 4.090264 
-3.788681 -0.1821814 5.955527 
-3.240531 -0.4904363 -3.278744 
-4.248423 -0.3135226 -5.345743 
-4.884676 1.837915 4.971047 
-2.86759 -0.2297411 4.969657 
-4.676745 2.662545 -0.1034574 
-3.400731 -0.6595552 -5.930203 
-3.092957 -0.3985339 1.385879 
-2.788432 -0.04266616 7.774822 
-4.352681 0.1800116 -3.898981 
-2.25736 -0.005607541 8.245706 
-2.825215 -0.6647911 -5.673805 
-4.544781 2.777224 -3.537674 
-4.621532 -0.08496344 7.203171 
-3.972454 -0.4170394 -7.175188 
-4.510461 1.345783 -2.552374 
-2.635175 -0.6794158 -6.467312 
-4.566534 2.711058 -2.870534 
-2.10371 -0.6374329 -5.209454 
-4.204903 -0.3852302 -6.741556 
-2.086459 0.01132931 7.754803 
-4.966518 1.204859 6.93273 
-5.393046 1.895614 5.884308 
-4.750271 0.1564578 3.923389 
-4.580928 1.420421 -0.7830011 
-2.329787 -0.5521823 -3.752733 
-4.281786 1.340212 -7.015701 
-4.320239 1.485728 -6.39291 
-4.318385 1.284431 -6.304839 
-4.617445 1.067113 0.1313913 
-4.524443 0.6569513 -1.114157 
-1.858333 -0.1340376 4.981874 
-4.701189 2.27873 0.5304472 
-3.365473 -0.3008801 3.2073 
-4.966778 1.19373 6.855317 
-3.248063 -0.2219126 5.051225 
-4.333338 0.3824406 -4.48446 
-5.55498 1.884161 5.896779 
-2.248361 -0.3210659 -0.4246366 
-3.444654 -0.3025067 1.429583 
-3.736034 -0.5870987 -4.970957 
-3.113908 -0.4942954 1.28456 
-4.894578 2.313713 4.805051 
-4.35688 0.6074564 -4.267527 
-4.308067 0.3891084 -5.243474 
-4.760492 0.1154144 4.19746 
-2.445346 -0.499294 -1.555267 
-4.300321 -0.2740616 2.754648 
-4.609067 1.782475 -0.4897618 
-4.392751 -0.0668771 7.785757 
-4.324208 0.4290145 -4.913752 
-2.620989 -0.3655584 -0.5117404 
-3.650677 -0.452055 -1.978597 
-2.613127 -0.2935292 0.4144589 
-4.434748 2.703871 -5.18039 
-4.630889 -0.2618588 2.016932 
-3.080789 -0.001994908 8.304442 
-2.539227 -0.3881318 -1.527653 
-4.498921 0.9049536 -2.133586 
-3.544664 -0.2183201 4.793713 
-4.895463 0.9639975 5.76701 
-4.954463 0.01857106 6.916812 
-3.341126 -0.1292303 6.742775 
-4.320822 2.057652 -6.577956 
-2.91984 -0.6842197 -6.218252 
-4.751757 1.279107 2.353375 
-4.779816 -0.1380333 4.373301 
-2.634168 -0.1490916 6.575555 
-3.113682 -0.1834105 5.945733 
-5.296556 2.403689 4.52402 
-2.645671 -0.07236807 7.495927 
-2.982311 0.1062767 9.55599 
-4.385467 1.361392 -4.620665 
-4.185725 -0.2285696 4.283888 
-4.668681 1.165709 0.8409201 
-2.537065 -0.03755338 7.869793 
-3.207731 -0.449384 -2.236118 
-4.857163 1.117058 4.912784 
-2.499345 -0.03507886 7.912199 
-5.683269 1.19953 8.155978 
-3.38588 -0.5671566 -3.348052 
-2.073155 -0.3282287 -0.7705337 
-3.221873 -0.5782508 -3.530375 
-4.136647 1.353588 -7.219396 
-4.327196 1.352555 -5.780775 
-4.841152 1.713647 4.347227 
-1.737273 0.07780011 9.255986 
-4.410181 2.324836 -4.913849 
-3.290715 -0.2272659 4.72701 
-4.274627 0.3057379 -5.767024 
-4.516178 1.947336 -2.960774 
-4.224164 -0.4377012 -5.876248 
-3.638779 -0.3628507 1.345723 
-3.431345 -0.1416224 6.530274 
-2.434222 -0.2190522 5.004198 
-1.673799 -0.1448025 5.863308 
-4.751587 0.4644893 3.351485 
-3.274831 -0.57769 -3.324335 
-3.462413 -0.01280058 8.097708 
-2.640544 -0.5202101 -1.682903 
-4.6909 1.517583 0.8512335 
-4.744093 0.7754096 3.236371 
-4.702923 -0.004776043 2.837577 
-4.53795 2.220273 -2.335981 
-3.390154 -0.5870328 0.2121238 
-4.724863 1.092858 2.048123 
-3.383915 -0.3819609 -0.8226401 
-4.86962 -0.06458589 6.57067 
-1.844144 -0.3609463 -0.8983325 
-4.68442 2.608204 0.1375759 
-1.718688 0.0617209 9.33753 
-3.369183 -0.6530498 -5.817827 
-3.756435 -0.3839506 -0.8480574 
-2.714177 -0.1616335 6.29944 
-4.735735 1.447862 1.973116 
-4.572672 2.031215 -1.333168 
-1.64952 -0.08974885 6.054081 
-3.3076 -0.6728348 -5.564289 
-4.296351 1.069471 -6.443035 
-3.590375 -0.672015 -4.615165 
-4.776189 0.5815898 3.919328 
-4.327465 -0.3705145 -0.9740933 
-4.245662 -0.5541832 -5.114108 
-4.681874 -0.1596807 3.928343 
-2.978599 -0.2581745 4.126118 
-5.106735 1.135778 7.861814 
-2.936751 -0.5116917 2.316689 
-4.450266 1.669307 -3.794093 
-3.538976 -0.3746677 -0.1890273 
-2.352265 -0.0004723615 8.473629 
-4.371541 2.047273 -5.362146 
-4.548949 1.352789 -1.312963 
-4.527206 1.848915 -2.769674 
-5.252504 1.447042 7.10331 
-3.083579 -0.6921167 -5.69138 
-4.150492 -0.3100379 2.499036 
-4.036891 -0.3462256 1.634107 
-4.716048 0.06254724 2.974742 
-2.898649 -0.3902997 -1.005603 
-4.32379 0.4662556 -5.01892 
-3.824056 -0.3657437 1.411262 
-2.963297 -0.1952918 5.738254 
-4.782934 2.479168 2.336435 
-1.767153 -0.1561054 6.018445 
-3.420847 -0.3675139 0.5928615 
-2.306236 -0.1972699 5.492631 
-4.412083 0.65905 -3.263265 
-4.133218 2.131436 -7.208422 
-4.369038 1.98703 -5.363705 
-4.537104 0.05758836 8.881835 
-5.285821 0.7877001 8.914472 
-3.491579 -0.3306782 2.181911 
-2.857514 -0.3142356 0.546603 
-4.177546 -0.3230642 1.830167 
-2.394864 -0.3128116 0.321874 
-4.696247 1.178111 1.261976 
-4.343796 -0.3996702 -3.793408 
-4.006111 -0.3877148 -0.7714736 
-4.632635 2.896557 -2.997977 
-4.833868 1.86797 4.057608 
-4.634841 2.129832 -0.3288958 
-2.396939 -0.1828651 5.916493 
-4.661218 0.5240656 1.213317 
-4.278556 0.883706 -6.730484 
-3.049359 -0.1132585 7.092327 
-5.509466 2.439323 4.43612 
-4.561462 2.602061 -1.980917 
-3.586897 -0.673377 -5.039367 
-3.013929 -0.7005808 -6.415203 
-3.2583 -0.4939596 0.9115651 
-4.803847 -0.04662324 7.780362 
-1.853205 0.01604075 8.486105 
-4.874012 3.14559 2.850332 
-4.575181 1.498454 -0.8258569 
-4.379374 2.403865 -5.488194 
-4.211127 -0.40739 -6.919557 
-4.349828 1.315179 -5.105497 
-3.414202 0.01273244 8.475779 
-3.393105 -0.1038538 7.159683 
-5.552814 2.669894 4.912033 
-4.616827 1.616485 -0.2126421 
-4.582917 0.1106066 0.2294421 
-3.612296 -0.604678 -5.421305 
-3.320021 -0.3239072 2.721379 
-4.353455 0.5026157 -4.283036 
-3.618938 -0.5563957 2.161314 
-2.682243 -0.2574559 4.054618 
-4.358639 -0.5090842 -3.01854 
-4.332768 -0.3126245 1.895432 
-3.193764 -0.02835514 7.910544 
-5.762134 2.147349 5.159151 
-3.037362 -0.564747 1.261017 
-4.498561 -0.1619094 -0.6507629 
-4.723069 -0.1356194 3.671695 
-4.68952 0.1548403 2.452507 
-3.0491 -0.0123208 8.174425 
-2.963203 -0.1483341 6.631233 
-5.225249 1.993066 5.644836 
-3.708635 -0.210585 5.069584 
-4.854534 2.011827 4.318215 
-4.412694 2.647944 -5.247579 
-4.335361 0.03678368 8.686181 
-4.888391 1.353784 5.164829 
-3.064343 -0.4925056 -3.362862 
-4.343057 1.906293 -5.888978 
-2.747557 0.05097688 9.03714 
-4.217083 -0.3022695 -6.662212 
-5.636099 2.58613 4.050041 
-4.11929 -0.1712354 5.974395 
-5.045015 0.1163067 9.033422 
-4.480676 0.3692462 -1.744498 
-4.635365 2.116328 -0.2894141 
-4.582583 1.680555 -0.9013804 
-3.188941 -0.3292245 2.353221 
-4.892539 1.154489 5.421988 
-4.609098 2.381009 -0.9216543 
-5.576208 1.032918 9.122673 
-2.470484 -0.2290646 4.921029 
-4.339899 -0.2878001 2.207938 
-4.359884 1.186481 -4.92645 
-3.712072 -0.1248876 6.860857 
-4.669996 -0.2139551 2.720897 
-4.181358 -0.5443708 -3.647749 
-2.892119 -0.03172541 8.011309 
-4.506528 0.217118 -1.012593 
-2.326296 -0.511571 -1.878585 
-4.837468 -0.116313 5.972004 
-4.6677 -0.2085415 2.193851 
-4.237717 -0.5284063 -3.231105 
-5.809493 2.585292 4.246584 
-5.194303 2.518989 4.244307 
-4.110702 -0.5778158 -4.90759 
-4.494691 -0.3250651 -0.1899491 
-4.964962 1.512122 6.603828 
-4.248408 2.782766 -6.401425 
-1.830601 -0.005725409 8.334657 
-4.525232 -0.2262014 3.073946 
-3.706796 -0.5713354 1.13798 
-5.366609 0.8070589 8.924411 
-5.577085 2.024281 5.518708 
-4.011168 -0.6521214 -6.296614 
-3.976353 -0.3058898 2.579788 
-4.612858 1.679995 -0.3441697 
-5.402928 2.42007 4.567541 
-4.714443 1.07801 1.721531 
-4.927721 0.351442 6.223795 
-4.73796 1.570464 2.091194 
-5.837039 2.241677 4.986651 
-2.899998 -0.4728118 -2.880784 
-4.244468 -0.5421979 -4.157955 
-4.55578 0.2969356 -0.3263496 
-5.756424 1.914077 5.803554 
-4.320066 0.6488853 -5.150374 
-4.610184 0.9253961 0.07386754 
-2.760122 0.1057255 9.598927 
-3.223339 -0.1963021 5.776543 
-3.979115 -0.4829831 -2.621106 
-2.266198 -0.3683383 -1.395934 
-4.20621 -0.4044348 -1.351016 
-2.490302 -0.3611596 -0.6486216 
-4.090034 -0.6287103 -3.370958 
-4.388904 0.6892742 -3.713876 
-4.816442 0.5970688 4.5281 
-5.05765 2.150557 5.271858 
-3.057267 0.05881323 9.082088 
-4.663282 0.2515899 1.484376 
-4.484906 0.1698943 -1.681438 
-4.334151 -0.4843094 -2.891414 
-2.738554 -0.5754451 -2.44404 
-4.825581 2.497384 3.610706 
-3.81222 -0.2972063 2.728665 
-4.580197 0.1770358 0.1276405 
-4.632325 1.551953 0.02733672 
-4.509412 0.2299857 -0.9699131 
-4.21038 -0.3480639 -6.641799 
-2.046046 -0.001298221 7.711065 
-4.524189 0.600392 -1.141659 
-2.189473 -0.5347292 -2.355284 
-2.812174 -0.03926998 7.808688 
-3.732483 -0.04340578 7.874827 
-4.706636 1.30201 1.39726 
-4.290613 0.3927114 -5.790892 
-4.512266 1.32806 -2.055024 
-4.342705 1.995359 -5.897685 
-3.808485 -0.08887746 7.29672 
-2.69362 -0.2027938 5.495043 
-2.106259 -0.1778064 5.760411 
-4.823842 -0.1186478 5.22325 
-3.048918 -0.6755635 -5.927278 
-4.054051 -0.2962703 2.59904 
-3.926186 -0.6301717 -3.3758 
-2.502193 -0.6190838 -4.712523 
-2.771958 -0.4948542 0.7646039 
-4.874591 0.4105449 5.587666 
-3.0246 -0.2525873 4.151865 
-3.187629 -0.3601623 0.1060242 
-2.099575 -0.7033731 -6.030667 
-4.68525 1.972537 0.5951456 
-4.329082 2.247608 -6.445713 
-3.610852 -0.6466374 -4.5582 
-2.865868 -0.2265277 5.170925 
-4.416079 0.9237118 -3.475601 
-4.7173 1.761321 1.392659 
-4.496708 0.5601574 -2.124741 
-2.668808 -0.1586349 6.351807 
-3.474994 -0.5415817 1.502792 
-3.413869 -0.450672 -2.055867 
-4.821051 1.002864 4.416428 
-5.813378 2.529501 4.347657 
-4.574127 -0.2851104 0.7109482 
-4.731789 -0.1118272 3.774132 
-1.768148 -0.1280812 5.22176 
-3.977007 0.1457535 9.821975 
-4.681166 0.3939648 1.95172 
-3.969189 -0.6238375 -4.319585 
-4.241139 0.4004561 -6.686549 
-4.735656 0.598922 3.011957 
-3.139735 -0.5047758 2.314623 
-5.630441 1.348303 7.363426 
-2.767559 -0.404348 -1.480697 
-4.415165 1.041151 -3.650749 
-4.456139 -0.06813094 -1.947762 
-2.089408 -0.516452 -2.728676 
-5.687 2.505754 4.225595 
-2.93719 -0.2842395 3.067849 
-4.383009 1.209047 -4.304285 
-4.310318 -0.3355384 0.229783 
-4.74969 2.623587 0.7584283 
-5.186114 2.994712 3.280576 
-4.609635 1.313885 -0.1346135 
-2.216555 -0.2134297 4.657647 
-3.753241 -0.5249643 0.8687125 
-3.860043 -0.2815547 3.13899 
-4.97516 1.632017 6.43879 
-4.864888 0.3132045 5.415605 
-3.034299 0.08688858 9.387558 
-2.120468 -0.3172763 -0.6151652 
-2.535254 -0.3134086 1.207739 
-2.938242 -0.5677246 -1.539575 
-5.129585 0.3152064 9.480566 
-2.744787 -0.6628883 -6.098632 
-4.460398 1.634555 -3.560021 
-4.821287 0.1055618 4.738387 
-4.140177 -0.5551895 -4.516732 
-4.34945 -0.2255895 3.829959 
-4.280783 -0.5230108 -3.015766 
-4.534602 2.085977 -2.474224 
-2.825111 -0.3695448 -0.3210303 
-4.231153 0.02095451 -6.709124 
-4.322865 -0.2008321 -4.481776 
-2.955673 -0.214628 5.385109 
-4.843433 0.07439206 5.322103 
-5.306493 0.3499834 9.917197 
-4.82557 0.2651429 4.835385 
-2.91519 -0.6787087 -6.152552 
-4.341597 1.194341 -5.223239 
-4.911541 0.2792912 6.243837 
-4.340608 2.65645 -6.942725 
-4.305211 0.7506417 -5.965178 
-5.419739 0.9693167 8.462351 
-5.255048 2.308123 4.781771 
-3.172803 -0.5329518 1.473549 
-4.253334 0.4536174 -6.454773 
-4.801497 2.606211 2.510931 
-3.5818 -0.09306147 7.245386 
-3.510176 -0.3549608 0.0455533 
-4.757171 0.8465803 3.375511 
-5.449326 1.509329 7.046436 
-4.808776 2.562867 3.35235 
-3.540549 -0.4925897 -3.6231 
-2.931085 -0.5642667 -0.1264292 
-2.55605 -0.3334693 1.447307 
-4.877032 -0.02049942 8.094681 
-4.876573 0.08126335 5.821909 
-4.700859 -0.164304 3.870153 
-3.188438 -0.1917225 5.968185 
-4.549276 -0.2888485 0.1352288 
-4.207809 0.5071505 -7.110348 
-4.272052 0.9805117 -6.780746 
-3.57988 -0.6366725 -3.408878 
-4.752009 1.311201 2.479768 
-3.366784 -0.6032888 -2.949629 
-4.89633 0.4715092 5.911777 
-2.335776 -0.3336251 -0.6063589 
-2.900445 -0.250746 4.122611 
-2.344727 -0.05056157 7.80447 
-4.250382 -0.0823873 7.624966 
-3.270396 -0.5121602 -3.719743 
-1.941166 -0.39937 -1.358282 
-4.226527 -0.04895294 8.620825 
-3.818442 -0.4633228 -2.230842 
-4.719335 -0.155814 4.644466 
-4.235986 -0.07087968 -6.046658 
-4.723391 1.54003 1.645905 
-4.384812 2.805182 -6.046898 
-3.34848 -0.4501796 -2.720888 
-4.442966 2.457635 -4.296275 
-4.341614 1.01725 -5.390311 
-2.102606 -0.658991 -6.196916 
-4.420798 1.907232 -4.46192 
-4.599144 0.7873145 0.07270629 
-3.639371 -0.5412973 0.1440495 
-2.803879 -0.5779907 -2.372453 
-4.061143 -0.3575585 -7.153169 
-4.890899 1.17004 5.415176 
-4.992059 1.119674 7.72788 
-5.010609 0.5515198 8.000477 
-4.510395 0.7339846 -1.654862 
-2.819133 -0.3778931 -0.6853497 
-2.129069 -0.1970943 5.191442 
-3.965178 -0.4184434 -1.378963 
-4.09253 -0.1281889 6.719682 
-4.376554 0.3366778 -3.56312 
-2.414167 -0.3737403 -1.178945 
-4.971641 0.1863035 7.039504 
-2.572293 -0.5692475 -2.123114 
-5.590728 2.247177 4.977871 
-4.59133 1.791395 -0.9758121 
-4.542352 1.202059 -1.401436 
-4.925138 0.60603 6.270213 
-4.708397 1.259025 1.463321 
-4.520567 1.290111 -1.896645 
-3.237112 -0.3910518 1.411831 
-1.833736 -0.6302955 -5.385901 
-4.843828 0.3916175 4.934674 
-3.815244 -0.01981588 8.183355 
-4.312554 0.5256449 -5.384134 
-2.279855 -0.02438061 8.106334 
-4.165353 -0.2084576 5.059506 
-4.508726 -0.06944605 7.508211 
-3.629926 -0.6618248 -6.070352 
-4.140748 0.07330992 -7.145411 
-3.316445 -0.5011706 -3.92843 
-4.035039 -0.5237899 -2.567636 
-4.757666 2.671723 1.256522 
-2.348217 -0.3482996 0.9881076 
-2.561581 -0.1474848 6.459557 
-5.008891 3.071991 3.092063 
-4.544033 0.475432 -0.6412615 
-4.666072 -0.1843774 1.572541 
-4.314853 2.182019 -6.69916 
-2.969749 -0.5439493 0.01905634 
-2.851801 -0.588313 -2.209978 
-4.873174 1.350584 4.921279 
-2.625201 -0.6491901 -5.524903 
-4.854117 2.363976 4.265777 
-3.279406 -0.333975 0.5159311 
-5.150655 1.924995 5.843837 
-4.475452 2.188666 -3.959175 
-5.168114 1.165252 7.856017 
-2.131183 -0.3179835 -0.6175925 
-4.799934 0.4283395 4.418344 
-4.538114 0.8811317 -1.051716 
-4.523161 2.385466 -3.343882 
-4.670942 1.241601 0.864096 
-3.287446 -0.3143109 1.282899 
-2.916222 -0.4774563 -2.023438 
-4.63426 -0.1306461 5.825449 
-4.902805 0.8680727 5.774346 
-5.088693 2.122997 5.332164 
-3.447667 -0.56281 0.02253294 
-2.473251 -0.3481468 -0.4145465 
-4.345825 2.92235 -5.725145 
-5.313079 1.950583 5.746787 
-4.754987 2.655505 0.8265196 
-4.679642 -0.02368952 2.524169 
-5.675612 1.996014 5.596275 
-4.680666 0.3764452 1.506667 
-3.126699 -0.440432 1.349972 
-2.910075 -0.3833686 -0.8176638 
-2.278546 -0.4620521 -1.708095 
-4.607425 -0.1786314 4.466728 
-3.555756 -0.1866401 5.870602 
-4.405107 -0.1850031 5.364937 
-5.522398 2.525925 4.709287 
-3.746467 -0.5460354 0.3017069 
-5.004182 0.09784401 7.781187 
-1.727604 -0.385704 -1.369296 
-4.732506 2.761849 0.7746722 
-4.292992 -0.3680364 -0.9677374 
-1.846224 -0.1209767 4.90047 
-3.261913 -0.7144355 -6.582975 
-2.930245 -0.3869771 -0.758514 
-3.153649 -0.5699753 0.3937244 
-4.711979 1.668772 1.016473 
-4.353054 2.317738 -5.731001 
-4.868772 2.40634 4.528158 
-2.992688 -0.691015 -5.552232 
-2.236866 -0.20984 4.110364 
-3.128892 -0.3627552 2.753949 
-2.875299 -0.0005142442 8.352094 
-4.783134 2.865411 -0.2128825 
-3.734503 -0.6635361 -6.056381 
-4.840674 2.815466 3.397044 
-4.342552 2.555087 -6.548069 
-4.313532 2.247124 -6.845303 
-4.090981 -0.3819382 -0.6711128 
-4.570672 1.601612 -1.18135 
-3.911151 -0.3927696 1.268269 
-4.292694 -0.4863666 -3.770105 
-3.391959 -0.677468 -6.874675 
-5.37733 1.497768 6.967931 
-3.469514 -0.627474 -2.997823 
-5.011363 0.8097853 8.008734 
-4.050518 -0.4377421 -1.837689 
-3.234766 -0.4643788 1.293754 
-2.286931 -0.3189789 0.4913534 
-3.415053 -0.7060978 -6.596908 
-4.651187 1.606838 0.3059016 
-4.441057 -0.3169728 0.2620292 
-4.217758 -0.5079557 -6.142659 
-3.109192 -0.3499216 0.1979481 
-4.337676 0.06869049 -3.96715 
