ply
format ascii 1.0
comment VCGLIB generated
element vertex 1413
property float x
property float y
property float z
element face 0
property list uchar int vertex_indices
end_header
0.5311354 0.0826636 -0.005420905 
0.08192982 0.1967237 -0.01146316 
0.3727037 -0.5952889 0.003289399 
-1.081841 0.2740277 -0.01782762 
-0.1279584 0.1053247 0.01479762 
1.247694 -0.5212607 0.003112957 
0.6213383 0.8403715 -0.00308005 
1.007045 -0.7389694 -0.003462388 
0.3619951 0.6323053 0.004344245 
0.2541595 -0.8346927 -0.004186813 
0.005424748 0.4265701 -0.01795958 
-0.7275271 0.1298391 -0.006544751 
0.6856859 -0.3519138 -0.01242778 
0.03553681 -0.6228839 -0.01081276 
0.2343574 1.117457 -0.00847555 
0.668232 -0.3059464 -0.01778608 
0.03131102 -0.6498496 -0.007047668 
-1.126513 0.4125298 -0.02842996 
0.3370557 0.365836 -0.02166999 
-0.6982025 0.9506168 -0.02878912 
-0.08438718 -0.7473006 0.008741005 
-0.7980673 0.3808793 -0.003676309 
-0.5437353 0.05999735 -0.002325465 
0.213264 -0.2796877 -0.01025895 
0.1165782 0.8781857 -0.00422825 
1.155198 -0.534157 0.0002537563 
0.465033 0.4202956 -0.02198864 
0.9469744 0.454608 -0.006234542 
0.4078928 -0.9009403 -0.008124564 
-0.05587152 0.1773272 0.01497123 
-1.021051 0.4639681 -0.02448109 
1.154054 -0.04882567 -0.01264903 
0.6811898 0.01639896 -0.01779473 
0.06665959 0.893339 -0.001660069 
0.2982669 0.2627148 -0.01526571 
-1.443795 0.3434913 -0.03600451 
-0.1916639 0.08244368 0.01340518 
1.149252 0.0438873 -0.01192167 
0.6807278 -0.5141527 0.00442666 
0.9349286 0.10732 -0.01789272 
-0.8576245 0.08210222 -0.009810141 
-0.3603106 -0.3222442 0.02275947 
0.3004436 0.4289259 -0.01969102 
-0.1940128 -0.05851665 0.01278311 
-0.1969876 0.1101358 0.01380508 
-0.7930595 -0.1955193 0.03048827 
0.5389282 -0.7125795 -0.008137816 
-0.1679717 1.036944 -0.008326362 
-0.0530448 0.8157833 0.003465937 
-0.5270694 0.940914 -0.02383938 
0.9534866 0.05884973 -0.01829489 
0.245981 -0.9621525 -0.009377692 
0.6158702 1.002348 -0.003621049 
-0.7397634 0.3561676 -0.004866989 
0.4475959 -0.9431081 -0.009808594 
0.4221431 -0.7350041 -0.001234928 
0.2540411 -0.45235 -0.002564739 
0.4289286 -0.2569923 -0.01772896 
-0.6001644 0.9808059 -0.02722505 
0.4394623 -0.3985193 0.001421042 
-0.2911719 0.5206497 0.01963983 
-1.378707 0.4706265 -0.04362454 
0.2992187 -0.4461246 0.002112885 
-0.1089068 -0.5275369 0.01188373 
1.047043 0.1611539 -0.01244327 
0.865923 -0.402979 -0.006078416 
0.4901029 -0.5892247 0.0063055 
-1.416092 -0.03672158 -0.01922888 
0.8998014 0.3313636 0.001135736 
0.3539601 0.6736189 0.008319378 
-0.3185989 0.4165891 0.02584451 
0.741391 0.7153615 -0.007972776 
-0.07086463 -0.08884741 0.01258599 
0.1601575 -0.5531065 -0.01594382 
0.7111987 -0.1488298 -0.02613377 
-1.457284 0.3250408 -0.03480444 
-1.23622 0.6529967 -0.03998612 
-0.185629 0.35495 0.01644452 
-0.1560923 0.5395722 0.001444225 
-0.2893528 0.1279335 0.002926742 
0.006500565 -0.4880048 -0.01306572 
-0.4501262 0.0632204 -0.005294575 
-0.600801 0.7019063 -0.03264899 
0.5464693 -0.5788842 0.002783884 
-0.02532823 -0.7016437 0.001535069 
-0.7064487 0.5516393 -0.01309301 
-0.01287842 -0.8961556 0.01321696 
-0.09649878 -0.8000275 0.01802012 
-0.2468243 -0.3725762 0.01580082 
-0.248504 -0.2158818 0.02487206 
-1.15591 0.0998297 -0.02244856 
0.1149148 0.4396572 -0.0187339 
-0.6747329 -0.06219748 0.01933872 
0.1485164 0.5949811 -0.002531465 
1.244042 -0.5383937 0.003378654 
0.9174652 0.4177075 -0.005969804 
0.2697809 -1.133412 -0.009215541 
0.6710154 0.8699076 -0.003560537 
0.6533962 0.7446485 -0.008830798 
-0.2347936 0.3963983 0.02183304 
-0.1211366 -0.370509 0.007044264 
0.3417669 -0.05962037 -0.008893331 
0.2942454 0.01877952 -0.002919556 
0.8798124 -0.4232263 -0.004866415 
0.8314527 -0.5464169 -0.004039178 
-0.6537638 0.7077515 -0.03265071 
1.041767 0.232324 -0.00916937 
0.8454844 0.2805006 0.002808568 
1.070478 -0.6721092 -0.00181431 
-0.6996993 0.1590734 -0.008660288 
0.9414831 0.3815616 -0.00302769 
-0.9480247 0.4183977 -0.01887064 
0.818412 -0.7554293 -0.008186521 
0.1406321 -0.4949404 -0.01814279 
0.1914758 -0.9440701 -0.008530822 
-0.3630922 -0.1267894 0.02545177 
0.6810244 -0.06339315 -0.02547253 
0.6922793 0.1068924 -0.01243487 
1.056588 -0.4990166 -0.001175128 
0.9800276 -0.3678527 -0.003611854 
0.8295048 0.2501795 0.002078774 
-1.105567 0.3990747 -0.02751317 
0.2839302 -1.153604 -0.00790437 
0.6084772 0.06034285 -0.01224556 
0.1244959 0.2341832 -0.01428987 
1.11387 -0.0884871 -0.01517929 
-1.236822 0.555452 -0.03936855 
-0.7102681 -0.2387761 0.03753496 
-1.044114 0.2193404 -0.01647962 
0.7416271 -0.3054918 -0.01616145 
0.4100853 -1.192915 -0.008518497 
0.3076793 0.701102 0.007157082 
1.013541 0.5105938 -0.003954962 
-0.6575046 -0.279021 0.04449363 
0.9133006 -0.6636 -0.005719415 
0.01708376 0.4257127 -0.01923132 
-0.1482273 0.5496768 0.0001370072 
1.229556 -0.6003606 0.003336709 
0.6998873 -0.8409183 -0.009019137 
0.896438 -0.3010206 -0.01289352 
1.258593 -0.5722479 0.00389689 
-0.08787706 -0.8408197 0.02467135 
0.5018309 0.5012026 -0.01345916 
-0.4780172 0.007942814 0.005624365 
-0.199918 0.4073275 0.01540605 
0.6510836 -0.611506 -0.003392147 
0.7974662 -0.2965427 -0.01642277 
0.9690531 -0.8765561 -0.002205985 
0.7146879 -0.7932088 -0.009168737 
0.6466721 -1.083983 -0.007674831 
-1.490098 0.1643375 -0.02388977 
0.1578291 0.03076924 -0.002889081 
-1.168275 0.3980392 -0.02937793 
0.2786446 -0.6345487 -0.00111952 
0.1728651 -0.3470967 -0.02461743 
-0.303862 0.1074993 -0.0007309485 
0.5884268 -0.3105333 -0.0260343 
0.6281006 0.2273071 -0.006346468 
-0.4897186 0.3880132 -0.0003206599 
0.03033864 0.4303751 -0.02045112 
0.02492922 -0.4450032 -0.01567301 
-0.6464856 0.8672829 -0.03041241 
0.9016169 0.342984 0.0001034315 
0.7018112 -0.2572293 -0.02202919 
-1.25516 0.3254943 -0.03139943 
0.3110859 -0.3063924 0.0005985569 
-0.5146267 0.5770269 -0.009329155 
0.4645333 0.7122911 -0.003615898 
-0.8831497 0.4177102 -0.0126652 
-0.5187818 0.07742134 -0.004554946 
-1.120638 0.4073823 -0.02845441 
0.3565799 -1.204319 -0.007446702 
-0.7478699 -0.212313 0.03151563 
0.3822046 -0.6308094 0.002549844 
0.9189336 -0.8217735 -0.005469362 
-1.136864 0.1949079 -0.02179046 
-0.8187622 0.3991078 -0.004392779 
-0.7444927 -0.1762334 0.03119177 
-1.137074 0.7665348 -0.03964729 
-1.233634 0.5419496 -0.03832984 
-0.1890791 -0.4344471 0.01240854 
-1.043416 0.2240418 -0.01664899 
-1.21053 -0.0869733 -0.02019878 
0.1357679 0.8107097 -0.0007656966 
0.1429089 0.8138301 -0.001550962 
0.5460828 0.4797131 -0.01559402 
1.193632 -0.1829963 -0.009107559 
-0.7394722 0.5185658 -0.006247537 
-0.2315412 0.3134338 0.01727269 
-1.198063 0.3856817 -0.03083926 
0.0505522 -0.3604307 -0.02330809 
0.4604371 -0.04479299 -0.01475656 
0.7530058 -0.801833 -0.008204806 
1.209515 -0.1810024 -0.00897711 
0.3711476 -0.7005827 0.0005787111 
0.6813807 0.8010836 -0.005753718 
-0.1036094 0.5459232 -0.004035163 
-0.390524 0.8140918 -0.01210015 
-0.682043 -0.3512402 0.03565153 
0.249594 0.4989402 -0.00935101 
-0.654687 0.577336 -0.02078283 
-1.081857 0.3626026 -0.02237481 
-1.090844 0.489774 -0.03032364 
0.5878125 -0.1080208 -0.03143423 
0.2554199 -0.4387234 -0.002794617 
-0.9597255 0.823632 -0.04016962 
0.366561 0.8941257 -0.01194434 
-0.8128202 -0.1694079 0.02468131 
0.6720886 -0.6852247 -0.009129163 
-1.005611 0.400039 -0.0195362 
-0.9593945 0.06263907 -0.01583645 
-1.329582 0.5230354 -0.04124931 
1.048873 -0.4755186 -0.001380061 
0.6331062 0.1493224 -0.00752236 
0.7380633 0.08654425 -0.01545901 
-0.7213933 0.2534023 -0.00987051 
0.9863819 -0.1360859 -0.01920603 
-0.7460653 -0.2245379 0.03196205 
-1.051308 0.7459203 -0.04144683 
0.5872622 -0.04054153 -0.02466053 
0.4377592 0.7469119 0.003511301 
-0.3609007 -0.4774099 0.02572318 
0.3251777 1.001155 -0.01341192 
0.1502684 0.4461617 -0.01561807 
-1.281858 0.1185385 -0.02151611 
-0.1595826 0.3251867 0.01502718 
-0.6700277 -0.3750484 0.02731606 
0.7953293 -0.8859333 -0.007193835 
1.175382 0.07934137 -0.01063455 
0.7924263 0.7076138 -0.006813528 
-0.3532549 0.7189596 0.0002854143 
-0.7129922 0.05791315 0.001657944 
-0.05514804 0.5710673 -0.005192704 
-0.6379024 0.07221077 -0.001158888 
0.9592803 -0.07807551 -0.02143593 
0.8425848 0.008460275 -0.02176712 
0.8604909 -0.2004348 -0.02185361 
-0.8358862 0.5335817 -0.01658147 
0.09207419 -0.05143758 0.004522228 
-0.0777477 0.4908284 -0.006850974 
1.005954 -0.2279134 -0.01444473 
-0.2246531 1.02298 -0.009890764 
0.06789181 -0.2954903 -0.02179044 
-0.2942747 -0.1878783 0.02857452 
-1.383145 0.2230482 -0.0275294 
-0.1206324 0.3675693 0.006503209 
0.9634658 0.594934 -0.003699549 
0.5031223 0.6086375 -0.008001591 
-0.01583253 -0.6342094 -0.00720179 
-0.5473763 0.3053755 -0.01892764 
0.9906146 0.09128686 -0.01576743 
-0.1861529 0.3746358 0.01499022 
-0.4054044 0.03065226 -0.002602709 
-1.003669 0.2387139 -0.01512155 
-0.551467 0.07054718 -0.003891029 
0.1733675 0.4727272 -0.01227059 
0.7547413 -0.04934452 -0.02226655 
-0.6203403 0.1262189 -0.006993209 
-0.4870581 -0.1944768 0.04848799 
-0.8703193 0.1991126 -0.01035813 
0.7292671 0.3614976 -0.0100457 
-0.7474795 0.5900087 -0.02271805 
0.2814287 -0.2925598 -0.002509629 
-1.117596 0.1502408 -0.02001411 
0.2386656 0.4305615 -0.01496611 
-0.3834566 0.869457 -0.01430162 
0.150778 0.0367856 -0.003524438 
-1.266038 0.3179401 -0.0309668 
-0.6265547 0.6434136 -0.03135269 
0.4052309 0.5387769 -0.009380713 
-0.1708241 -0.5080944 0.02902624 
0.4615447 -0.4529463 0.009568415 
1.05433 -0.06934549 -0.0164011 
1.088386 -0.798856 0.000731455 
-0.3287989 -0.1409268 0.02470431 
-1.260568 0.10784 -0.02183532 
0.02951635 -0.3987237 -0.01862334 
-0.842783 -0.143134 0.01582239 
0.5122148 -0.3509692 -0.02027942 
0.3087862 0.3333485 -0.01876716 
-0.2706375 0.4094291 0.02405999 
0.6324089 -0.6877575 -0.008737399 
0.5582017 -0.8823112 -0.01060187 
-0.2224551 0.1412486 0.01237628 
-0.3374792 0.2043822 -0.001343996 
0.3976571 -0.767796 -0.002137815 
-0.6633431 0.6901329 -0.03256642 
-0.813641 0.2609012 -0.009288124 
0.437093 0.4909291 -0.01633536 
-0.2553203 0.1509633 0.008516829 
-1.004407 -0.05736575 -0.02285345 
0.7002714 -0.3224052 -0.01551832 
0.9532523 0.4994021 -0.006589292 
-0.4382362 1.009696 -0.0183059 
0.5956764 -0.4828153 0.001232029 
0.4807754 0.8819811 -0.005664578 
-0.789848 0.7987985 -0.03409655 
0.2353409 -0.8809394 -0.005553706 
-0.4560723 0.05304093 -0.003195317 
0.2423335 0.3068936 -0.01293469 
-1.313206 0.006123309 -0.01888732 
-0.3029974 -0.4796327 0.01626867 
0.3828878 -0.8989139 -0.007862387 
0.1390617 0.3982193 -0.01593008 
-0.7057977 -0.02147361 0.01247592 
1.068474 0.4472699 -0.003788589 
0.4614236 -0.7908453 -0.005242974 
0.5591329 -0.936528 -0.01079616 
0.2305357 0.7167594 0.01170557 
-1.339442 0.4930614 -0.04122115 
-0.06871454 0.2370663 0.01103263 
0.355847 0.05950915 0.002285595 
-0.1204388 0.2531374 0.0161886 
1.203288 -0.6872774 0.002499144 
0.5089262 -0.4077255 0.001130741 
0.1005121 1.00867 -0.006074852 
-1.031967 -0.1531926 -0.01778609 
-0.7477164 0.7149004 -0.03193211 
-0.3386346 0.1199066 -0.005697974 
-0.2715751 0.3823295 0.02240479 
0.4717502 0.7403572 0.001386014 
-0.2142464 -0.2935633 0.02841986 
-0.3045902 0.2925116 0.01407776 
0.2764574 -0.532979 0.002198862 
0.0832258 -0.7381615 -0.006174881 
-0.1888026 -0.5785962 0.02095688 
0.8098627 0.1983057 -0.009182487 
-0.05930496 -0.923034 0.0292753 
0.1959018 -0.4512111 -0.0135482 
-0.2500492 -0.2245171 0.02588729 
0.1689843 -1.076568 -0.009968558 
-0.1304528 -0.2044253 0.02087599 
-0.005847649 -0.2262675 -0.003980376 
0.2661585 -0.2733422 -0.001362276 
-0.1104817 0.07885809 0.01679685 
-0.2330997 -0.3211448 0.02551674 
-0.7418218 0.2690517 -0.009653673 
0.7554236 -0.3537858 -0.01354543 
-0.2467157 0.2339892 0.01601722 
0.1779476 0.6630439 0.0128673 
-1.073759 0.5372249 -0.03321074 
-0.6563606 0.2002183 -0.01031492 
0.3531054 0.1285561 0.002410955 
-0.3071816 0.3825321 0.02549147 
-1.222757 0.4892887 -0.03841541 
-0.2464724 -0.3672554 0.01711159 
0.4524178 -0.7058822 -0.001472114 
-0.3932274 0.7990644 -0.01118355 
-0.1035343 0.203885 0.01612769 
0.4571775 -0.1354174 -0.02887292 
0.8111603 0.7122031 -0.00607048 
0.4708378 -0.2420766 -0.02289 
0.5923342 0.3539122 -0.01574251 
1.137199 0.1683917 -0.008617877 
0.2939891 -0.6676595 -0.001287854 
0.2606904 0.2578319 -0.0146887 
0.7868127 -0.6083757 -0.00622173 
-0.8224663 0.06573114 -0.007572015 
0.2230815 0.2731443 -0.01379141 
0.4476269 0.6632937 -0.004836439 
0.1089582 -0.1977086 -0.004075447 
0.5584182 -0.1519375 -0.03206053 
-1.253222 0.3955888 -0.03497721 
-0.432245 -0.3962235 0.02756996 
0.649225 -0.174615 -0.02744543 
-0.04761631 0.3561692 -0.00642598 
0.08200676 0.4932172 -0.01855762 
0.1746388 -0.3990808 -0.01855167 
-1.110335 0.01642336 -0.02296838 
-0.1245711 0.1942344 0.01694059 
0.6895975 0.5533596 -0.009936512 
0.2199886 -1.064954 -0.01099869 
-0.3716578 0.1956338 -0.008781866 
-0.4795747 0.007499786 0.005715849 
-0.1843435 0.5646446 0.00370508 
0.6788367 -0.6840316 -0.009118788 
-0.01954132 -0.4102683 -0.009863702 
1.020221 0.4287956 -0.004174747 
-0.4700119 -0.287486 0.04045106 
-0.1492286 -0.6921599 0.01266566 
-0.1973314 -0.5173702 0.03137739 
0.9729279 -0.8249182 -0.003706743 
-0.05386174 -0.7406983 0.006438543 
-0.560455 0.7945683 -0.02943007 
-0.9743461 0.4763888 -0.02521531 
0.1296123 -0.9198037 -0.006689978 
1.14729 -0.2054079 -0.00968273 
0.8146328 0.1588177 -0.01579885 
-0.01441229 0.8497404 0.002315841 
0.03628068 -0.7191519 -0.001539925 
-1.402261 0.2935979 -0.03414194 
0.3172709 0.1802281 -0.005663347 
0.1508376 0.3034577 -0.009253424 
0.5658306 0.08390922 -0.007683967 
-0.1472782 -0.7124984 0.01311965 
0.9764305 0.03803335 -0.01819468 
-0.09158446 -0.8355156 0.02400191 
1.116954 -0.5537305 0.0003895576 
-0.08924207 -0.4294407 0.01060984 
0.2126044 0.7111893 0.01378431 
-0.3504235 0.4389319 0.02608956 
0.483796 -1.126274 -0.009884351 
0.6943244 -0.6137214 -0.003886675 
0.6346371 0.06196475 -0.01255758 
0.7367237 -0.4380118 -0.005512956 
0.2452106 0.4775454 -0.01119704 
-0.6712233 0.1086903 -0.005371594 
-0.5764064 0.09797733 -0.004284317 
-0.1585138 0.7515516 0.00376323 
0.3129261 0.3336661 -0.01914731 
0.3236218 -0.5566261 0.003776487 
-0.1005995 -0.2122237 0.01691247 
0.1924304 0.643727 0.009959456 
0.1263318 -0.5362676 -0.0173976 
0.580575 -0.5746788 0.0005335081 
-0.6132001 0.1405655 -0.008837065 
-0.6401237 -0.360931 0.0290572 
1.027011 0.1887248 -0.01111731 
-0.1866873 0.3691969 0.0154429 
0.8886918 -0.7916446 -0.005329978 
-0.5788776 0.4895492 -0.02621869 
1.196502 -0.3962695 0.00322424 
-0.4538909 0.622887 -0.0006820028 
0.2762449 -0.9949729 -0.01072955 
0.154232 0.7720455 0.003269763 
0.1276025 0.4301947 -0.01800418 
0.7726703 0.7234719 -0.006899914 
-0.9849842 -0.006181006 -0.01984934 
1.180957 -0.1183601 -0.01296154 
0.771208 -0.6479224 -0.00736563 
0.3891107 -0.8229717 -0.003918929 
-0.008041549 -0.725281 0.003346178 
-0.32331 0.5386205 0.02156207 
-1.483386 0.1459829 -0.02341972 
-0.7433265 0.1624064 -0.008880056 
-0.8417915 0.388037 -0.006509721 
-0.05918092 -0.5530951 -0.005871597 
-1.012613 0.6646582 -0.04032586 
-0.5979564 0.1933526 -0.01255313 
0.2904567 0.6520598 0.006294304 
-0.3425145 -0.1248759 0.02327606 
-0.4803038 -0.312635 0.0374583 
0.3230822 0.6732435 0.004925391 
0.7095016 -0.7606801 -0.009191343 
-1.205896 -0.07007354 -0.02049755 
-0.3124509 0.9565994 -0.01078567 
0.1165361 0.8147133 0.0005302519 
0.7136621 -0.1141626 -0.02618114 
0.4985664 0.7570034 0.0007227844 
-0.9723134 0.141524 -0.01340061 
0.09295131 0.7444802 0.002969465 
1.169917 -0.2482423 -0.004126769 
-0.7466076 0.07758249 -0.003944103 
-0.667466 -0.1660279 0.0376274 
-1.06855 0.6983281 -0.04168033 
-0.2789918 -0.04420754 0.009024577 
0.4173536 0.9981131 -0.01036119 
-0.1222896 0.2045493 0.01720878 
0.7710106 0.2877617 0.0007304592 
-0.2201513 0.3804119 0.02028803 
-0.04290049 0.7500561 0.00734006 
0.4239049 -0.194406 -0.02669747 
0.4730003 0.4037749 -0.02203014 
-0.05839952 0.9216279 -0.003799732 
0.7069866 0.6034293 -0.00984373 
0.244599 0.2071141 -0.01502006 
-0.7304593 0.8379282 -0.03052785 
-0.2797387 0.5099323 0.01916393 
1.076366 0.2777571 -0.007901671 
-0.009145272 0.9389027 -0.004506249 
0.01719055 -0.8580344 0.001383943 
0.4129831 -0.805977 -0.004029843 
0.6626913 -0.5906856 -0.001178987 
0.958142 0.009809265 -0.01935775 
0.3713301 -0.8965601 -0.007468489 
0.4349525 -0.1554643 -0.02911116 
0.9297583 -0.8717272 -0.004400852 
-0.1921684 -0.6079953 0.01680335 
-1.395183 0.0004828125 -0.01948284 
-0.7153504 0.9258259 -0.02985929 
-0.1459534 0.960288 -0.006104674 
-0.8621161 0.3927736 -0.008683594 
-0.1461358 -0.3566703 0.02110153 
-0.1571929 -0.2148798 0.02232944 
1.061848 -0.2036331 -0.01627865 
-0.7764177 0.2962209 -0.007139606 
0.2047939 -1.024357 -0.01092805 
0.1018819 -0.1091708 0.008758263 
0.5742597 -0.07571316 -0.0294585 
-0.07008272 0.004088185 0.01071448 
-0.3824874 0.881554 -0.01457223 
0.7516682 0.04812492 -0.01649556 
-0.431769 -0.115626 0.0295806 
-0.5681195 0.8277201 -0.02823775 
-0.3386602 -0.4332442 0.01705769 
0.7818285 -0.001098544 -0.01980237 
0.4070583 0.9294789 -0.009961085 
0.9233317 -0.05471152 -0.02133464 
0.2374606 0.2821303 -0.01466127 
-0.06904086 1.009942 -0.007917193 
-0.4664475 0.03896912 -9.287341e-05 
0.4942885 -0.8831236 -0.009300221 
0.1171261 0.498258 -0.0155134 
1.168285 -0.7037045 0.001921405 
-0.04961909 0.661298 0.004307027 
-0.06454273 -0.07201363 0.01224394 
0.8020211 -0.1706772 -0.02355933 
-0.5472733 0.8817279 -0.02811743 
0.3586954 -1.189589 -0.006893539 
0.2862588 0.0566308 0.0005808827 
-1.345215 0.2154314 -0.02632871 
0.5688922 -0.1603456 -0.03149958 
0.1235971 0.1611257 -0.01158964 
-1.323868 0.02411837 -0.01932589 
-0.08698054 0.05809542 0.01679234 
-0.7579719 -0.03414198 0.007783953 
0.3076049 -0.0244017 -0.002436626 
0.3907821 -0.04607919 -0.01085353 
0.9127205 -0.191658 -0.02189947 
0.6734747 -0.8807339 -0.00910119 
-0.9259547 0.6320497 -0.04013001 
1.192354 -0.5679713 0.002007322 
-0.1909854 0.5516645 0.004535827 
0.6997923 -0.03480231 -0.02356671 
-0.4607155 0.9848363 -0.01993894 
-0.6330977 0.4432765 -0.01113684 
-0.9303794 0.5157145 -0.02562526 
0.60824 -0.7412426 -0.009958113 
0.01695044 -0.7816557 -5.077739e-05 
-0.4995588 -0.1209056 0.03265822 
-0.3846045 -0.001563751 0.002855673 
0.2235525 0.7161417 0.01322817 
0.7304697 0.4541159 -0.01352308 
-0.522417 0.06379406 -0.002507748 
1.162026 0.09642193 -0.01031662 
-0.7739533 0.1146588 -0.007389181 
-0.7161525 0.2172798 -0.009966121 
-0.7336797 0.6162508 -0.02650524 
-1.465128 0.153347 -0.0236236 
-0.560734 0.173513 -0.01326258 
-1.128755 0.536447 -0.03485489 
-0.5494925 0.6020555 -0.02034089 
1.222156 -0.3397759 0.002646262 
-0.6117215 -0.05459625 0.02024542 
-0.8835187 0.5158131 -0.02117369 
-0.3190844 0.7543237 -0.002232127 
-0.6896833 -0.2097208 0.03802386 
0.102675 0.9640807 -0.00549633 
-0.2582698 0.4758202 0.01699306 
-0.8490547 0.2414601 -0.009286895 
-0.05023276 -0.9143865 0.02423481 
0.1827275 1.1402 -0.00674727 
1.033965 -0.6210463 -0.002770205 
0.277423 -0.7539579 -0.0009016709 
1.054312 -0.6305202 -0.002304351 
-0.2769792 0.745988 -0.0006402911 
-0.9628363 0.2656837 -0.01397444 
-0.1301187 -0.3450888 0.01060393 
-0.3994032 0.5246254 0.01557063 
-0.3354874 0.9864621 -0.01231084 
-1.412013 0.09805544 -0.02054716 
-0.7121584 0.04466263 0.002313495 
0.6123751 0.9019464 -0.004010454 
-0.3306286 0.7452228 -0.002146862 
-0.6054025 -0.1936136 0.04274034 
0.5695705 -0.5619798 0.002746554 
0.001224372 0.09355713 0.005745988 
0.801496 -0.5227827 -0.001409335 
0.23207 0.535491 -0.007464127 
1.01325 0.2560816 -0.007943776 
0.2724926 0.5293024 -0.007596992 
-1.289308 0.3678908 -0.03439204 
-0.4834472 0.4154014 0.004018054 
-0.1152952 -0.1961296 0.01860992 
-1.095589 0.7812893 -0.03998099 
-1.046072 0.6910936 -0.04158856 
-0.7499028 0.201554 -0.008806293 
0.3075641 -0.1038092 -0.01074838 
-1.040373 0.1000263 -0.01714659 
-0.7597558 0.03537212 -0.0005140186 
-0.7799598 0.4812066 -0.00414422 
0.5145804 0.1665345 -0.006073686 
-0.8612082 -0.1208942 0.004418309 
0.3558372 -0.1165164 -0.01921351 
-0.1932591 -0.5597881 0.03048944 
-1.318861 0.4220583 -0.03798479 
-1.050245 0.7026017 -0.04137367 
0.7679383 -0.7297592 -0.008823832 
-0.03025945 0.1981398 0.009527826 
0.03457183 0.05564712 0.00219233 
0.5471357 -0.4187599 0.004938066 
0.827322 -0.0005319058 -0.02104261 
0.216402 -0.8549122 -0.005470076 
-0.4840698 -0.1918437 0.04805394 
-0.4983009 0.6479876 -0.0183087 
-1.224208 0.4947116 -0.03891001 
0.7092515 -0.6119609 -0.003495989 
0.8393326 -0.7157914 -0.008446757 
-0.3797933 -0.4363199 0.02489159 
0.4714459 -1.02124 -0.01093167 
0.3043562 -0.4811129 0.001982528 
-0.5987215 0.4596792 -0.02102415 
-0.07917641 -0.1587228 0.01531722 
0.8563535 -0.9624832 -0.0053933 
-0.5475507 -0.3334684 0.03847613 
1.099844 -0.5195282 -0.0007264891 
-0.166881 0.9492716 -0.006209909 
-1.072724 0.5799587 -0.03692351 
0.1894887 -0.349753 -0.02333368 
0.7847524 0.2647864 0.0006405151 
-0.3435907 -0.4140624 0.01587551 
0.1458247 0.3996478 -0.01502295 
0.3469418 0.4481432 -0.0205446 
0.4131509 0.162661 -0.0006806999 
-0.2447161 1.084783 -0.0130091 
0.03815395 -0.213875 -0.006494962 
-1.378262 0.2867996 -0.03293691 
0.6149728 -0.3034107 -0.02446015 
-1.092091 0.7449561 -0.04018576 
0.4779515 0.1242321 -0.004421233 
0.4560912 0.01156184 -0.0114667 
0.3722344 0.2338361 -0.01166849 
0.481759 0.85238 -0.001163467 
0.7659582 -1.041659 -0.005543455 
0.4053758 0.7680647 0.002650968 
-0.1795828 1.108954 -0.01011682 
0.7312766 -0.3095665 -0.01607654 
1.178892 -0.4675049 0.001404939 
0.2493999 0.6591344 0.01524834 
-0.5719755 0.5523146 -0.02192106 
-1.060515 0.8328158 -0.03945339 
0.7798377 -0.7744869 -0.00857123 
0.6827113 0.3211853 -0.009967505 
0.8896626 -0.5579079 -0.004239124 
0.8295466 0.4251216 -0.008968692 
0.7051281 0.1955701 -0.007660394 
0.6482126 0.7221932 -0.009816343 
-0.1774577 0.7300094 0.003947196 
0.4450418 -0.9733446 -0.01114159 
0.7401863 0.3446938 -0.006862113 
0.8790911 -0.6165957 -0.00620756 
-0.2468372 -0.09417696 0.01647846 
-0.06806386 1.122869 -0.009970671 
0.5710754 0.745186 -0.007265575 
-0.2482791 -0.4029816 0.01157341 
0.673098 0.854706 -0.00337967 
-0.7714536 0.6297702 -0.02792028 
0.5841201 0.3642229 -0.01653148 
-0.001419618 0.4573321 -0.01721702 
0.2454508 -0.272972 -0.003910775 
-1.082338 0.550481 -0.03474668 
0.3481782 1.033151 -0.01217094 
-0.221402 -0.1512645 0.01766302 
0.5269687 1.056105 -0.004826304 
-1.15555 0.3274471 -0.02502972 
0.1507491 0.7096562 0.00546561 
-0.6942211 -0.03448505 0.01420805 
-0.1133821 0.2531629 0.01536995 
1.057598 0.07893416 -0.01364735 
0.1683363 -0.9204325 -0.007697443 
0.3752698 -0.04234161 -0.009014414 
0.3273879 0.3340023 -0.02006606 
0.0480652 -0.2353509 -0.01109423 
-1.453529 0.1192939 -0.02131449 
0.5766703 -0.2527327 -0.02256295 
0.7494968 -0.7903386 -0.008243601 
0.2873546 -0.9128153 -0.006964639 
0.7492819 -0.9572393 -0.007106759 
0.2446507 -0.4422674 -0.004559956 
-0.3010686 0.8725527 -0.008082819 
-0.4134388 -0.2380672 0.04217527 
0.7309529 -0.5395932 0.003936558 
-1.208873 -0.04804984 -0.02097852 
0.972023 -0.2008757 -0.01947145 
-0.2650248 0.1854785 0.009703221 
0.4941616 -0.9877058 -0.01097291 
0.4209975 -0.8205532 -0.00493744 
-0.9297255 0.6994361 -0.04136435 
0.02865609 -0.1255453 0.007723377 
0.5668775 0.4721313 -0.01587697 
0.1212505 1.057625 -0.006075153 
-0.3564757 0.02501683 -0.002628175 
0.5685556 -0.6706101 -0.007126869 
-0.8602199 0.4192325 -0.009303731 
-1.345786 0.1211971 -0.02071812 
-0.2693758 -0.4911881 0.02054562 
0.05759537 0.1544023 -0.005835836 
-0.08765479 -0.6981323 0.001663855 
0.4873463 0.1835559 -0.004191361 
-0.8562241 0.8070977 -0.0373823 
-0.1236754 0.327621 0.01061938 
0.4473498 -0.3187118 -0.02078692 
-0.7807576 0.4713777 -0.003038318 
0.2658427 -0.04748811 0.002459378 
0.294404 0.1482718 -0.005101936 
0.9798183 -0.3773614 -0.003416977 
0.7849637 0.3074803 0.003756972 
-0.4707868 0.8092074 -0.02300208 
-0.5570447 0.5800105 -0.01594413 
-0.2308669 0.235274 0.01730529 
0.959125 -0.7717937 -0.004624848 
-0.8863881 0.321068 -0.01012764 
0.4870778 -0.1988891 -0.02949888 
-0.5978945 0.1207289 -0.006323204 
0.9077938 -0.1437204 -0.0224443 
-0.1069035 -0.4999771 0.01632484 
-1.284237 0.3696388 -0.03442031 
-0.1179472 0.7610254 0.004581521 
-0.03565086 -0.3833147 -0.009406471 
-0.3373985 -0.3764133 0.0159375 
-0.6432784 0.7293965 -0.03229701 
0.5752312 0.5382277 -0.01109151 
0.01932649 -0.5334303 -0.01436555 
-0.322262 -0.04163541 0.007192763 
0.1165783 -0.2467983 -0.01453484 
0.3091883 0.1912195 -0.008252402 
-0.6946391 -0.007209 0.009813888 
0.3809124 0.2740852 -0.01750454 
-0.5260084 0.2963478 -0.01909098 
1.116422 0.1405728 -0.01102466 
0.7918854 -0.13755 -0.02311451 
-0.9046237 -0.137889 -0.006837529 
-1.157395 0.7482988 -0.03959018 
-0.5987235 0.9715097 -0.02696297 
1.001967 0.284369 -0.005594428 
-0.8180161 0.8252168 -0.03490764 
0.6598567 -0.04598607 -0.02509307 
-0.1446038 0.2442761 0.01719372 
0.405172 0.7222053 0.005407242 
0.1754766 0.9259728 -0.01033897 
-1.408241 0.4127688 -0.0416999 
0.253263 -1.061696 -0.0113216 
-0.09816998 -0.002510075 0.01220801 
-1.33015 -0.03922823 -0.01917486 
0.249207 0.8080002 -0.009686023 
0.8724111 -0.4203824 -0.004826327 
-0.2227722 1.067774 -0.0116796 
-0.3200227 0.3464636 0.02094941 
-0.6470551 0.2742223 -0.01574073 
-0.2307612 0.4828284 0.01489467 
-0.9036657 0.2934791 -0.01193178 
-1.19509 0.1387756 -0.02216011 
0.8797603 -0.9721835 -0.004395072 
-0.1158662 -0.7953292 0.01919975 
0.3920483 -0.5173697 0.005116852 
-0.6205238 0.9920164 -0.02967843 
-0.04622395 -0.2091033 0.00547612 
0.5412915 0.1947099 -0.004479359 
0.4008849 0.4755835 -0.01886693 
-0.9546235 -0.1295791 -0.01664757 
0.08462684 0.5441697 -0.01445074 
0.3412942 0.9033874 -0.0140203 
0.6140655 0.7605649 -0.006137993 
0.3510938 -0.9700229 -0.01085593 
-1.079844 0.8547257 -0.03983156 
-0.9629425 -0.01391393 -0.01918009 
-0.9138306 0.7684097 -0.03908143 
1.016404 0.3766893 -0.003279493 
0.5167773 -0.6196226 0.0006635907 
0.2634625 -0.9848832 -0.01031122 
0.03049098 -0.071711 0.007620934 
-0.4316016 0.3074546 -0.01135024 
-0.2844617 0.06289706 0.002160991 
0.3445266 -0.9917207 -0.01153069 
0.9902063 0.1577959 -0.0136778 
-0.7578778 -0.215005 0.03094107 
-0.4339983 -0.3791296 0.02907055 
-1.239396 0.05817933 -0.02165114 
-0.9618704 -0.1754481 -0.01121648 
-0.295041 -0.1545562 0.02245788 
1.210242 -0.3448706 0.001896922 
0.2642694 -0.3110998 -0.007680787 
-0.5005818 0.1139073 -0.01035925 
1.146927 -0.6015513 0.0005283055 
-0.3636926 0.9250339 -0.01303591 
0.8665908 -0.1038401 -0.02326901 
1.07853 -0.2981729 -0.004343462 
-1.149553 0.09640002 -0.02172026 
-1.345207 0.5327227 -0.04125904 
-0.7743995 0.8037203 -0.03362852 
-1.013963 0.00455336 -0.02039814 
0.5866204 -1.082119 -0.009384993 
0.2038115 -0.1521431 0.005045298 
1.025424 0.3292346 -0.004564436 
0.9113207 -0.8290105 -0.005631695 
0.2888963 -0.3418502 -0.01069868 
-0.1642091 0.2376147 0.01617201 
-0.3285222 0.8998741 -0.01049282 
0.6151487 -0.5225911 0.002666578 
-1.411074 0.3620682 -0.03818134 
1.082073 0.1895176 -0.01099107 
-0.1002701 0.700001 0.005055955 
-0.7021239 -0.1898811 0.03710263 
0.9280026 0.4907667 -0.007450739 
0.2130638 -0.1033287 0.003163514 
-0.2978964 1.07852 -0.0136815 
1.065501 0.4811637 -0.003334368 
0.3981051 0.03074467 0.002152373 
0.7256975 0.2434406 -0.006893569 
0.9190779 0.7440186 -0.001800067 
0.7512154 -0.488867 0.001459881 
-0.4152558 -0.3698648 0.03095872 
-0.1856269 0.9553461 -0.006380092 
-0.6290347 -0.2402669 0.0444799 
1.139994 -0.7476124 0.0007246587 
-1.097393 0.5624539 -0.03619381 
-1.16635 0.09710012 -0.02297225 
0.8487644 -0.07055924 -0.02326592 
0.5288321 -0.6492875 -0.003532179 
-0.4212642 0.4835145 0.006607876 
-0.7602808 1.001093 -0.03118237 
-0.07010886 0.8586901 0.0004181924 
0.4082058 0.02205108 0.001248473 
-0.4042093 0.9834661 -0.01575063 
-0.1818912 -0.1836419 0.01593037 
0.9952651 0.04649386 -0.01664802 
0.1222712 -0.5856524 -0.01538512 
-0.4499843 -0.02108385 0.01035664 
-0.2385434 1.080655 -0.01226951 
0.695418 0.6056205 -0.01017534 
-0.004363279 -0.909632 0.01141349 
0.1025972 -1.013332 -0.006862728 
0.08781018 -1.084557 -0.003855621 
-0.7217718 0.3980328 -0.002474138 
-0.6740376 0.9343715 -0.0310447 
-0.2529644 0.8045758 -0.003340323 
-0.510545 0.5560386 -0.00937226 
-0.5177131 0.9459336 -0.0229797 
-0.04669237 -0.9550018 0.02530083 
0.760552 0.02234527 -0.01822905 
0.3482152 0.7988579 -0.001541333 
0.9778097 0.3603731 -0.002202193 
-0.2646364 -0.1696459 0.02375023 
-0.4305671 0.8102095 -0.01743863 
-0.6860803 -0.1064843 0.02630184 
0.2697855 -0.05328982 0.001272004 
0.5564138 -0.2034425 -0.02893963 
-0.7638609 -0.3133211 0.02970608 
-0.0658358 -0.09588237 0.0119676 
-1.167235 0.02321913 -0.02272306 
0.513907 -0.9851447 -0.01085578 
1.173035 -0.3164518 0.0006301386 
0.6027759 0.8137771 -0.002096906 
-0.7795905 -0.02901406 0.004248888 
0.01509017 0.8856961 -0.0003849412 
-0.9499078 0.4315354 -0.01887244 
0.3586869 0.3553202 -0.02296919 
0.1417206 -0.2443018 -0.0123108 
0.5053866 0.7588207 -0.0001348914 
-0.6917704 -0.3571145 0.0333043 
1.178351 -0.132088 -0.01273264 
0.4548286 -1.000047 -0.01108311 
0.6054757 -0.7507904 -0.01042674 
-1.22711 0.4113953 -0.03465775 
-0.9155937 -0.09233527 -0.0158776 
-0.169398 0.4051912 0.0115441 
0.6547488 0.7648359 -0.007609005 
-0.0974842 0.7796534 0.005013195 
0.3141714 -0.02391682 -0.002709099 
-1.310026 0.02195615 -0.01925354 
-0.7708551 0.9981865 -0.03133618 
0.5600828 -0.155704 -0.03187774 
-0.8445296 0.3626112 -0.008164732 
-0.009963034 0.08785707 0.006310014 
-0.7173267 -0.265944 0.03596163 
0.3642191 -0.1515713 -0.02107046 
-0.6216489 0.8654379 -0.03113601 
0.6801666 -0.8510171 -0.00931473 
0.3408227 -0.9170452 -0.008046301 
-1.124066 0.2102582 -0.02142364 
-0.02082453 -0.7835687 0.005207615 
1.071359 -0.1592266 -0.01679475 
-1.016094 0.3323488 -0.01842878 
0.7220548 -1.061525 -0.006328529 
-0.09285304 0.08148296 0.01846632 
-0.1730549 0.5874316 0.002423733 
-0.4218716 0.6767738 -0.0009092056 
0.3160706 -1.022169 -0.01161251 
-0.02201307 -0.8934745 0.01596312 
-0.2702082 0.9017389 -0.007216297 
-0.1681269 -0.6867098 0.01503315 
0.8488477 -0.3767959 -0.008114478 
-0.1623801 -0.1483078 0.01625638 
-0.03786368 1.011991 -0.008387387 
0.4653283 -0.5211371 0.01070832 
0.1523969 -0.08058731 0.009544449 
-0.3115186 -0.3410948 0.02106055 
0.2697148 0.1585652 -0.009029381 
-0.4981176 0.5941716 -0.00847716 
-0.9903611 0.8934357 -0.04028526 
0.4331498 -0.07434721 -0.02033951 
-0.113197 -0.2185491 0.01912293 
0.704504 0.4615523 -0.01299346 
-0.7477136 -0.2405435 0.03244453 
0.07381006 -0.4055859 -0.02015201 
0.4918212 -0.2931445 -0.02373429 
-1.376495 0.1750195 -0.0234111 
-0.8503402 0.03573295 -0.009426432 
0.1601013 -0.799911 -0.007483894 
-0.6844113 0.9672306 -0.02937144 
-0.3943715 0.2354981 -0.01060419 
-0.8374802 -0.1172447 0.009929787 
-0.9234288 0.8413483 -0.0379128 
1.167808 -0.4362348 0.001229227 
0.4579331 -1.063922 -0.01095345 
-0.3143602 0.5703226 0.01828226 
-0.1874798 -0.3738684 0.02647014 
0.5524978 -0.9727144 -0.01072769 
0.93636 0.06204412 -0.0191935 
-0.6336247 0.4101718 -0.001268998 
-0.3875227 0.2043425 -0.01126195 
-0.571673 0.9566929 -0.02591218 
-0.9063772 0.1223289 -0.01122887 
0.3562312 -0.6816626 0.001307252 
0.1298546 0.8861293 -0.005669408 
0.1130447 0.059303 -0.003458723 
1.139086 -0.4719982 -0.0009827325 
-0.09001534 -0.2147188 0.0148153 
0.9599298 0.7067943 -0.0008074037 
0.4056918 -0.7008908 -0.0002895498 
0.3659597 1.015515 -0.01236495 
-1.427864 0.317596 -0.03543209 
0.5703155 0.384874 -0.01779438 
-0.9861905 0.5619927 -0.03204273 
-0.1923661 0.4290016 0.01241145 
-0.758741 0.6142216 -0.02587565 
-0.9647207 0.5982418 -0.03689735 
0.1000095 0.5730263 -0.01066477 
0.3312971 -0.5304476 0.00364661 
-0.04763103 1.113299 -0.01008756 
-0.3228258 0.3405387 0.01956171 
-1.107136 0.6895946 -0.04145122 
-0.7337053 0.5836638 -0.02100215 
0.5274467 -1.054379 -0.01068412 
-0.4359537 0.7657083 -0.0154284 
0.780745 -0.9869771 -0.006342383 
-1.46127 0.08131927 -0.01955676 
-0.1122719 0.06659548 0.0165376 
1.049986 -0.1650365 -0.01887091 
1.078831 -0.1480501 -0.01617046 
0.6836224 -1.133373 -0.00686744 
-0.3613946 0.6227599 0.005721597 
0.2384317 0.6630349 0.01613617 
0.08102809 -0.8701186 -0.003967003 
-0.8601739 0.5667452 -0.02591354 
-1.4239 0.1245251 -0.02067469 
-1.459977 0.395997 -0.0379269 
-0.1760368 0.6954396 0.005491344 
0.8980321 -0.4501691 -0.004843029 
-1.095926 0.2626563 -0.01980086 
0.002824406 -0.5204036 -0.0134157 
0.4619707 -0.5143973 0.01061672 
-0.04310003 -0.5143914 -0.007004424 
0.04458709 0.1258149 -0.002426653 
1.115389 -0.4456257 -0.001085871 
-1.329266 0.1440333 -0.02037242 
-1.231036 0.532242 -0.03769284 
-0.2188098 -0.591978 0.02049406 
-0.361643 -0.02072361 0.004356277 
-1.120621 0.6081378 -0.03891307 
-0.6890044 0.3651122 -0.006095834 
0.04493169 -0.3878202 -0.01935355 
-0.6330094 0.4266894 -0.002309584 
0.3365777 -1.147158 -0.008894444 
-0.3934916 -0.2055802 0.04137944 
1.078859 -0.2723503 -0.00634096 
0.6453817 0.1600199 -0.007544426 
-0.2097059 -0.5839038 0.02485474 
0.04184138 0.7926677 0.00489857 
0.0002160403 0.2314243 -0.0002713394 
-0.8848322 0.3778253 -0.01203352 
0.2962259 -0.8817925 -0.005264315 
0.2332333 -0.4877165 -0.005669785 
-0.120856 -0.5935335 0.003666085 
0.6229975 -0.2619146 -0.02171404 
0.7741606 0.6959402 -0.007468058 
-0.2776315 0.7886336 -0.004163067 
-0.5437495 -0.2089647 0.05049635 
0.2014718 0.7633498 0.0001214928 
-1.144797 0.1151317 -0.02196053 
0.3657485 -1.199649 -0.0072049 
0.8362063 -0.721613 -0.008412578 
0.9398811 -0.06145252 -0.02160997 
-0.244081 0.85094 -0.005855284 
0.2814052 -0.6247689 -0.0004300888 
0.121832 0.03611249 -0.002489659 
0.5589633 0.8455286 -0.001748141 
0.1801539 -0.797437 -0.007098661 
0.2374209 1.088875 -0.008991497 
0.7264752 -0.8911266 -0.007782537 
-0.8944305 -0.06104676 -0.01387656 
0.5658708 0.3757393 -0.01762539 
0.1348425 -0.02973378 0.00293704 
0.03257692 -0.3591889 -0.02088876 
0.1988163 0.5284277 -0.006924129 
0.7339213 0.9137255 -0.00257695 
-0.0210038 0.9567353 -0.005639133 
-0.3532589 -0.1974528 0.03405531 
-0.0007803512 0.9851147 -0.006737303 
0.1311851 0.7993343 0.0006217323 
1.010957 -0.8580799 -0.00153454 
0.7044598 -0.1498037 -0.02636583 
-0.6381547 0.5012974 -0.01850194 
-0.3430724 -0.22537 0.0332319 
-0.1571498 0.8884637 -0.004199952 
0.1580728 -0.1900588 0.002959428 
-0.9304637 0.9104496 -0.03824153 
0.3635175 -1.0532 -0.01171778 
0.6661348 0.9913833 -0.00180648 
0.2502033 0.6000692 0.009138941 
-1.266826 0.2904668 -0.02941826 
0.2937718 -0.6981318 -0.0005688876 
0.002163485 -0.3598241 -0.01846257 
-0.2361804 0.9126441 -0.007238729 
-0.1348444 0.1824628 0.01680955 
0.2245928 0.4816948 -0.009735147 
-0.09718761 -0.4144247 0.01324482 
1.12341 -0.4427406 -0.0006270413 
-0.6974306 0.2786343 -0.01228028 
0.6043888 0.2231196 -0.005357469 
0.01995932 0.7263623 0.006467398 
-0.6075543 0.5101532 -0.02486259 
1.068501 0.4054517 -0.004223974 
-1.345932 0.5521337 -0.04061808 
-0.2535995 -0.445623 0.01039711 
0.1817475 1.072264 -0.008551875 
-1.483669 0.1618725 -0.02412827 
-0.01744003 0.3021969 -0.004845582 
0.8316394 0.4777967 -0.01108296 
0.1556479 0.467852 -0.01448321 
0.278733 1.112508 -0.004881776 
0.6737264 -0.9292381 -0.008798528 
-0.4819404 0.5475941 -0.01300889 
-0.1061839 -0.6551103 0.0005587587 
0.7824878 0.6966918 -0.007256943 
-0.2552212 0.4466994 0.01755741 
-0.6187711 0.13659 -0.008324231 
0.1830328 1.125276 -0.007359222 
0.4800745 0.2587486 -0.01229172 
0.2620523 0.0405352 -0.0002611625 
0.09581067 0.793533 0.002935002 
-0.01258888 0.4304374 -0.01571628 
0.627286 -0.6014428 -0.00298598 
-0.05212522 1.052935 -0.008960002 
0.533493 -0.5169691 0.008287355 
-1.407997 0.06018071 -0.02015388 
-0.7063134 0.5252955 -0.00791066 
0.2751406 0.878543 -0.01375813 
0.3941411 -1.137095 -0.009748781 
0.8652719 -0.7459391 -0.007121715 
-0.3687617 -0.1419402 0.02887254 
0.2840917 -0.8272935 -0.002039622 
-1.2862 0.483843 -0.04072165 
-0.08228071 -0.006043029 0.01130767 
1.053824 -0.5137849 -0.001236821 
0.9657484 -0.2926437 -0.01004141 
-0.9517079 0.3180317 -0.01420901 
-0.7607186 0.5125619 -0.005438052 
0.5519029 -0.03787988 -0.02167995 
0.6827574 0.6324547 -0.01100998 
0.6010821 -0.8573 -0.0110125 
1.224933 -0.3949693 0.002754042 
-0.6623937 0.5262814 -0.01047891 
0.6489088 0.6105366 -0.01157624 
0.5536605 -0.2683727 -0.02435072 
0.2656325 0.6969118 0.009357936 
0.1573572 -0.6890625 -0.01106388 
-1.396096 0.4648699 -0.04312387 
0.4499271 -0.9276017 -0.009131623 
-1.239856 0.5764581 -0.03941993 
0.7228893 -0.6661503 -0.007933619 
-1.387844 0.1383381 -0.02205598 
0.9981796 0.2621011 -0.007089855 
1.23349 -0.5748273 0.002906525 
0.00721257 -0.8352077 0.002137749 
0.5108759 0.4211001 -0.02019037 
0.2588355 0.3118469 -0.01376835 
0.4362907 -0.8935695 -0.008547271 
1.083682 0.4328676 -0.00418956 
0.7617136 -0.6273229 -0.006525215 
-0.3210565 0.007655393 0.001366543 
1.171544 -0.2848819 -0.0007206934 
0.7886056 0.8053682 -0.004162642 
1.233132 -0.5396659 0.00352911 
-0.1615371 0.08908357 0.01423706 
0.3151294 0.413329 -0.0204813 
0.1972391 0.7105624 0.01372067 
0.0007161477 -0.9745472 0.01323563 
-0.3613073 0.03850895 -0.00460207 
-0.8872669 0.5272098 -0.02309066 
0.7048889 -1.125241 -0.006623999 
0.8240315 0.1737504 -0.01431322 
1.076718 0.3177516 -0.006635429 
-0.6274896 0.3214196 -0.01743776 
0.9758762 -0.5999614 -0.004112186 
0.3839594 0.5350014 -0.009339083 
0.5567068 0.1536456 -0.004913337 
-0.4519386 -0.1271829 0.03358453 
0.222668 0.06968655 -0.003307992 
0.6337533 0.923559 -0.003151422 
-1.142301 0.250053 -0.0233776 
0.8343158 0.04611497 -0.0206443 
0.8731141 -0.5049381 -0.001990282 
-0.06576139 1.082953 -0.01014772 
0.1769615 -0.3572621 -0.02388855 
-0.668247 0.8541099 -0.03015716 
0.5949284 0.8827783 -0.003773744 
0.8243361 -1.003439 -0.005003971 
1.058471 -0.1333416 -0.01740075 
-1.362123 0.08225282 -0.02085555 
0.4744001 -1.214779 -0.008002474 
0.4402623 -0.9633735 -0.01057438 
0.2552083 -0.9271107 -0.008042755 
-0.04521972 0.1320354 0.01486595 
-0.7786649 0.2436102 -0.00895967 
-0.5650142 0.3936762 -0.001567469 
0.1766548 -0.4605736 -0.01576212 
0.9516426 -0.1314458 -0.0208077 
-1.319377 0.09435232 -0.02053652 
0.320016 0.9013077 -0.01442109 
0.4426051 -0.2091671 -0.02591243 
0.5952805 -0.05586257 -0.02733582 
-1.029891 0.4044017 -0.02097002 
-0.3959261 0.9477031 -0.01563578 
-1.110983 0.4815191 -0.03023623 
-1.014295 0.8839916 -0.04052602 
-0.5668742 0.5475885 -0.02249266 
0.9351331 0.4492797 -0.006777608 
0.289612 -0.9338392 -0.007873807 
-0.9842011 0.7500498 -0.04132832 
0.08246405 -0.8872041 -0.00353291 
-0.2032284 -0.4855108 0.01491521 
0.5887647 -0.0953014 -0.03088128 
0.4922891 -0.2396443 -0.02414972 
0.9377075 0.6114155 -0.004632486 
0.1788918 -0.8994939 -0.006879488 
0.09322536 -0.9571348 -0.005332623 
0.4309381 -0.08385649 -0.02205704 
0.8142631 0.1932531 -0.01055359 
0.846428 -0.8174753 -0.007037047 
-0.2609219 -0.2467695 0.03003212 
-0.5195283 0.3715425 -0.006568418 
0.7353942 -0.8526952 -0.008083113 
-0.0004005678 -1.036165 0.02013477 
0.5219147 -0.2050778 -0.02947762 
0.3173951 0.05440498 0.0001589109 
-0.891978 -0.1188353 -0.007761667 
-1.471579 0.2243912 -0.02867682 
0.579261 -1.129146 -0.008089504 
-1.006252 0.2333223 -0.01525865 
0.5740038 0.8501571 -0.002189466 
0.008188454 -0.5604969 -0.0131398 
0.535441 0.7205752 -0.007356081 
-1.439486 0.1950717 -0.02610718 
0.5744875 0.6510371 -0.01215148 
0.008466734 -0.8144513 0.001521417 
0.7862659 -0.1109888 -0.02285352 
0.03879975 0.7012157 0.002385583 
0.6672282 -1.022015 -0.008095728 
0.5965897 -0.01270375 -0.02028858 
0.07621066 0.4966999 -0.01849892 
-0.5690582 -0.1404789 0.03713888 
-0.2358286 0.3528115 0.01974299 
0.4726605 -0.104011 -0.02640899 
0.1451323 -1.103559 -0.008384735 
0.02114861 -0.4938022 -0.01430911 
0.3892054 0.4324967 -0.02200641 
0.8415744 -0.3887454 -0.007473302 
-1.171898 0.3617493 -0.0280009 
-0.0674538 -0.3921778 -0.0008885005 
-0.1584471 -0.3554259 0.02430269 
1.083616 -0.1873655 -0.01625369 
0.7763147 -0.7831082 -0.008350684 
-1.463554 0.3611024 -0.03588219 
0.2881154 0.08279014 0.0004011979 
-0.6161741 0.7428248 -0.03297747 
0.05530746 -0.9870492 -0.0003027624 
-0.7380757 0.9162558 -0.02995655 
1.009644 0.5017656 -0.004403141 
0.08191268 0.01565025 4.451873e-05 
0.4832402 -0.5318924 0.01088599 
-1.264912 0.4426716 -0.0382553 
-0.5399123 -0.3015662 0.05507154 
0.8811035 0.2069631 -0.009700529 
0.3410265 0.8397418 -0.008526175 
-0.8570233 0.9412552 -0.03463103 
-0.3825688 -0.1188621 0.02580321 
0.5572719 -0.5816262 0.001521284 
0.1363895 -0.9217883 -0.007127861 
-0.6827462 0.621457 -0.02913056 
-0.2317996 0.1267596 0.01064733 
-0.3643968 -0.3199981 0.02398783 
-0.395473 0.1289375 -0.0118483 
0.3885419 0.3085412 -0.02138225 
0.3389829 -0.6241434 0.001569685 
0.7284665 -1.025626 -0.006596224 
0.30234 0.8669602 -0.01342519 
0.005912146 1.079751 -0.008222947 
0.3393214 0.4425402 -0.02078647 
-0.2685267 -0.06484659 0.01169327 
-1.238291 0.2945222 -0.02792986 
-0.06564982 -0.3609402 -0.004591167 
-0.06350905 -0.7298911 0.005427302 
0.6159396 -0.05056634 -0.02597343 
-0.6790588 0.06629697 -0.0003788832 
-0.5637049 0.0376197 0.001003361 
-0.5669047 0.05447728 -0.0008470056 
-1.287148 0.3347773 -0.0328624 
0.7605822 0.1370748 -0.01533277 
0.1529612 0.08169749 -0.005685735 
-0.7743261 0.2821012 -0.00756126 
0.6905664 -0.725522 -0.009633312 
-0.5830745 1.005791 -0.02598703 
-0.03694659 0.5458961 -0.009279112 
-0.1084414 -0.04352791 0.01276784 
0.3639832 0.6837148 0.007853018 
0.01341329 1.103577 -0.008587926 
-0.856005 -0.2201016 0.02208455 
-0.5289828 0.7124821 -0.02743583 
0.7319193 -0.6732105 -0.008239609 
-0.229452 0.6749337 0.005428418 
0.9439794 -0.8185764 -0.004901251 
1.199894 -0.5267279 0.002863973 
0.2938488 0.3795683 -0.01596888 
0.5779204 0.3068371 -0.01290502 
0.2615954 0.9591929 -0.0145603 
-0.6271595 -0.09742783 0.02939308 
-1.49134 0.07855403 -0.0218797 
-0.01671235 -0.1470554 0.009082817 
-1.009174 0.2790247 -0.0163383 
-0.02150798 -1.02086 0.02415444 
-1.1097 0.5265281 -0.03335652 
-0.3691775 -0.2471278 0.04177007 
0.1844551 0.1056829 -0.007218148 
0.1067038 0.5069355 -0.01562667 
0.2931546 0.6736953 0.00483986 
0.2082856 -0.2755192 -0.01039966 
-0.1087571 0.761423 0.004970458 
0.3928564 -1.217388 -0.008137953 
0.2620963 -0.3471644 -0.01006007 
0.2261284 0.8662316 -0.01333726 
-0.5125383 0.4690064 -0.02598904 
-0.5041443 -0.1568797 0.04085511 
-0.662084 0.9670135 -0.03080092 
-0.4759722 0.2652649 -0.01901946 
-0.812573 -0.07711689 0.004764645 
-0.02396999 0.803483 0.004942184 
-0.4110078 -0.3858461 0.02891151 
-0.01756611 -0.9040774 0.01526695 
0.1961164 0.485107 -0.008917033 
-1.067344 -0.02763833 -0.02398144 
0.7391546 0.106919 -0.01508693 
-0.6228381 0.5820388 -0.0223728 
0.1635125 -0.9503963 -0.008439768 
-0.6094038 -0.02943558 0.01410266 
-0.9185412 0.3465915 -0.01230047 
0.03730527 -0.7309086 -0.001651149 
-0.8369727 0.1121634 -0.009830538 
-0.5087325 0.5409099 -0.01655411 
-1.112104 0.07381091 -0.02081895 
0.6594898 -0.1788279 -0.02648028 
-0.3229312 0.04800159 -0.002531334 
0.4002259 -0.237687 -0.0174911 
0.1686462 1.074296 -0.008121586 
0.05792899 1.087811 -0.007019884 
-0.2388422 1.052531 -0.01140056 
0.9974259 -0.9332478 -0.002005643 
-0.6704535 0.571438 -0.01964608 
-1.221088 0.3600507 -0.03179613 
1.083621 -0.6827547 -0.0008349223 
0.3111546 0.1040232 0.001943316 
-1.037715 0.8909891 -0.04082395 
-0.08921559 0.05006429 0.01622612 
0.9522325 -0.9649618 -0.002228138 
-1.233563 -0.09304942 -0.01926485 
0.2213409 0.0688631 -0.003323159 
-1.05686 -0.06368612 -0.0241565 
0.2142529 0.4657824 -0.01082322 
0.6316206 0.1870342 -0.006174838 
-0.4341726 0.1208499 -0.01246436 
0.240902 0.2813469 -0.01471906 
0.3179898 0.8221095 -0.008861069 
1.141226 -0.5011946 0.0001645727 
-0.416743 0.6402302 0.002372416 
-0.1793222 -0.6127377 0.01155568 
-1.410707 0.3069873 -0.03491097 
-0.08255233 -0.5365308 0.001057907 
-0.8667821 0.4138565 -0.009754497 
-0.949888 0.7718183 -0.04074186 
-1.077699 -0.09386763 -0.02159984 
-0.4695981 0.6223634 -0.008210207 
0.7162325 -0.4882979 0.0027886 
0.5402082 0.7126663 -0.00841262 
-0.2608051 0.3342305 0.01984141 
-0.4665491 -0.149307 0.03922685 
-0.2533082 -0.3911604 0.01289989 
0.6857767 0.7841634 -0.006346966 
-0.1602198 0.8422661 -0.002149046 
-0.2353775 0.5912159 0.006923153 
0.130965 -0.864188 -0.006153896 
0.2447316 0.3564214 -0.01316696 
-1.431441 0.1115743 -0.02062757 
0.03959578 -0.989841 0.002701613 
-0.9821216 0.8406656 -0.04075511 
0.1743303 0.3359823 -0.0085082 
0.620433 0.1045923 -0.009194646 
-0.135818 0.2505383 0.01744158 
0.9653898 0.2936014 -0.003413857 
-0.858716 -0.07184293 -0.006603638 
0.4568827 -0.5629894 0.009096674 
0.554817 0.02882136 -0.01036507 
0.4722394 -0.342279 -0.0205616 
0.526001 -0.1285885 -0.03117276 
1.125425 -0.6361839 0.0002165496 
0.569745 -0.6811254 -0.007201416 
-0.3294053 0.740819 -0.001893162 
0.1675985 0.5811018 -0.000294172 
-0.04500122 -0.7725744 0.008104278 
0.4509749 0.1714951 -0.002572274 
0.7459188 0.3005173 -0.002354856 
0.5362728 0.6208251 -0.009914108 
0.03665058 0.4083671 -0.02015809 
0.6600124 -0.4304637 -0.006458242 
1.034703 -0.2507373 -0.0114975 
0.4728341 0.03499563 -0.005760742 
0.9215752 -0.1005389 -0.02269011 
1.231901 -0.5870041 0.002789851 
-0.5794694 0.069754 3.043725e-05 
-0.980857 0.3287272 -0.0158567 
1.0323 0.2200212 -0.009765469 
0.9915687 0.177696 -0.01300255 
-0.06990061 -0.4230831 0.002773277 
-1.025447 -0.01950972 -0.02189974 
0.8738567 -0.7072512 -0.007165657 
1.039265 -0.5231266 -0.00156208 
0.7610415 0.5453439 -0.00925874 
-0.14552 -0.3429563 0.01871203 
-0.8698963 0.5035443 -0.01827351 
0.5072155 1.011377 -0.006649974 
-0.4695867 0.3133408 -0.01564324 
-0.2241853 -0.2043161 0.01753193 
-0.7247031 0.2444491 -0.01008868 
-1.34363 0.2033065 -0.02555149 
-0.4874057 0.4466774 -0.01748686 
-1.180771 0.007380758 -0.02274392 
0.9498103 -0.9672486 -0.002329402 
-0.73943 0.4705294 -0.002145588 
-0.6649294 0.13261 -0.008344529 
0.2478401 0.4244339 -0.0155824 
-0.1871768 -0.007433017 0.01041801 
0.003094572 0.1813495 0.003296653 
0.1425511 0.3346711 -0.006973996 
0.140486 0.5468516 -0.008711484 
0.4223205 0.7343739 0.003190791 
-0.1184337 0.06937586 0.01594693 
-0.479103 0.6628397 -0.01498709 
0.07113923 -0.6198524 -0.0120213 
0.5016826 -1.022964 -0.01080565 
-0.7921764 0.7723943 -0.03399791 
-0.2390407 1.102064 -0.0134715 
-0.9724654 0.09076759 -0.01646018 
-0.5069107 0.07891349 -0.004735562 
0.4353263 -1.123048 -0.01060745 
1.06354 0.5428224 -0.002762876 
-0.0425867 -0.9752762 0.02611422 
0.2425628 -0.3254209 -0.01371641 
-0.1776402 -0.5635129 0.01966579 
-0.3487734 -0.171745 0.03097542 
0.9600796 -0.7104248 -0.004352304 
0.8877751 -0.4955583 -0.002147757 
0.8661519 0.1318744 -0.01823366 
-1.357527 0.4575406 -0.04179624 
-0.02638783 0.2759919 0.0002278023 
0.1090796 0.3901539 -0.01878672 
0.794153 -0.5808275 -0.004827795 
0.01456052 -0.276509 -0.0127099 
1.174996 -0.2720895 -0.00177265 
-0.6503413 -0.04257563 0.01539353 
-0.6395603 -0.1466112 0.03740305 
0.8335651 -0.5803117 -0.005397032 
-1.478563 0.05388339 -0.02182151 
-0.6588633 0.3780288 -0.008116073 
-0.6958186 0.8349699 -0.02991472 
-0.1563023 1.020587 -0.007992855 
-0.5092557 0.911678 -0.02545087 
0.1071752 -0.2695203 -0.01941943 
-0.9541974 0.1383114 -0.0121717 
-0.06137634 0.4385909 -0.008914325 
-0.204363 0.1305431 0.01393699 
-0.5942345 0.1922498 -0.01256923 
0.4484238 -0.5472111 0.009555942 
-0.2276802 0.6325448 0.00558738 
0.7094676 -0.7669531 -0.009199727 
-0.07522456 -0.4027038 0.003408397 
0.03067776 0.2694602 -0.008438783 
-0.1658538 0.314671 0.01634863 
0.328368 -0.1322035 -0.01496961 
0.1445105 -0.2852681 -0.02102423 
0.8355119 -0.2224817 -0.02212179 
0.09316924 0.8156917 0.002333061 
0.1470713 0.9514257 -0.007826934 
-0.783917 0.6977665 -0.03323035 
0.6035786 0.3437366 -0.01460318 
-0.9215968 0.2106233 -0.01123384 
-0.3291555 0.2332007 0.00312625 
0.1003762 0.2367366 -0.01325896 
0.7424968 0.5618879 -0.00891224 
0.5548136 0.7547952 -0.004578142 
0.2443449 -0.5520247 -0.001981985 
0.2192815 0.7547464 6.660435e-05 
0.394062 -0.5650038 0.005151614 
0.2385707 0.6694534 0.01650057 
0.1545224 0.969324 -0.008567071 
