ply
format ascii 1.0
comment VCGLIB generated
element vertex 1630
property float x
property float y
property float z
element face 0
property list uchar int vertex_indices
end_header
0.0113993 1.06121 0.8883908 
-6.537345 1.863829 1.519754 
-7.722042 2.813035 1.530558 
1.760052 1.440669 0.5980707 
6.952084 0.1970618 0.02403178 
-2.292182 4.113176 0.9260575 
4.244546 3.077184 0.3019362 
6.171011 1.177125 0.1101774 
-2.689194 1.695926 1.210491 
-3.885331 4.193537 1.079655 
3.958082 0.2817256 0.6023487 
-0.9737895 1.578617 0.990528 
4.06128 0.2625076 0.6895938 
-7.932892 2.068525 1.584256 
3.693022 1.862151 0.4719874 
3.495354 3.257577 0.3428149 
-5.383547 1.699282 1.465527 
-3.658473 4.054332 1.045276 
-1.789194 2.710965 0.9830732 
0.6675559 4.085302 0.5053161 
1.229947 2.628569 0.5789734 
6.124146 2.073218 0.14007 
-4.255723 4.03163 1.067149 
-2.489006 0.5608013 1.545315 
-1.556929 3.184515 0.8966613 
6.754396 2.837951 -0.02736456 
6.975051 2.158501 -0.04830908 
1.999272 0.3426957 1.205108 
6.618478 0.7575476 0.06582809 
3.474452 3.764493 0.1922575 
-0.4768647 4.373683 0.6756521 
6.95902 3.24117 -0.1011473 
-7.834972 0.5615494 2.132603 
5.924282 3.481862 0.0007346593 
0.5262676 1.74021 0.7731681 
-2.987862 1.659716 1.26279 
-5.683141 1.368185 1.466362 
1.964751 4.244432 0.3923076 
-0.5496987 3.174876 0.7342666 
-4.707233 0.6174213 1.500926 
1.266544 4.368818 0.4489905 
3.292693 4.405269 0.1895071 
2.20323 1.127509 0.7175038 
-5.768108 3.649765 1.211947 
0.5146924 0.3442985 1.39527 
-2.545953 1.820825 1.18187 
5.245975 4.113287 -0.05576181 
-2.142396 2.796665 1.030026 
2.842343 0.3380854 0.7598846 
2.80979 3.617074 0.3272435 
-2.230499 1.436542 1.174362 
-3.52477 3.342176 1.146869 
-7.649816 0.7084678 1.672894 
-0.01347689 2.436567 0.7372466 
-0.4186434 2.014553 0.8563838 
2.401658 2.343882 0.6350969 
-0.3467986 2.977056 0.7159976 
-3.18284 3.742747 1.190818 
7.178872 -0.0446128 0.2731087 
-2.505607 4.298156 0.9254698 
-7.260177 1.111656 1.576236 
4.134702 1.801253 0.4014432 
7.002934 2.934901 -0.08242721 
5.896589 3.577721 -0.04693763 
1.163948 0.7082058 0.7254257 
-2.918025 0.4484632 1.767071 
-5.16128 1.885682 1.443359 
6.86753 3.624676 -0.2034411 
2.335436 0.924094 0.7328171 
6.185606 3.707943 -0.1824482 
0.2095697 4.061261 0.6117059 
-8.14497 0.719806 1.782498 
1.197323 3.025628 0.5464594 
2.395092 3.692462 0.5153015 
0.01419034 0.9135715 0.8984525 
-7.854112 2.890624 1.55232 
1.171875 3.281269 0.5464949 
-7.068622 0.717199 1.919001 
0.3847354 4.635931 0.6142319 
-5.187397 0.6561539 1.477054 
2.518883 1.309008 0.6821905 
5.238362 3.566042 -0.01481461 
1.902041 2.881469 0.469955 
-0.5364299 2.645323 0.7829384 
-7.753609 2.65695 1.539213 
4.481518 0.2454773 0.6546012 
-6.654266 1.058121 1.516606 
5.95406 0.9655977 0.1589225 
1.696416 4.42531 0.4079472 
3.136003 2.298347 0.4724143 
-3.270915 1.977763 1.294951 
-7.76615 0.7097684 1.690509 
-5.072839 2.399172 1.409913 
-3.701762 4.094771 1.050178 
-7.160702 1.389951 1.563653 
-6.915837 3.241004 1.381554 
4.950989 0.6518735 0.315606 
0.6714071 3.982138 0.5293611 
-4.522621 3.214843 1.149489 
-5.766481 1.568106 1.476828 
-1.156381 2.319038 0.9097953 
3.277134 4.682371 0.2023238 
6.498774 0.4640187 0.115494 
4.835663 1.283703 0.3056192 
5.702951 1.856263 0.2088604 
-1.227461 2.645888 0.8901262 
-6.533654 3.066983 1.390676 
4.65089 2.927861 0.2834935 
3.329938 4.767643 0.2367902 
3.480584 1.352292 0.4709988 
2.100497 0.2235124 1.25215 
1.130493 3.455236 0.4972035 
6.576925 4.149908 -0.2371594 
3.987573 2.942769 0.3418531 
-2.411214 3.775431 0.9752546 
3.481711 3.764495 0.1898413 
4.314288 0.2460132 0.763321 
-0.3482503 3.660406 0.6776098 
1.296488 3.85471 0.4582553 
2.352463 3.90003 0.3846661 
-1.434919 3.91488 0.8504003 
5.419012 0.8999817 0.2357814 
4.020385 2.85459 0.3507197 
-4.355415 2.157115 1.366967 
-6.429705 2.085386 1.504826 
2.999453 0.3350055 0.7073598 
-6.962142 3.034487 1.404899 
5.709571 1.035283 0.1884773 
-0.9358839 1.492038 0.990852 
-5.539576 2.958818 1.395324 
-3.468231 0.5421488 1.671967 
3.15278 3.737049 0.2096899 
6.905533 2.341305 -0.04317807 
-3.001562 1.246615 1.269899 
-2.14491 4.681749 0.9575251 
6.624387 3.030984 -0.005988509 
-1.82286 1.382528 1.127567 
2.055735 0.359023 1.085518 
-6.818029 1.813623 1.533019 
0.6760202 0.4161665 1.114665 
-6.188555 2.315221 1.475285 
1.137402 3.445178 0.4958591 
-4.786424 3.724816 1.123299 
3.688186 3.107378 0.3468003 
-4.756515 2.37471 1.387851 
3.390046 3.456652 0.3192141 
6.320528 3.661936 -0.1048472 
1.652724 2.711056 0.5203281 
-0.4334246 3.194052 0.7142289 
-7.124076 3.056014 1.427833 
2.760037 3.978694 0.312035 
-1.443409 2.564809 0.9396709 
4.765727 4.743487 0.06114975 
6.020393 4.30947 -0.1572895 
-0.4135766 2.066158 0.8340284 
5.425663 1.891142 0.2473446 
-5.428473 2.826003 1.400076 
-0.4528414 0.7866584 0.9706611 
-7.5915 0.5755341 2.129055 
-8.091228 1.561367 1.656869 
-1.13851 0.5063102 1.463925 
-3.030616 0.550697 1.720959 
-1.029499 1.360754 1.014649 
4.404684 2.475323 0.3552927 
2.096969 0.3590741 0.8676121 
-5.466135 0.9840202 1.442351 
4.69462 3.322729 0.2303986 
6.914485 4.1014 -0.1874505 
-4.104288 0.5638785 1.633136 
-5.216431 3.100776 1.290755 
-3.49739 1.714735 1.327272 
-6.953456 1.083949 1.540238 
6.07755 0.979737 0.1347907 
4.214909 0.292976 0.465131 
4.064761 0.6337478 0.4179189 
3.018085 3.445024 0.3641764 
-0.1408905 0.3873842 1.440951 
4.823695 2.934479 0.257561 
4.034849 0.4218628 0.4516472 
1.546088 0.4640568 0.7919596 
2.875301 1.699807 0.5112952 
-7.27635 0.6714441 1.717993 
3.841805 3.044871 0.3440214 
-3.905443 1.403129 1.365834 
6.498782 4.051339 -0.2268271 
-7.462238 2.110969 1.559969 
0.3083278 0.470022 1.066274 
0.047914 1.297725 0.8730649 
0.4176359 4.061656 0.5151984 
5.144934 3.666276 0.009200588 
-0.9427594 4.583951 0.7592165 
4.022469 0.268181 0.6474411 
3.492923 1.916341 0.485539 
-5.454435 3.66758 1.129965 
2.98285 1.038101 0.5321133 
5.440917 3.423692 0.099705 
-6.79706 3.02584 1.363845 
-4.008249 3.741008 1.069463 
1.82251 2.960372 0.4725507 
1.834162 2.371639 0.5298646 
0.7804614 2.353207 0.6574661 
-2.053665 1.949183 1.125331 
6.335389 0.6647683 0.1093837 
6.122767 3.123245 0.09263583 
4.053236 1.19646 0.4086566 
-1.977355 4.091447 0.8900095 
1.704528 4.202191 0.4028978 
4.486981 0.4183716 0.4053262 
-5.271055 1.708471 1.457992 
-0.4558258 0.6578741 0.9765986 
-5.37356 0.6122314 1.756785 
-5.507979 2.88214 1.40314 
-2.865282 2.236981 1.199571 
6.087166 4.403762 -0.2240083 
5.973667 0.06224566 0.6888067 
-0.2452477 1.406213 0.9012075 
3.362258 3.62124 0.2600731 
3.580941 2.31466 0.4517663 
5.246955 4.150056 -0.08872544 
6.750636 3.07457 -0.03142552 
5.220484 4.252602 -0.03319412 
5.433228 2.603195 0.2150714 
-1.470366 3.55081 0.856308 
-5.152084 1.2105 1.428819 
-4.194844 0.8630322 1.351234 
-6.076678 3.040004 1.339115 
-0.5974052 0.5104258 1.184603 
5.403848 4.174702 -0.0590378 
6.965187 1.304516 -0.01751678 
-4.88107 0.6565812 1.41127 
-4.982827 1.440601 1.426144 
-7.063371 1.687019 1.561476 
-4.230763 3.628397 1.072163 
-3.759212 1.467158 1.3624 
6.574978 0.2368543 0.09713267 
2.184995 4.541742 0.3437495 
1.387174 1.040639 0.6779697 
4.094639 2.971488 0.3318475 
-5.543099 1.879952 1.470496 
-6.233674 4.002602 1.231522 
-3.542032 4.211027 1.041347 
-7.361477 1.322736 1.585116 
3.833925 0.2768006 0.7416217 
-3.478992 0.585 1.422556 
0.5410016 1.602666 0.7798932 
0.948415 3.756095 0.5398827 
-5.832391 3.767394 1.216905 
6.503036 0.03806967 0.438736 
1.824912 2.406928 0.5283915 
-1.965332 0.5586563 1.36526 
6.169822 -0.02300931 0.743904 
-0.8717588 2.460858 0.8558558 
-3.405517 0.9535151 1.327301 
-0.6401284 1.735835 0.929486 
-0.5503089 3.91658 0.7019645 
-5.339931 0.6607946 1.439886 
-1.235323 1.205506 1.05893 
5.304838 2.596016 0.235582 
0.9262474 0.3794076 1.339959 
6.65589 0.8651104 0.05740483 
-0.4961109 4.342659 0.6756384 
1.176014 0.4751239 0.7559842 
4.634529 2.038556 0.3528672 
7.075537 3.784157 -0.2056058 
-7.75913 1.802998 1.589587 
7.133018 0.1171519 0.0002685076 
7.158033 -0.07376339 0.4216855 
0.3887389 2.127871 0.7286463 
-6.018884 2.267075 1.468742 
0.611256 3.190358 0.5922909 
6.829527 0.8527951 0.03700039 
0.5824238 1.884743 0.7566738 
2.761349 4.760534 0.316654 
-5.3695 3.819976 1.143034 
2.797411 3.355642 0.3907971 
6.123294 4.400016 -0.216896 
-2.469723 2.989481 1.059881 
-1.495049 1.298782 1.08517 
-1.055435 0.5129869 1.3907 
-1.631207 0.8134518 1.133081 
6.851477 4.211248 -0.2196719 
0.964183 0.4212828 0.9746287 
0.179597 1.35134 0.8467569 
6.094368 0.9066212 0.1373174 
-3.018146 3.443521 1.208644 
1.89267 2.946556 0.4659014 
-6.925082 2.208516 1.516656 
-6.433679 0.4784208 1.997875 
4.290909 3.516749 0.1780622 
5.365126 0.4132417 0.2907472 
4.001312 4.401309 0.09167462 
5.946491 3.326496 0.09224592 
3.592187 3.486337 0.280535 
7.068503 0.1725789 0.007297873 
0.6857163 0.629603 0.828083 
2.511779 4.276466 0.3158135 
0.3048338 0.4670269 1.163647 
-4.59246 1.548379 1.404273 
7.036969 3.616539 -0.1820232 
6.753098 2.299921 -0.02131321 
3.399477 4.156411 0.2000665 
3.03081 3.57838 0.2818197 
3.3605 4.666687 0.1935207 
-0.9816118 0.4189447 1.545088 
1.39318 1.832387 0.6531166 
1.013663 1.384678 0.7211272 
-1.443955 2.918135 0.9007578 
5.943879 1.327441 0.1481499 
3.723853 3.579933 0.205735 
3.326651 1.533611 0.4793275 
-6.599528 0.6477242 1.838176 
-5.530989 2.654334 1.418938 
1.505302 0.997539 0.6597787 
3.61873 0.2863035 0.8252173 
1.156518 3.277039 0.5490121 
2.737712 2.979434 0.4246425 
0.2653987 1.232427 0.8415043 
-2.473981 1.220438 1.222713 
-1.533393 3.214391 0.8925245 
-1.036834 1.26212 1.025923 
-4.567344 0.4262925 1.813947 
5.337485 1.32662 0.2362908 
1.488254 2.784228 0.5337333 
-2.842193 3.926003 1.037852 
0.9305493 2.796794 0.5940284 
-4.656477 0.7626151 1.373798 
-6.780755 2.496286 1.489977 
1.319208 1.69113 0.6590843 
2.286901 2.022743 0.6530777 
-0.8505659 3.245471 0.7773308 
6.178598 4.446286 -0.1893377 
-0.2402839 4.01764 0.6728904 
-6.424225 1.87307 1.516206 
6.285654 0.6807962 0.1200778 
3.268171 1.14505 0.4874955 
-3.589921 3.196687 1.148677 
0.6892747 0.9561558 0.7916263 
-1.181741 0.5138589 1.399586 
-8.183994 1.596861 1.677431 
-7.917955 1.950531 1.591094 
-6.365015 1.640512 1.519113 
5.297237 3.039075 0.1943131 
0.5045 3.742188 0.5829767 
-2.903668 2.468992 1.180043 
-0.7771885 0.5253119 1.105545 
4.044291 3.164691 0.3068015 
-6.363904 0.7647465 1.485834 
-6.938356 0.969273 1.533015 
1.784285 0.312939 1.269073 
5.888178 4.443139 -0.1299418 
-3.334509 4.408546 1.136114 
7.031085 0.1550868 0.01229109 
-0.8137962 3.689456 0.7511849 
0.3906477 4.065861 0.538074 
2.773371 2.276476 0.4909053 
-3.789368 3.212855 1.151109 
-0.8604044 3.306277 0.7737653 
-0.0571047 0.4701452 1.298758 
4.241784 3.635207 0.1352758 
5.989279 4.280379 -0.1440302 
6.96375 1.41491 -0.02522729 
-2.546673 0.4103254 1.727707 
4.757632 3.774647 0.06274919 
-2.845813 4.412177 0.9987705 
3.376251 3.31533 0.345951 
3.748582 0.5070857 0.4957225 
-0.3869112 3.906526 0.6569531 
3.742035 0.2773713 0.9820541 
-1.85076 1.0063 1.155347 
0.5614967 2.13101 0.7095208 
6.398878 0.1079253 0.1864943 
1.350764 3.435991 0.4677008 
-6.731157 1.294776 1.527515 
3.632663 2.408837 0.4398955 
-3.092612 3.997897 1.159183 
-4.783858 4.159305 1.110581 
3.288701 1.691341 0.4816348 
-5.030203 2.827121 1.379361 
-1.034268 0.6913627 1.051277 
2.681139 1.439483 0.5150152 
-2.918645 0.6798083 1.336756 
-7.162775 2.521504 1.515886 
-0.5606546 1.777047 0.9172246 
0.8486591 4.120798 0.4978788 
-0.9868655 4.288503 0.7231893 
-2.661133 3.293502 1.062734 
2.567004 4.595221 0.2983886 
2.143419 3.150021 0.5630298 
-2.097688 0.6406916 1.193913 
-4.024881 0.5698594 1.524677 
4.63193 4.564274 0.02270772 
-8.252812 0.8612773 1.720602 
6.917847 -0.08082187 0.5710827 
2.757742 3.1505 0.4054928 
2.099233 2.54289 0.5456769 
6.659573 3.824556 -0.1855849 
2.778453 3.830618 0.3232271 
-7.600348 2.957642 1.481658 
5.497897 1.572928 0.2131551 
1.910964 1.245177 0.5839626 
1.187438 2.135695 0.6331525 
-2.172943 3.594978 0.905251 
-2.127901 1.023156 1.193189 
-1.87101 0.5848135 1.214072 
1.558717 4.525426 0.4479876 
6.838994 4.38057 -0.301182 
1.313625 0.6564022 0.705454 
-3.552248 1.640157 1.353294 
-1.799635 2.793394 0.9796094 
-4.820261 3.416841 1.179696 
5.732341 0.1369995 0.3748576 
6.091664 0.1749778 0.2207829 
3.047131 0.3356171 0.8767701 
-2.022484 3.064736 0.9883839 
4.519504 2.663961 0.3233658 
-2.105967 3.490294 0.9908206 
4.747271 4.087664 0.02321189 
4.483461 3.09897 0.2788266 
-5.723804 0.633932 1.529252 
-6.912225 2.032748 1.528974 
3.651011 4.711727 0.1750504 
3.484122 4.154146 0.1849128 
-4.079302 0.5745645 1.553825 
6.722003 3.396008 -0.0707101 
-3.538644 3.624001 1.109146 
-8.064444 1.95585 1.593202 
3.308952 4.285611 0.1757495 
-4.07024 3.080918 1.235495 
1.404452 0.4972878 0.7207012 
0.987524 0.4115205 1.22765 
-4.986591 3.320345 1.213282 
0.9855602 1.469394 0.7175932 
-6.107076 4.264714 1.16536 
-2.348449 3.409346 1.021803 
-2.034684 3.278456 0.9784539 
-3.465596 1.83621 1.314237 
3.24569 4.037256 0.2228395 
-2.876449 4.606208 1.032431 
6.205149 3.500936 -0.03371297 
7.1827 1.102502 -0.02815417 
-4.111314 3.577034 1.087909 
3.052935 1.438888 0.4960304 
2.917804 4.764391 0.2747573 
3.722207 0.8741671 0.4618869 
1.456145 3.058174 0.5114831 
1.54409 3.964577 0.3876545 
3.567738 1.152822 0.4640992 
5.522235 0.1098542 0.7422792 
5.777532 3.277035 0.1127967 
5.393975 4.036476 -0.09289505 
-6.737526 3.119274 1.349651 
3.041497 0.9349688 0.5355456 
-4.537215 2.207058 1.377907 
-0.9440042 2.494884 0.8622979 
-0.2406222 0.3828761 1.453702 
5.578905 2.335818 0.218704 
2.905204 3.843929 0.2185818 
-4.694267 3.76914 1.104543 
4.600824 2.154301 0.3493445 
-4.327078 2.431638 1.349644 
-2.172426 2.017087 1.124064 
6.212075 4.133345 -0.1674645 
5.067849 3.698945 -0.08582959 
2.325413 3.762263 0.4088674 
4.682203 0.7243649 0.3473547 
1.448245 2.114227 0.604686 
-5.360857 0.5545248 1.866007 
4.640984 4.432969 0.01163739 
2.73766 4.239676 0.2903189 
-2.519481 1.497529 1.203557 
-3.316773 4.11754 1.158638 
2.245059 3.824388 0.3864079 
1.203191 3.958614 0.4817729 
6.287524 4.643406 -0.1007416 
-8.204408 1.809829 1.666488 
1.604848 0.7780461 0.6546912 
6.587613 2.482103 0.007924824 
-3.57646 1.645825 1.352685 
-0.05680648 1.542469 0.8636458 
-3.850535 0.5783597 1.487796 
-3.0127 4.578447 1.097519 
4.285592 2.100819 0.3893158 
1.32909 4.523049 0.4594294 
6.764781 0.6030543 0.04796487 
6.508362 2.346704 0.03332208 
-5.69573 2.537281 1.434918 
-8.164764 2.047831 1.619321 
2.72448 0.3466946 1.047218 
4.042868 1.709488 0.4051802 
-1.074326 2.316554 0.8976272 
3.648587 3.283606 0.3291694 
4.711513 3.663342 0.06291932 
6.466364 3.566288 -0.1525585 
1.541806 2.658945 0.5406048 
3.733521 4.047821 0.07978493 
-2.356381 2.129344 1.129735 
6.026327 3.548578 -0.1265647 
-6.28633 3.2202 1.298986 
3.671059 1.772179 0.4563825 
3.813942 0.6967403 0.4424861 
2.490229 4.227175 0.3226486 
2.181389 0.348032 1.040961 
-6.257243 3.420099 1.257442 
-5.973448 2.313467 1.461597 
3.180683 3.460328 0.3436676 
-2.052514 3.531979 0.9814428 
2.51186 4.382146 0.315035 
-2.969264 3.046292 1.143652 
-3.2822 0.563064 1.689777 
-4.234023 3.188666 1.147066 
6.422599 0.9826099 0.0834021 
-0.2682364 3.436764 0.7362548 
5.06869 0.3201671 0.3407129 
-6.135156 2.626939 1.450266 
-5.504933 3.193881 1.233542 
5.081993 3.010936 0.2182803 
-7.407369 0.667185 2.07422 
-8.276509 1.201329 1.712767 
2.730887 1.257348 0.5242034 
-3.561894 1.411622 1.346756 
2.766058 2.284257 0.4912602 
-6.533387 3.106669 1.332061 
-0.5355717 0.3590185 1.534081 
4.230464 0.8255127 0.4091274 
-1.588602 3.597404 0.887831 
-5.240409 3.482715 1.200763 
-7.686956 0.6774666 1.873995 
-6.943326 0.6756451 2.009142 
-4.626533 0.5982819 1.53498 
-1.454539 2.607977 0.9382665 
-7.097804 2.276131 1.525709 
-2.006663 1.076055 1.171558 
5.533298 4.191156 -0.09510268 
0.6883811 3.383755 0.6061655 
6.187784 2.394781 0.1156666 
-0.1258534 3.145905 0.6821915 
-4.942683 2.611607 1.386801 
-1.136771 2.831996 0.8580064 
-7.55079 1.768248 1.580252 
0.2785734 2.07602 0.7512883 
4.298616 1.758968 0.3698863 
2.628876 2.637634 0.4581451 
3.076685 2.81811 0.4263363 
6.619803 0.002552729 0.6063062 
-4.118598 2.331005 1.339931 
1.261377 3.882416 0.4177848 
4.553859 4.065562 0.05402257 
3.098066 4.004582 0.1984304 
-0.2644355 1.085378 0.9254636 
4.467481 1.981796 0.3769204 
2.674031 4.361616 0.2820592 
0.5525689 0.8315247 0.8191029 
3.27911 0.3372653 0.9102365 
5.796438 2.371715 0.184585 
3.861497 1.011035 0.4420319 
-6.399995 2.573091 1.46889 
-5.563869 2.421714 1.435287 
6.243587 3.519681 -0.1065898 
-5.778106 3.526812 1.229038 
5.204338 0.1424235 0.6509243 
5.041341 2.733415 0.2521235 
-4.708464 4.038326 1.090354 
1.992035 1.889583 0.5550987 
-4.033447 2.698612 1.312016 
-4.253508 2.816371 1.320818 
7.142534 0.6768036 -0.008929051 
4.554109 3.84036 0.0478444 
3.096188 3.435214 0.3539247 
-1.369538 2.507187 0.9284077 
3.970317 2.96277 0.3410083 
-4.134426 0.566889 1.604893 
0.9477943 0.4099315 1.236859 
-4.088644 1.830269 1.36372 
1.196265 1.093699 0.7035283 
5.568027 3.071868 0.162085 
2.918296 4.376891 0.2353355 
-7.306893 0.6946239 1.646294 
2.521746 0.3467881 0.803108 
2.753116 2.376509 0.4766122 
-1.109616 0.9815651 1.057045 
-0.05258365 0.9896146 0.9028924 
-1.471625 0.9821821 1.104924 
0.01820518 2.304468 0.7500092 
-1.780302 0.636179 1.161482 
-7.008956 1.925799 1.542372 
-1.062487 2.700317 0.8599814 
-8.044818 2.95955 1.550203 
-2.944294 2.123509 1.22985 
-2.965816 1.753705 1.25891 
-6.121835 2.871295 1.435601 
-2.919437 1.532035 1.255101 
4.901732 3.005233 0.238881 
-2.153692 2.77648 1.03504 
1.625667 1.2938 0.6278204 
4.997819 1.229685 0.2846259 
4.970657 0.5993067 0.3206258 
-7.050993 2.498472 1.51055 
-5.306539 1.748388 1.46276 
-6.590592 3.150067 1.327526 
1.932785 3.236727 0.4311269 
-5.532571 3.845129 1.154049 
1.117028 3.325595 0.5558618 
3.200668 0.3827839 0.6309351 
-4.107306 1.610812 1.372173 
5.53052 2.843294 0.1838422 
-1.125077 2.75643 0.8639354 
-1.635339 4.165801 0.8486838 
-4.988435 1.742488 1.440459 
-7.764526 3.083491 1.498909 
-1.451772 3.683091 0.8688558 
-2.757085 3.916593 1.02998 
3.62786 4.300728 0.1373198 
-5.015215 0.6207265 1.625806 
-5.064123 2.374713 1.409449 
6.070607 0.09581821 0.3993462 
-2.03641 3.281545 0.9790034 
3.886341 2.439318 0.4092241 
-6.586832 0.6513222 1.767161 
6.651522 3.831574 -0.193662 
-1.17892 1.335542 1.042693 
2.318357 4.639483 0.3564934 
-2.546941 1.906106 1.177746 
-2.876963 3.442518 1.157304 
3.450564 4.417242 0.1109718 
6.818315 1.021916 0.02258571 
0.6426109 3.992263 0.5258344 
4.523323 3.392216 0.2252224 
-1.938256 3.246295 0.9620544 
-2.233205 0.6097113 1.234079 
-3.009721 3.500989 1.205843 
-8.112463 2.7753 1.552699 
4.475763 3.806524 0.07986092 
-5.661033 0.6169335 1.684364 
3.100776 2.20642 0.4787867 
5.803882 2.5503 0.173233 
-0.5544218 0.4923798 1.473326 
-2.507429 4.096049 0.9827523 
0.8591599 1.759419 0.7273325 
-5.396585 1.124849 1.443536 
-0.9955899 0.6484503 1.048552 
-3.258227 2.444192 1.265454 
-0.2835342 0.524646 0.975754 
-0.02001072 0.4782417 1.145306 
-8.031181 0.780718 1.656693 
-5.690497 0.6257846 1.625968 
-7.612144 2.815067 1.527798 
-2.697049 3.453689 1.06329 
-7.661278 0.6760477 1.821406 
-3.320368 4.34667 1.136023 
-5.189834 2.731254 1.394343 
1.714724 0.4186443 0.9121657 
4.30616 2.347022 0.3705968 
-8.136449 1.862516 1.625148 
6.443084 0.1139508 0.1619101 
6.33414 3.496646 -0.0605188 
3.118684 4.339434 0.1853783 
0.2052249 0.4455827 1.378706 
-2.790208 2.042514 1.206673 
0.6116771 2.32178 0.6809275 
-4.081019 4.306165 1.07888 
-0.5764637 1.815349 0.9170211 
3.862028 0.2777865 0.8230221 
-1.133183 3.859309 0.7790326 
5.629625 4.092679 -0.09245771 
3.598997 0.3354972 0.5998309 
7.093689 0.8918853 -0.00985167 
-4.081381 1.773602 1.366201 
5.154062 0.7737321 0.2784433 
5.095038 3.733227 -0.03521321 
0.07356969 4.105569 0.6173086 
-6.571135 3.465299 1.304542 
-6.152486 0.6302274 1.787402 
2.118624 1.656101 0.6516863 
-0.8016398 1.182124 0.9971921 
6.815782 -0.01433313 0.4966693 
-2.164661 0.9943088 1.199919 
2.438187 0.4487682 0.7641168 
-6.358957 2.141411 1.499881 
0.9931955 2.957542 0.5725897 
1.885972 2.021848 0.5525705 
-1.745548 2.892031 0.9610431 
3.826153 0.1271172 1.106271 
-1.786933 1.582934 1.109226 
1.841197 4.218273 0.3571043 
6.212131 2.746682 0.1042502 
3.735823 2.103425 0.4541428 
-0.6887419 0.4924825 1.332719 
6.797194 0.3891702 0.07398508 
2.165407 4.602304 0.3695859 
-5.070874 3.714079 1.130702 
5.083555 2.326206 0.2758689 
-4.68082 1.952883 1.409581 
-3.800266 4.318469 1.077838 
1.863173 1.719562 0.5737018 
3.820348 0.2710027 0.8961658 
-6.984396 0.8745865 1.537673 
6.782738 0.7960095 0.04411062 
0.1772798 3.409456 0.6787911 
-1.842699 4.352439 0.8786688 
1.625762 2.288065 0.5643836 
4.767072 3.960172 -0.005001178 
3.656028 3.318016 0.3280543 
2.739893 0.4235027 0.669242 
2.026044 1.724131 0.5420027 
-1.097274 0.9128153 1.058275 
7.161869 0.4319617 0.01295315 
-2.826228 0.5585035 1.610565 
4.740725 2.946882 0.2700248 
5.441859 2.050357 0.2474675 
-2.055508 1.532608 1.146384 
-0.17803 2.910353 0.7088308 
-2.927893 3.453346 1.214685 
-1.262336 2.330964 0.9286866 
-1.512443 1.221918 1.094888 
6.172557 0.3834921 0.1642136 
1.439681 1.06914 0.6681721 
0.9056727 2.872101 0.5912774 
-2.502667 0.6338323 1.302881 
-0.9802009 3.921 0.7721046 
4.578396 1.691171 0.3352012 
-7.86527 2.383632 1.563017 
6.56298 4.172848 -0.2236033 
3.465563 4.362833 0.1450088 
-3.727033 3.361425 1.103095 
-5.843912 1.964133 1.481121 
5.940785 3.502132 -0.006539905 
-6.799525 1.843135 1.53199 
-0.7646248 1.998512 0.9259756 
-4.29494 4.20259 1.094424 
-1.009066 0.8103681 1.054313 
5.416537 0.3969963 0.2848231 
3.461654 0.6196545 0.4927095 
-2.970658 0.5844251 1.465278 
-5.178598 0.475733 1.905013 
-0.09764731 1.254323 0.8939248 
-3.558074 4.121497 1.052358 
-4.918502 3.87975 1.099316 
2.984581 3.008402 0.4067265 
6.324592 1.846468 0.1275701 
-2.668742 2.752688 1.112434 
0.7189212 3.464676 0.572629 
-2.886594 3.490452 1.170864 
-0.9963397 3.514642 0.8059081 
6.750089 0.4538073 0.07951665 
4.409967 1.867576 0.3831573 
-3.110625 4.268312 1.13305 
1.688423 4.364036 0.3730469 
-4.538706 2.265717 1.373323 
4.958633 0.2560798 0.3799402 
-6.402413 4.067154 1.234538 
2.098027 2.675389 0.583057 
6.442345 4.2419 -0.1948872 
1.308502 0.4008477 1.112809 
-7.32027 2.034666 1.556772 
-1.098422 3.702114 0.742388 
-0.4146271 2.113848 0.8206668 
3.692514 0.2994993 1.0355 
2.083081 2.341404 0.5241503 
-6.464313 3.791719 1.275977 
-5.972807 3.623468 1.235515 
4.503119 0.2081764 0.8607379 
6.499864 1.454814 0.05147641 
-3.167804 0.5588872 1.691612 
1.167765 3.969631 0.4799773 
7.086306 1.916683 -0.05296547 
3.795276 1.678771 0.4358068 
6.434302 4.532799 -0.1786207 
0.7542186 3.08279 0.5855926 
2.348441 3.747161 0.4249045 
-5.81526 3.098687 1.317196 
-4.331609 0.440311 1.782031 
5.303973 2.335127 0.2525266 
0.9316014 2.579732 0.6171797 
-1.051549 3.241436 0.8092375 
6.511111 0.1663654 0.110743 
-4.851581 1.167404 1.403818 
4.65264 0.09263811 0.9670132 
0.003478954 0.4453288 1.364231 
0.8558732 2.181002 0.6669136 
7.025049 0.609798 0.01313528 
-1.650534 3.480608 0.9279248 
-5.840981 1.508735 1.481297 
-3.188433 0.5772328 1.452321 
-0.969578 3.240772 0.795585 
1.146854 3.400029 0.545759 
3.607616 0.293305 0.9150409 
0.9658279 0.4141306 1.138247 
0.7980437 4.654465 0.5905918 
0.1216479 3.2118 0.6516845 
3.838716 4.091327 0.1060722 
5.910432 3.292832 0.1019377 
-4.237163 2.299428 1.350316 
-0.7903963 3.937425 0.7440277 
-1.762571 3.11194 0.9478086 
-0.5907204 1.29695 0.957646 
3.086977 3.064894 0.3889083 
-0.2209614 0.5323262 0.9505587 
-4.621258 4.250999 1.111273 
3.189166 2.445995 0.4573948 
1.03129 1.707354 0.695572 
-4.116257 4.171617 1.082193 
-1.793077 2.877413 0.9678942 
5.784578 1.279324 0.1722581 
3.449498 0.2631341 1.065918 
-1.720742 1.607431 1.098908 
1.492334 3.675694 0.4572892 
-5.683911 3.393423 1.212493 
-2.076181 3.822834 0.9439716 
4.249919 4.732868 0.1240982 
4.799281 0.2151963 0.480194 
5.655422 3.168887 0.1421429 
4.932698 1.939521 0.3224116 
-5.408831 3.285284 1.210849 
2.190957 3.048097 0.5753992 
-3.89296 3.047081 1.258032 
4.832748 2.140077 0.3250743 
-4.75759 3.824987 1.106677 
-6.046105 2.494821 1.454174 
-7.807677 0.7501362 1.622293 
-6.83266 3.58209 1.301275 
-2.780853 3.994239 1.029231 
4.794904 0.9756153 0.3350331 
-0.3164527 4.512468 0.6635652 
6.476421 3.402985 -0.02501649 
3.682723 4.762986 0.1967988 
1.234948 1.535081 0.6769606 
6.68244 2.03434 0.001121445 
4.64029 2.86011 0.2932659 
0.7599198 3.647496 0.5580166 
0.03508503 2.922749 0.6854749 
6.702495 2.067572 -0.004837083 
-1.718747 4.064795 0.8576894 
5.763872 2.608765 0.1735741 
-3.327457 4.017038 1.15884 
-2.081046 2.362193 1.062754 
2.897299 0.7647256 0.54366 
2.016394 3.578732 0.4074393 
6.45056 0.4683979 0.1233817 
1.609696 0.4407247 0.7246479 
-1.16141 0.7473987 1.081962 
-2.912024 4.346253 1.080562 
2.483434 3.931209 0.3552914 
3.283658 2.270982 0.4682522 
3.891353 4.132819 0.1334143 
1.27617 0.406926 1.191471 
1.002726 1.983036 0.6800594 
-4.450756 0.6372777 1.366593 
-7.687892 2.786664 1.529651 
2.598883 0.9961389 0.5355233 
-6.861638 2.027578 1.524675 
-5.819159 1.096071 1.466977 
7.213249 1.728764 -0.03148233 
2.870798 4.531264 0.2098105 
-7.960214 0.6760352 1.972647 
-4.044923 2.216495 1.339775 
-0.7427951 4.382952 0.6820152 
-0.1309821 0.468863 1.372041 
-0.2239918 3.861494 0.6560004 
7.181721 1.558904 -0.04131752 
-2.78529 2.943952 1.115756 
-6.990265 2.506675 1.50601 
1.769678 4.019225 0.3660809 
2.675607 0.3676268 0.7089018 
5.797007 3.917988 -0.1087672 
6.061191 3.618981 -0.1553393 
2.217102 1.610737 0.6807863 
-8.236897 1.953969 1.659619 
0.7200189 2.377465 0.6617004 
6.692617 0.8348196 0.05728251 
-1.849101 3.731533 0.9321474 
-0.9559972 4.704651 0.8122171 
4.462025 0.1889776 0.9423849 
-5.369941 3.136397 1.277683 
0.8462291 4.088243 0.4998871 
-3.883323 0.8883343 1.338802 
-0.7792406 0.5702375 1.000808 
-2.882098 2.78782 1.151604 
1.074459 0.3554437 1.342008 
4.906467 4.055987 0.009353119 
0.2610841 0.8106892 0.8674937 
-5.818669 0.6205937 1.831002 
-6.783249 0.7513424 1.532903 
-4.00785 4.124869 1.074 
-1.647789 0.5724137 1.222513 
-6.148522 2.20533 1.483564 
6.391027 4.19052 -0.1789342 
-6.469405 1.024811 1.503848 
0.4634447 4.460158 0.5538434 
-2.727633 0.6511897 1.319795 
-6.485606 0.6481245 1.774585 
5.511199 0.2343045 0.3019042 
2.522381 3.675447 0.4847093 
-7.105259 0.676786 1.808306 
-5.277268 4.01684 1.137297 
5.619051 1.473414 0.1957816 
1.401627 1.661499 0.6490765 
0.5069936 0.458056 1.04497 
0.9337234 1.241245 0.7395078 
-1.150416 4.533615 0.7730171 
-6.263279 2.16892 1.49198 
-0.7853669 3.501687 0.7872209 
4.834211 3.183035 0.2264154 
4.845649 4.502835 -0.01359134 
-7.992582 1.762619 1.61287 
5.494612 1.444776 0.2177009 
2.988741 4.487809 0.1977447 
-4.688659 3.384379 1.099054 
6.517077 1.562599 0.05148215 
6.716341 0.02530178 0.4156592 
7.082641 1.501258 -0.04670493 
6.883744 1.945115 -0.03758064 
7.017976 -0.03385135 0.33009 
-3.020185 4.70279 1.098737 
-5.120176 4.069991 1.115218 
6.819683 1.505917 -0.001776161 
-1.135522 4.175868 0.755545 
-4.189504 1.764383 1.373272 
2.410469 4.549789 0.3055159 
3.774733 4.699255 0.1525663 
6.838314 2.012956 -0.02978414 
-3.843692 1.746907 1.34783 
-4.297063 3.616165 1.090824 
6.208511 3.910061 -0.1189527 
4.131503 0.5379796 0.4078425 
6.246552 0.02876593 0.7118102 
-1.850934 4.610196 0.898739 
5.839195 2.540987 0.1644907 
1.434803 0.333893 1.308278 
-0.9704211 2.719928 0.8462586 
3.20706 2.686895 0.4352247 
-1.473556 0.9735698 1.105884 
4.321456 4.364933 0.05661609 
0.4215117 4.206257 0.5499431 
4.382109 4.188333 0.04733714 
2.054025 1.92626 0.551495 
-6.291605 1.07776 1.49046 
-0.7198078 3.531756 0.7754188 
-7.186751 3.115797 1.451455 
-6.810157 2.777054 1.472982 
-0.9011461 3.536524 0.7804909 
-6.830649 0.5192585 2.077806 
4.764614 3.783348 0.06239979 
3.976817 0.3154576 0.5160523 
5.721121 0.3162549 0.2435701 
-2.035963 4.276057 0.8749071 
2.644296 1.677761 0.5097212 
-3.961893 0.5770232 1.477552 
-2.606932 2.584086 1.119792 
4.410571 3.019466 0.2936268 
1.006544 1.287323 0.7280887 
6.573102 0.3988377 0.1081876 
1.10217 1.130095 0.7186105 
3.879186 3.057325 0.3409972 
3.335331 0.785455 0.4980135 
7.244277 0.7649452 -0.007000427 
-1.442102 1.404484 1.069772 
3.924683 1.214571 0.4253061 
-0.998758 4.24872 0.7382601 
2.111047 4.197053 0.3648911 
-5.133656 3.78232 1.144842 
-5.516104 1.285686 1.456749 
-1.953253 0.5357547 1.625696 
0.8985422 4.293813 0.4555121 
-3.086885 3.47139 1.208642 
-0.04767368 2.288809 0.7590554 
5.464106 2.879666 0.1901325 
3.773064 1.216493 0.4417252 
-5.105333 3.985485 1.112373 
1.991113 3.521574 0.4099122 
0.3464164 3.810598 0.5999104 
-5.085762 2.478878 1.404722 
-0.8882473 1.367551 0.995163 
4.230917 1.340264 0.3793001 
1.481797 1.07715 0.6634113 
-0.086881 2.387208 0.7510073 
-1.397284 0.4970203 1.550256 
2.11625 0.7369676 0.7515198 
-1.748591 2.062921 1.068748 
1.782878 1.57707 0.5861322 
-4.750035 3.368118 1.143473 
-4.513652 1.575123 1.404709 
-3.003345 3.791073 1.175654 
6.670957 2.825433 -0.001126832 
6.276208 0.5913912 0.1295133 
5.921568 2.14066 0.1790004 
-5.284481 3.291058 1.204362 
-1.179721 3.639991 0.8265467 
4.547424 0.2627753 0.494647 
0.8466753 4.558366 0.5444037 
4.440729 0.2532857 0.5053585 
1.856374 0.3632983 1.227192 
-2.757819 2.671387 1.133194 
5.881408 1.689981 0.1617059 
2.516417 0.2558739 1.196724 
0.5176006 2.435342 0.6833521 
6.557958 2.031518 0.03069837 
-4.060979 0.5808421 1.474522 
-0.006625426 3.243253 0.6629872 
0.4681506 1.082329 0.8191183 
4.795571 3.458659 0.1461696 
7.180427 1.991747 -0.04261806 
6.048193 1.029251 0.1375672 
-3.33181 2.690248 1.255888 
-0.9832976 3.290399 0.7943374 
0.1338933 1.355583 0.8553574 
5.372185 4.626622 -0.04700362 
-0.7485215 4.642119 0.7589266 
-3.955626 0.9362696 1.346154 
-0.2207304 1.778614 0.8701496 
1.460505 3.775361 0.4013022 
-3.218318 3.3777 1.222666 
-4.642606 3.290605 1.167461 
-0.9363216 4.270129 0.7472823 
-2.644865 4.344353 0.9529773 
1.217288 2.570788 0.5872985 
-4.410644 4.224923 1.097316 
0.8297487 4.586736 0.5586927 
-6.577976 4.30443 1.273282 
-0.1756049 4.53828 0.6505228 
5.08196 1.141478 0.2831113 
-3.827231 2.628555 1.30323 
-1.745235 0.8758641 1.152981 
2.218457 3.581261 0.4335555 
2.614138 2.060678 0.5239678 
-4.89623 3.123169 1.252217 
2.590274 0.5976074 0.6208887 
2.451472 2.176643 0.6497411 
3.06358 2.550952 0.4516333 
3.119321 0.3206479 0.8899779 
5.444517 0.07690378 0.7677323 
-5.024756 0.4573933 1.888034 
5.893036 4.321066 -0.1114728 
2.992702 2.011262 0.512956 
-4.780351 3.199736 1.207586 
6.67586 2.30211 -0.004203251 
-0.3364166 4.629963 0.7102293 
5.236941 0.7058607 0.2704964 
-4.628273 1.440471 1.401527 
-5.088788 3.459111 1.161619 
1.565386 2.205173 0.5812615 
-8.211081 0.8386683 1.68953 
-6.680719 3.683408 1.27389 
0.2848446 3.687083 0.5976266 
0.7127101 3.812004 0.5140719 
-8.198752 2.232366 1.611304 
1.561298 3.021121 0.5014949 
2.919484 4.374713 0.2357989 
-4.039332 2.621758 1.316429 
3.365702 1.946917 0.4882692 
-1.759773 1.803579 1.092865 
-3.135939 4.086894 1.151447 
2.571658 1.650986 0.5154085 
4.79032 3.280641 0.2230322 
-3.886009 2.676134 1.302165 
0.5932254 3.573586 0.5421686 
1.734241 4.135394 0.3753349 
-4.071881 2.040608 1.35134 
0.7855752 4.171371 0.4883966 
5.547275 4.311782 -0.1112478 
-1.329179 2.260257 0.9437523 
-5.529512 2.148324 1.451468 
3.468514 3.671526 0.1870736 
-3.995544 2.794555 1.303969 
-1.908008 1.645404 1.121207 
0.7408643 4.270675 0.5282444 
6.102813 3.82547 -0.09775371 
4.393976 2.666667 0.3343529 
-1.3713 3.55401 0.8669145 
6.891485 1.855338 -0.02819448 
4.319319 1.511467 0.3606866 
6.395696 4.077757 -0.1674608 
2.393766 1.118822 0.7230306 
-6.523105 3.943222 1.220584 
-5.999662 3.269152 1.270752 
-0.211031 1.905199 0.8544621 
-4.33539 0.4114148 1.802933 
-2.429081 0.6492862 1.27404 
0.9854696 0.4704579 0.7920931 
2.782774 2.170444 0.4973753 
-2.671979 4.721468 1.032105 
4.001806 0.134441 1.075391 
-3.373751 1.210167 1.326787 
3.631818 1.408279 0.4499708 
6.339879 0.4560121 0.1328642 
-0.9053952 4.416119 0.7256757 
5.304841 0.1211039 0.6906266 
-6.774917 1.289386 1.529891 
-2.532842 3.308688 1.045491 
-4.83293 2.44551 1.388623 
-2.262071 3.918603 0.9474064 
-6.438636 3.766625 1.278063 
4.739162 2.546678 0.3051714 
4.799199 2.326681 0.305755 
0.08340279 3.114508 0.6638877 
4.68225 1.590872 0.3174381 
-1.851766 4.103752 0.8726703 
-3.349995 3.744785 1.130148 
1.305407 3.529228 0.4820836 
5.624698 0.1274646 0.4575388 
-0.6846415 1.019286 0.9897674 
-3.402249 3.143497 1.188154 
-5.709224 2.542551 1.435185 
3.779069 2.141454 0.4473535 
-4.282939 1.194808 1.368197 
2.53909 2.540665 0.5779579 
-2.389881 2.712264 1.072184 
-6.287902 3.039225 1.363811 
0.247145 0.5937444 0.8798035 
-6.802432 4.273419 1.297373 
6.171885 2.871922 0.1069649 
1.564238 1.282728 0.6403808 
-5.117349 3.897109 1.119095 
2.169355 4.33645 0.3484706 
-2.893189 1.433749 1.253934 
5.03254 0.4322633 0.3222515 
2.070925 1.459445 0.5555109 
5.745095 0.1225142 0.4455206 
2.520923 1.354463 0.6134444 
0.1530153 0.4232022 1.387225 
4.950345 4.679281 0.01836181 
1.528368 2.976154 0.5095871 
0.229749 0.4635627 1.24773 
-1.703605 4.078753 0.8416654 
6.913686 0.0006257391 0.2954569 
4.921228 2.490705 0.2856464 
0.1063089 2.912854 0.6789939 
-1.953742 2.093714 1.086106 
-3.695655 0.935057 1.335667 
1.550139 3.064049 0.4996954 
-5.1807 2.904349 1.386283 
-3.693009 1.744763 1.353059 
1.201172 1.302365 0.6937825 
2.313039 4.103265 0.3684576 
-6.077806 3.538444 1.239203 
3.594177 0.2898083 0.9538704 
2.991179 2.476851 0.4571708 
4.123592 2.667249 0.3698571 
-8.109207 2.060607 1.590923 
-2.308978 3.287985 1.021412 
-3.085552 0.5652914 1.602088 
3.495597 0.4219275 0.5574765 
-7.414772 2.046674 1.559471 
2.801713 4.039741 0.2800281 
-4.542251 3.411704 1.156688 
6.41167 2.980391 0.04268493 
3.178185 0.7844934 0.5256692 
2.95685 3.116223 0.3942586 
6.754391 3.557821 -0.1977201 
-0.6357927 1.877235 0.9198017 
-3.598816 1.991403 1.318582 
4.979768 4.32805 -0.006023551 
4.760472 4.593739 0.009431285 
4.886472 1.675241 0.2910944 
3.996901 1.457251 0.4052174 
4.65993 3.760398 0.06182936 
1.176399 4.085114 0.4860828 
5.085269 2.863215 0.2341638 
-0.6323821 3.745141 0.7420961 
-2.317999 4.601049 0.9417298 
-5.266122 2.223709 1.429946 
-3.268709 3.741259 1.193005 
-7.941223 2.692934 1.548226 
1.004971 3.817689 0.544155 
-2.164554 4.449937 0.8904164 
0.3696887 4.608776 0.6033862 
2.439975 2.513209 0.6196148 
-2.160149 0.5940211 1.258433 
0.6763656 0.4166326 1.235944 
1.680466 3.304147 0.4695677 
4.23875 1.169103 0.3834549 
-5.695703 3.724931 1.196377 
-6.642437 1.955621 1.519048 
5.455954 0.7288178 0.242009 
5.080411 1.306346 0.2721298 
-7.030843 0.6880524 1.878613 
-2.325239 4.714722 0.9887738 
6.038786 3.544245 -0.07467153 
-2.648572 1.778983 1.19834 
0.9324965 4.228048 0.4923588 
1.376885 4.381115 0.4146971 
1.404396 2.437518 0.5784003 
7.21296 0.3844899 0.003604187 
1.417773 1.11318 0.6695273 
1.074731 4.53264 0.5018461 
1.835091 3.8252 0.4098917 
-5.022718 3.573905 1.173397 
3.796299 3.900578 0.1629474 
-1.501213 2.187171 0.9838168 
0.3465444 2.43813 0.7011988 
4.863592 0.9431356 0.3277569 
-7.319963 0.7500992 1.594253 
6.647237 3.819098 -0.1998289 
-4.073337 4.15916 1.077031 
-3.719263 0.582834 1.5658 
-5.878726 4.067007 1.202571 
3.994078 0.2469089 0.9056821 
-4.885445 0.6757426 1.387463 
2.070145 0.9680975 0.5976924 
5.015593 1.861147 0.3066198 
3.843376 4.260325 0.1338992 
3.260421 2.807096 0.413245 
4.656178 0.4162178 0.3686552 
4.792678 3.863659 0.05846432 
4.786904 2.35802 0.3126966 
7.008496 0.674097 0.01438538 
-1.922461 3.721951 0.9166487 
1.562776 3.111051 0.4954419 
4.588925 4.694609 0.06090187 
6.098586 0.08026855 0.531125 
-5.721238 1.520158 1.475122 
2.446803 4.121629 0.354174 
-6.794745 1.227436 1.531104 
-1.008643 4.250508 0.7355122 
4.431256 3.074328 0.2840679 
0.7647089 1.513568 0.750038 
4.076504 2.250561 0.3980657 
1.654503 2.508531 0.5421472 
-6.130141 3.477816 1.266259 
-3.657418 2.587312 1.290992 
3.224608 0.8790997 0.5137713 
4.88723 3.079238 0.2310824 
-7.550086 2.320489 1.548811 
0.5361007 3.337372 0.6317813 
6.482561 1.943153 0.05164275 
0.4302439 0.4405347 1.141201 
-1.227897 2.25315 0.9304966 
3.245032 2.646179 0.440304 
3.334169 2.727312 0.4227069 
7.140588 1.136947 -0.03283831 
-8.231697 3.009632 1.618035 
5.619925 3.072373 0.1545219 
-1.401855 0.8222679 1.116587 
5.11587 0.1548722 0.5723619 
-0.5670749 1.174578 0.9630581 
4.9853 0.1865018 0.4996361 
-5.840147 4.131901 1.170367 
-8.21693 2.679471 1.587119 
-4.490956 0.5832632 1.644537 
-6.542839 2.7675 1.462051 
-7.378872 0.6609915 1.963691 
4.325089 1.821605 0.381983 
1.321083 4.090622 0.4595129 
4.042349 1.520075 0.3966095 
-1.082696 2.203032 0.9100618 
-6.990236 2.331347 1.513746 
-8.149467 3.000877 1.560315 
-4.512339 0.5347736 1.711843 
-0.3994801 2.751852 0.7520773 
5.828754 4.592142 -0.1129641 
-5.591842 3.295517 1.216199 
1.322116 1.085876 0.6841056 
7.127754 0.5565941 0.003780934 
-1.009772 1.740609 0.9830571 
0.7691949 3.969882 0.5401182 
-5.787691 1.414977 1.4777 
-4.383819 4.043639 1.067194 
0.2806724 2.809155 0.6700433 
3.638763 0.2783907 1.061543 
6.70168 1.907011 0.008018971 
-6.954663 3.139049 1.403125 
1.536812 1.812179 0.625952 
4.116534 2.315804 0.3937597 
5.016981 2.513243 0.271532 
1.811749 0.3780318 1.045361 
1.958377 1.647934 0.5548924 
2.112616 1.227008 0.6762001 
-5.727596 2.341605 1.448041 
-2.157932 0.4896377 1.656459 
-3.009308 2.69352 1.192071 
-4.285633 3.650679 1.099731 
-0.6560867 3.22057 0.7473712 
-2.133527 2.891879 1.023012 
1.262861 3.73218 0.4992519 
5.433621 1.446841 0.2268257 
-2.022003 4.572618 0.9060796 
1.332931 1.158046 0.6779781 
3.770429 0.3362768 0.5520651 
-7.003191 2.501293 1.506997 
4.018222 0.2193803 1.028459 
-2.607978 0.6377885 1.319772 
1.441027 0.3063123 1.322166 
-6.663391 3.62822 1.278793 
-1.111279 4.602249 0.7986248 
6.966665 0.04762667 0.05872066 
3.580754 0.956394 0.4629591 
-7.122761 1.594537 1.566466 
5.378364 3.005998 0.1897806 
6.177163 1.519489 0.1147792 
-0.3465624 3.997816 0.653006 
5.810912 4.637606 -0.08823825 
2.609963 0.998839 0.5339486 
-1.75048 2.113326 1.049145 
-3.938755 0.8576064 1.338607 
4.537788 0.275157 0.4836397 
-6.896779 2.229842 1.513085 
-4.935911 3.834352 1.128266 
0.6990835 1.252354 0.776219 
2.817206 3.792483 0.2948154 
-6.360082 0.5369233 1.91955 
3.488453 3.756724 0.1793805 
6.28696 1.658978 0.1084418 
-3.237362 2.445435 1.264791 
6.940747 0.2638863 0.02082437 
5.966204 4.636684 -0.09487312 
6.202965 0.346639 0.1605813 
0.2670784 2.165827 0.7372658 
-2.089384 1.341982 1.164484 
-0.8350462 3.585725 0.7782863 
-3.310908 3.389015 1.138754 
-6.891992 1.670941 1.541077 
5.555252 4.249484 -0.0831463 
-4.215446 2.228853 1.353269 
-6.056763 1.430376 1.489556 
5.25241 3.527546 0.08043285 
3.226199 0.3040604 0.9106354 
-7.451874 2.569536 1.529281 
-3.884647 1.882291 1.348446 
0.4903565 0.4218509 1.195726 
0.6660653 3.666642 0.5504069 
-1.874615 1.212489 1.147753 
0.1272211 3.459669 0.6590085 
3.608218 2.702222 0.4098957 
-5.810337 2.103547 1.470495 
0.1459542 2.461724 0.7197214 
-3.855108 1.093466 1.348805 
5.199006 1.942201 0.283457 
0.3069865 0.4749584 1.090246 
2.726934 0.5996667 0.5798553 
-3.859026 1.60745 1.367616 
-0.8350738 1.054786 1.009264 
-4.825201 2.756049 1.366928 
1.757727 2.611676 0.5183413 
5.162879 4.574304 -0.05320963 
-7.282381 2.529251 1.523798 
-5.683569 3.224392 1.241298 
-1.995493 1.58242 1.136189 
3.12185 2.861922 0.4193448 
-0.3371715 4.409603 0.6557557 
3.472746 0.7195319 0.4787293 
-7.251924 0.7469343 1.567118 
1.921907 1.50818 0.5658081 
-5.483919 4.076701 1.149929 
-4.417148 1.550159 1.395012 
5.561792 3.443306 0.0621163 
0.6770197 2.635398 0.6432297 
4.705306 1.290282 0.3187543 
1.024119 2.0609 0.6556469 
1.069304 2.494109 0.6108825 
4.170439 1.414877 0.3844394 
3.532677 3.660535 0.2611608 
7.107282 0.5795953 0.004656409 
-5.93667 4.027169 1.143228 
3.54282 1.392108 0.4598615 
0.5287337 2.863841 0.63752 
-4.025227 3.751228 1.061291 
1.927217 1.677481 0.560181 
2.394321 2.49325 0.6207964 
6.385277 0.4133429 0.1269771 
5.496287 1.111056 0.222165 
2.623121 0.9834468 0.5299675 
6.352315 2.614049 0.06443802 
-7.324319 1.799407 1.568097 
-6.638509 0.6441329 1.895691 
-4.628338 1.639392 1.408809 
5.609483 1.366806 0.1991484 
-1.86529 0.476988 1.655116 
-3.468032 0.9211813 1.326146 
5.086257 2.914685 0.2252413 
5.400613 0.05799864 0.7896078 
2.524926 2.282823 0.5555466 
2.445585 3.088701 0.5722434 
5.539412 4.312737 -0.1134898 
4.83 2.599249 0.2855957 
-4.667542 4.165243 1.106193 
1.862696 0.942143 0.6035603 
6.375507 0.6429585 0.09703892 
5.603788 3.500269 0.03803179 
-6.899473 0.9437919 1.530504 
1.930897 2.013682 0.5498817 
-1.7762 3.55075 0.9216881 
-2.891623 3.480689 1.1771 
-5.270103 3.930829 1.123337 
0.03458716 1.104075 0.882461 
3.737395 0.2811504 0.9293334 
5.065353 2.28304 0.2821234 
-6.277224 0.5949376 1.863418 
4.380432 1.294509 0.3606945 
2.003639 2.704468 0.4737312 
-5.635399 0.6557535 1.477969 
5.319996 0.3681695 0.3014606 
-2.880159 1.242645 1.257704 
-1.373535 0.6127707 1.10267 
6.368158 1.577975 0.07142231 
-2.073878 2.700889 1.028367 
-7.168275 0.6769536 1.781477 
2.63236 1.416127 0.5183704 
-0.9170004 4.269597 0.7388475 
-5.733768 0.6339551 1.819158 
-0.3232124 1.403719 0.9124718 
-1.553811 0.9855396 1.117573 
3.461795 2.901343 0.3944688 
0.7057744 4.629509 0.5880695 
3.19098 0.5089635 0.5722322 
-3.374648 4.297127 1.057915 
1.794557 4.242631 0.3997372 
-4.29845 4.124243 1.086654 
-5.370163 4.091371 1.129208 
-2.057297 4.295959 0.8628945 
6.058043 4.472422 -0.1502685 
-1.800988 0.7046099 1.161096 
-4.356271 3.079839 1.260587 
-1.365806 1.125328 1.081075 
-5.529243 1.519663 1.46234 
2.06252 4.113843 0.3776934 
-1.29617 3.154869 0.8523929 
-3.009242 4.637834 1.092955 
6.738132 0.2547937 0.07254812 
-1.64542 2.828541 0.9483705 
-6.085705 2.691354 1.443046 
-4.333322 0.9411017 1.362332 
4.431949 2.987107 0.2954596 
0.1899448 0.4997628 1.026992 
-3.405079 1.968368 1.296024 
6.948331 0.0602488 0.04633971 
0.7171863 1.789258 0.7409557 
-7.628836 0.5346453 2.162385 
-0.36261 3.584166 0.6986209 
-0.7553964 2.204871 0.8584823 
6.087277 4.558027 -0.1443871 
6.912864 3.901049 -0.2077253 
-5.606462 3.272886 1.223025 
-1.837798 3.331149 0.9550585 
-1.302866 3.73302 0.8318908 
3.050437 4.14241 0.2442361 
6.006945 2.686976 0.141064 
-7.27293 3.172516 1.475324 
-4.072552 3.324887 1.140369 
-7.661877 2.59151 1.539328 
5.548478 1.602253 0.2049209 
-5.665677 1.441272 1.470769 
1.296802 0.4009335 1.131997 
5.05731 3.475756 0.1197154 
-0.9725856 4.497088 0.7280687 
-0.2590871 0.4677812 1.107186 
-3.776974 0.5587556 1.699868 
4.091313 3.782091 0.140889 
2.767493 3.714035 0.3419541 
4.391518 1.969256 0.3878967 
2.224543 4.227454 0.3401514 
2.535941 0.6594974 0.6563919 
1.481571 4.227807 0.4383615 
4.656595 4.037726 0.05679848 
0.7974595 2.053975 0.6937151 
6.545794 4.399532 -0.2197928 
-6.286431 3.751593 1.254478 
5.259106 3.029563 0.1993763 
-6.770482 1.090166 1.525039 
6.723035 4.002804 -0.2171133 
-1.083755 1.676451 1.00175 
3.639309 4.563993 0.1439053 
-1.475223 4.028177 0.8208751 
-0.160722 0.3531917 1.461971 
3.633716 2.502913 0.4357888 
-5.389476 3.20899 1.228622 
0.384563 3.417974 0.6512585 
-3.328389 3.611892 1.151672 
0.7417525 0.9323536 0.7839035 
0.4167158 3.678801 0.5922363 
-4.486498 1.366805 1.388034 
5.794061 3.713853 -0.1046491 
7.151937 0.2747911 0.0009804909 
-7.552364 0.7288238 1.625113 
6.382904 4.400175 -0.2469517 
4.537817 1.538732 0.3341825 
-1.823334 2.883745 0.97321 
4.474952 2.784497 0.3187227 
-1.618484 0.4236584 1.647799 
5.183756 2.960124 0.2129522 
4.083631 2.82564 0.3484353 
-0.1394532 2.861205 0.7077967 
1.750557 0.9289007 0.6194302 
0.7132816 0.4397255 1.004645 
5.136907 2.3208 0.2699365 
1.915918 2.206809 0.5339063 
3.318637 1.942 0.4923663 
3.568918 3.816423 0.1781799 
3.61747 3.89943 0.1509483 
4.847955 0.8331064 0.3279759 
-1.728137 1.224895 1.12512 
-5.015101 2.241325 1.414529 
-0.7449075 4.060085 0.6554678 
6.319067 1.040916 0.09614553 
-5.426435 1.024485 1.437069 
2.517996 2.286929 0.6016198 
-1.585169 3.860294 0.8404433 
6.259246 4.430681 -0.1466256 
2.019058 2.313463 0.5121574 
7.118648 3.293272 -0.0934861 
-3.482801 3.963491 1.067723 
-4.481603 1.932734 1.386732 
-0.7374685 1.035959 0.9953346 
1.094439 0.9735187 0.7267327 
1.147265 2.526275 0.5966078 
6.011913 2.381649 0.1516479 
-6.433454 2.507457 1.475063 
-2.013666 3.492807 0.977352 
7.155195 2.432133 -0.05508051 
-4.647566 4.327948 1.116126 
-4.242833 1.032145 1.361828 
6.239627 1.712313 0.1121494 
4.699167 3.379678 0.2179551 
3.932771 1.277603 0.4208382 
-1.45182 2.965344 0.8955404 
-3.251583 2.175113 1.28409 
-3.748751 0.8460726 1.336081 
-5.832992 2.903073 1.420114 
-5.280635 0.6035259 1.831439 
2.674958 2.420075 0.4760107 
0.9814664 1.342538 0.729183 
-5.895371 1.733224 1.503395 
1.780451 0.9471039 0.613124 
-2.49093 4.166171 0.9290476 
0.6688766 4.415407 0.5101095 
-0.9397156 4.626005 0.7775488 
-0.6507882 2.047359 0.8824229 
-4.767288 2.689507 1.367451 
7.189074 -0.04644891 0.2633207 
4.832578 3.834377 0.05611601 
4.076462 3.316923 0.2949862 
-3.917724 4.188521 1.080707 
1.934295 3.175541 0.4494882 
-7.742936 0.6743605 2.012994 
-7.00455 1.183657 1.546567 
-0.09158354 0.9121182 0.9202455 
6.750689 4.105635 -0.199349 
5.729466 2.99632 0.1475495 
0.2554193 1.035804 0.8535318 
1.918525 0.6287452 0.6147719 
-0.3740392 2.212378 0.8008996 
3.622401 1.718853 0.4558784 
5.276309 2.967396 0.2033191 
1.280277 1.104984 0.6913257 
-6.745067 3.035119 1.357915 
1.311534 2.253574 0.6058726 
3.924098 0.2700894 0.7939448 
4.353946 0.7905115 0.3969365 
1.364444 1.657342 0.653806 
-3.598479 1.320704 1.348004 
-5.376279 3.237815 1.232714 
-4.073746 1.762574 1.366391 
1.323768 3.639667 0.4821139 
6.487354 0.4408629 0.1194377 
-0.9911252 0.5618443 1.064366 
0.9503962 2.111368 0.6614691 
4.048042 0.2679123 0.7629996 
5.880137 1.818877 0.181986 
3.052904 4.241498 0.2250194 
0.02565961 1.560919 0.8552354 
2.473422 0.3346146 0.9329447 
-1.469871 4.261301 0.8296542 
6.96951 0.544675 0.0288246 
3.789103 2.205332 0.4346478 
-5.899218 2.535292 1.442184 
-6.368251 3.924485 1.234916 
-5.121356 1.906587 1.441191 
-3.760462 0.5742713 1.527353 
-3.760605 1.091075 1.34313 
3.344735 3.447701 0.3267955 
3.164461 0.4149904 0.6175117 
-4.449986 2.527523 1.352083 
6.491518 1.621083 0.0556563 
0.3528658 3.876711 0.6023328 
0.9594448 3.336204 0.5837499 
-6.23656 4.196826 1.225251 
5.641836 3.730205 -0.04854161 
0.3934866 4.676451 0.6321374 
-4.736339 1.619607 1.420729 
-1.957015 2.317895 1.046928 
6.674881 0.7882811 0.0576885 
-0.2505107 0.4546418 1.141497 
3.861976 1.606656 0.4240111 
6.968288 3.101292 -0.08638532 
-7.960943 1.727284 1.629685 
-5.63432 1.341367 1.463109 
6.038014 0.5654844 0.168661 
-6.408072 2.809803 1.453837 
1.638606 2.779072 0.5190158 
-4.459062 0.5845993 1.619322 
4.303507 2.719087 0.3417265 
-7.269475 2.346833 1.532998 
-3.38173 3.741032 1.094219 
2.686057 3.611557 0.3538446 
2.280072 1.481033 0.6907431 
0.2421558 3.511407 0.6396591 
-3.405996 2.023592 1.330386 
3.560097 3.761751 0.2166383 
3.5754 3.509681 0.279076 
-0.3660525 2.766295 0.7460045 
1.610804 3.124217 0.4913263 
5.695527 2.540518 0.1853386 
-6.761115 0.7924583 1.511539 
6.459086 0.08976346 0.2254647 
3.056248 3.899163 0.2586933 
-6.579157 4.145804 1.258817 
-8.135647 2.114462 1.598144 
-6.692201 2.598713 1.480188 
3.752714 2.902925 0.3681731 
-6.653635 1.72009 1.527459 
2.094893 2.837659 0.5725893 
4.708467 2.879654 0.2855262 
-4.316947 3.127141 1.213872 
-0.3041 2.041293 0.8282179 
6.710445 3.867749 -0.1963213 
3.817383 1.236282 0.4334805 
0.5834804 4.656097 0.6057574 
-6.025379 1.251249 1.487738 
-6.433583 0.5465236 1.939291 
-6.092797 0.6198815 1.752537 
5.89992 2.855611 0.1416259 
3.504368 1.814813 0.4761753 
-6.976319 1.637941 1.551187 
-2.181904 1.153806 1.191966 
6.601682 1.206882 0.04989778 
6.533329 3.516983 -0.1278867 
6.155408 1.471742 0.1182249 
4.987553 3.271943 0.2039883 
-0.537413 4.101674 0.6745234 
3.776605 1.905088 0.4675489 
-5.028358 2.916383 1.375541 
0.9254526 4.637908 0.5699065 
