ply
format ascii 1.0
comment VCGLIB generated
element vertex 2038
property float x
property float y
property float z
element face 0
property list uchar int vertex_indices
end_header
-0.1156642 0.5779504 0 
1.838886 3.27001 0 
-4.1085 3.569448 0 
0.2401316 -1.31908 0 
4.877702 2.827919 0 
4.645576 2.461057 0 
3.461513 1.5554 0 
-4.468846 -4.705721 0 
-4.142523 -4.116588 0 
-3.596273 4.492388 0 
1.852859 0.4818929 0 
1.66355 4.826598 0 
-4.490673 -3.014715 0 
-1.587966 -0.2789774 0 
3.827997 2.430721 0 
4.507676 -4.285656 0 
-4.038353 2.518292 0 
-2.284658 0.7952496 0 
-2.557921 -3.594982 0 
3.191479 -4.916915 0 
-0.1066884 3.409069 0 
2.794281 -3.352104 0.1980335 
1.373282 1.481649 0 
0.8424816 -4.922358 0 
-4.125739 -2.472227 0 
-1.228353 -2.797396 0 
-3.965404 -4.522739 0 
2.665753 -2.450568 0.1127622 
-2.082356 -4.385792 0 
-1.901817 4.906048 0 
-2.269198 -3.46099 0 
4.61683 4.596291 0 
0.4110684 -1.06211 0 
4.174776 -2.916783 0.02371093 
-2.028468 2.520223 0.0879112 
1.781536 0.9150554 0 
-2.253261 -2.55907 0 
-0.8773134 3.801027 0.001675964 
4.76091 -2.912609 0 
-3.415365 -2.195286 0 
-4.639851 4.479919 0 
4.059254 -1.10516 0 
4.538674 -0.8946633 0 
2.09023 4.222831 0 
0.5255748 -4.464617 0 
-3.052721 2.716711 0.001104932 
2.141458 -3.310434 0.01924301 
3.337419 4.182394 0 
-2.498486 -1.238653 0 
-3.362955 -2.088032 0 
-0.7639261 3.927741 2.818685e-06 
-0.7445571 -0.7019963 0 
1.628668 3.84163 0 
2.541821 0.4200709 0 
0.6506203 -1.737442 0 
-0.3919458 3.453314 9.88438e-05 
-3.043846 -1.377356 0 
0.7375951 4.689479 0 
-1.896022 1.722168 0.003846879 
2.445626 -4.461977 0 
3.241197 3.855806 0 
-2.948917 0.3950946 0 
-3.787988 -2.767659 0 
2.602042 0.115369 0 
0.4004465 4.426046 0 
-3.069999 -3.396759 0 
-1.468539 1.187367 0 
4.97975 4.021874 0 
2.636201 -3.191526 0.1798797 
1.664589 -0.4052661 0 
4.008496 1.924985 0 
0.9375582 -1.514702 0 
3.433038 -1.083921 0 
2.749589 1.47331 0 
-2.869615 3.264513 4.806991e-05 
-2.754387 -0.5478985 0 
0.7415578 -1.730815 0 
0.3159775 4.683638 0 
-0.03407234 -3.732303 0 
-1.792104 3.430626 0.03502053 
2.58838 -4.096909 0.002755786 
0.2850536 4.860013 0 
-4.055339 -1.101103 0 
-0.7601747 -0.07200009 0 
-4.492605 -3.260377 0 
1.821394 1.80737 0 
-1.73597 0.4857816 0 
-4.007274 1.95198 0 
-0.486332 -1.272023 0 
2.301528 0.09142334 0 
-4.389453 3.715101 0 
-2.495366 3.617826 0 
4.721682 3.210264 0 
-3.16181 4.378749 0 
4.198387 -3.650857 0.003275324 
3.525841 -1.911007 0.008068964 
-1.084711 -1.584209 0 
2.209294 1.759653 0 
-0.5578988 -4.791457 0 
2.913864 3.801622 0 
4.084142 -0.9918879 0 
2.322162 -0.3644535 0 
-0.4607216 -4.839166 0 
4.983576 -4.598768 0 
-0.1488192 -0.9615043 0 
-2.944099 2.882516 0.001954946 
2.045107 4.596242 0 
3.066836 -1.075106 0 
1.289225 1.719507 0 
2.410334 2.136681 0 
-0.3623493 -0.8919573 0 
2.503921 -0.1592132 0 
0.8044385 -0.5437753 0 
0.5302281 4.07801 0 
3.747077 -2.326781 0.053274 
-4.917184 -0.308907 0 
1.729328 -4.49868 0 
4.284346 -1.824327 0 
2.249037 -4.031644 7.803918e-07 
-4.577115 -0.3129608 0 
4.062654 -0.6025721 0 
4.427769 3.647509 0 
-2.598183 -2.026773 0 
-4.318919 2.008477 0 
-4.219457 -0.1522043 0 
0.07583789 -1.97323 0 
2.426748 2.355524 0 
-0.6545145 3.310585 0.007902114 
-2.101005 0.8275764 0 
-0.1986635 1.965411 0 
3.628669 0.3567613 0 
-1.441383 4.509517 0 
-4.819628 -4.309494 0 
3.62643 -3.33958 0.1665998 
-2.734755 1.912384 0.003616922 
3.514174 4.17997 0 
4.481661 -2.299538 0 
1.235584 -2.38025 0 
-0.5565522 4.242238 0 
1.148843 3.448056 0 
0.5285231 -0.6120625 0 
0.553396 -3.094618 0 
1.335621 4.871629 0 
-4.141439 -1.76801 0 
2.443009 2.09858 0 
-0.4330863 -2.658797 0 
-3.673502 -1.551543 0 
-0.03862531 -0.1280932 0 
0.5447195 -1.943085 0 
1.646706 -3.093277 0 
1.630029 0.2063591 0 
-3.55319 -2.663692 0 
-1.999771 -4.705762 0 
4.843028 -1.155783 0 
4.673079 4.853488 0 
-4.496446 -0.2066781 0 
-1.662112 -0.7173593 0 
-0.9271218 -0.6503205 0 
-0.0169768 2.953184 0 
-3.457717 0.3195943 0 
0.7682868 2.449905 0 
-2.283779 -0.3060367 0 
3.358081 -2.329215 0.121735 
-1.275954 2.889809 0.07908898 
-3.907538 2.970509 0 
-0.6808765 -1.868849 0 
4.566761 -0.2497874 0 
3.125877 2.267845 0 
-0.1390856 -4.737402 0 
4.345197 1.072626 0 
1.378732 -2.707662 0 
-2.131303 -3.890058 0 
-3.594737 -1.852418 0 
-4.021565 -4.610564 0 
3.989967 0.5528933 0 
4.383884 -3.984568 0 
3.163322 -1.914112 0.01594925 
-3.911158 -2.443728 0 
4.979839 1.278272 0 
2.927872 -4.550626 0 
3.319199 -3.331874 0.2399157 
4.721255 -2.582478 0 
-0.3306994 -2.010965 0 
-1.855872 2.057974 0.03113523 
3.030364 4.707166 0 
4.865194 2.556352 0 
-4.590593 2.750108 0 
-1.745357 1.679286 0.001177216 
1.621729 -1.824899 0 
-3.490989 0.00278516 0 
-2.770523 3.087587 0.003146536 
-1.785996 -1.682423 0 
-3.368909 4.271825 0 
4.222238 2.450564 0 
4.110246 3.71074 0 
2.0719 2.850791 0 
-0.3189166 -4.106325 0 
2.091874 4.19653 0 
4.53698 4.263642 0 
3.009518 -4.732273 0 
-0.08214829 -0.5280985 0 
4.821956 -0.3968185 0 
2.169481 2.205406 0 
0.01913486 -2.045908 0 
-2.502714 -2.368179 0 
0.9363105 2.169881 0 
1.87648 4.132101 0 
-1.302808 -0.008066098 0 
-4.165248 1.675631 0 
-0.5285271 4.978923 0 
4.484485 3.804332 0 
4.227992 -0.2532371 0 
-3.682765 1.042963 0 
-0.5579702 0.4824034 0 
3.881486 -0.07886989 0 
2.507864 2.243418 0 
-0.2687408 -2.477207 0 
-1.758523 2.272623 0.05869369 
2.332365 2.600609 0 
-1.736655 -2.76862 0 
-2.037447 2.975401 0.07939769 
3.776682 -1.488602 0 
-0.3858109 -4.928655 0 
-0.009862456 3.504518 0 
2.094137 -0.6869374 0 
4.31795 1.187317 0 
0.2397636 2.852615 0 
-3.021602 -2.94128 0 
0.892247 1.7619 0 
-0.24406 2.483373 0 
-2.908835 3.155665 0.0001612249 
2.392857 -4.956963 0 
-0.2557554 3.819986 0 
3.454033 -0.5152782 0 
-2.675109 4.563873 0 
2.197535 0.5416031 0 
-4.021811 0.8463895 0 
-2.351729 -4.756938 0 
3.079818 4.144124 0 
3.875862 -2.395712 0.04055839 
-1.090681 4.680909 0 
0.9696117 4.434698 0 
0.4353904 3.52457 0 
3.620001 -1.035064 0 
4.406322 -3.660303 0 
4.095974 2.041981 0 
-0.5132381 1.229664 0 
3.198955 -1.189254 0 
0.7971481 1.674758 0 
-3.819815 1.329316 0 
4.635654 2.001857 0 
-0.06418985 -4.824393 0 
-2.969794 -0.5765938 0 
1.726653 -1.626973 0 
4.800996 1.561253 0 
4.51196 3.078683 0 
2.269692 1.664308 0 
1.87012 4.782597 0 
-2.176542 1.850943 0.01262086 
1.07746 4.200119 0 
-3.518559 0.9600572 0 
2.443114 -1.490921 0 
4.888157 -1.115886 0 
2.314442 3.566122 0 
4.461435 -1.047534 0 
4.394614 -3.048416 0.002401717 
4.312946 1.496418 0 
-3.659478 4.576993 0 
-0.9174129 1.16975 0 
0.04957439 4.232083 0 
4.756535 -1.227706 0 
1.092957 -0.8389483 0 
4.608415 -0.6989551 0 
-4.589854 -0.8774185 0 
0.9213095 -2.815342 0 
2.165547 -1.34852 0 
0.568978 2.15264 0 
1.813268 -4.210447 0 
4.413543 0.7633384 0 
-0.4927601 -2.839542 0 
3.556345 -0.1584959 0 
2.492606 0.3483307 0 
-4.259836 -2.817041 0 
-1.983038 4.554015 0 
1.040259 2.933199 0 
3.974032 -1.348709 0 
1.701406 -2.865026 0 
4.120227 3.431593 0 
-0.5275999 2.715453 0.002784098 
-1.481823 -4.721263 0 
2.945225 -2.865372 0.2714559 
-1.334012 1.468922 0 
1.184602 1.582952 0 
-1.822344 0.5557114 0 
-1.627 -0.4294567 0 
-1.160674 2.221346 0.01042831 
-3.089779 2.899629 0.0002213175 
3.08921 1.495237 0 
0.3252453 -3.842075 0 
-2.235021 3.439369 0.00702958 
-3.864878 -1.275876 0 
3.887228 -1.330395 0 
3.975665 1.843369 0 
1.903782 1.005074 0 
3.908766 -1.28894 0 
3.314911 2.425237 0 
-4.510769 4.439145 0 
0.008019457 1.99036 0 
-4.231525 2.45121 0 
-4.550577 -1.889586 0 
2.835165 -4.104741 0.008799625 
2.315152 -4.441115 0 
-0.4644618 -2.176099 0 
1.683413 1.921497 0 
-0.5994326 -2.318521 0 
0.2510166 -2.837052 0 
-4.385193 2.080972 0 
3.524604 0.6784339 0 
2.049385 2.786114 0 
0.8562394 -2.490287 0 
-0.2826191 -0.6998004 0 
-4.401331 -2.85742 0 
-3.019491 2.188578 0.001202484 
-3.665502 0.7535765 0 
-1.131 0.2673249 0 
1.753581 -2.272757 0 
-4.215417 -3.560453 0 
-0.6681986 1.29631 0 
0.5015702 -2.490397 0 
-3.164456 -0.3577722 0 
3.002281 -2.524676 0.2002673 
2.910955 2.61328 0 
0.6223468 -2.98727 0 
2.664564 2.74349 0 
4.0549 0.2841084 0 
3.517548 -0.6693001 0 
-1.615055 -3.790043 0 
2.989046 -0.4140913 0 
1.415454 4.313911 0 
1.46011 -0.8593113 0 
-4.216244 -2.3245 0 
-2.757249 3.438482 0 
-3.071486 0.6096926 0 
3.404217 -1.765273 0.002099216 
3.71382 1.48405 0 
2.982905 0.8757676 0 
1.675621 -3.964134 0 
-2.007938 -0.4242776 0 
4.963105 -3.196246 0 
-1.046964 1.756989 0 
2.075766 2.90168 0 
2.544485 -4.882814 0 
0.8694835 3.490106 0 
-1.109635 3.887862 0.001643371 
-3.92775 3.932684 0 
4.493991 -2.889002 0.0003683838 
-1.536824 0.3092288 0 
3.968074 -3.183511 0.07275856 
0.2204441 3.598193 0 
-1.35817 2.229303 0.02463743 
-3.936521 0.960252 0 
3.010195 -2.578519 0.2192316 
-0.7731076 -1.757122 0 
2.665601 0.5203364 0 
1.476469 -0.1563847 0 
-1.124025 -2.253193 0 
-0.1892647 -3.397646 0 
0.7530024 2.391602 0 
-1.451384 2.492214 0.07063901 
3.508502 0.9396767 0 
-3.109835 -1.405905 0 
4.806995 -1.624547 0 
-3.399645 -4.476375 0 
1.030618 -3.957794 0 
0.8580593 1.349131 0 
3.073272 4.773036 0 
0.6982554 -0.1674184 0 
2.182412 4.995899 0 
2.422557 -1.181238 0 
4.094034 -4.891786 0 
-1.274475 -4.737421 0 
2.442993 0.08666664 0 
3.769487 -0.8408686 0 
-4.598362 1.02677 0 
2.712056 3.163942 0 
-1.485934 1.791175 0.0007936485 
2.064856 0.8089498 0 
-4.832108 -4.498617 0 
4.67973 -1.309252 0 
-0.05829549 1.289613 0 
-0.6039016 -3.427554 0 
-0.7455212 3.065255 0.01793073 
4.817012 -1.47794 0 
-4.128276 2.893804 0 
-0.9375561 4.799732 0 
3.711172 -0.1491329 0 
1.914394 -1.492357 0 
-2.033977 -2.201626 0 
2.488981 -2.153788 0.0190459 
2.916615 1.027127 0 
-2.203049 3.944883 0 
-1.093002 1.585962 0 
-0.5356393 1.168453 0 
-2.047598 -1.908973 0 
1.601803 2.808724 0 
0.8540745 -1.125487 0 
-2.038036 2.862383 0.08906733 
-4.949611 1.96555 0 
-3.149922 -0.07420631 0 
0.5134348 -0.2877986 0 
-0.739093 4.905801 0 
-3.521467 2.626832 0 
3.971171 3.50297 0 
-2.376977 -0.2516468 0 
3.834449 0.7940763 0 
-0.3433908 -2.086418 0 
3.34318 2.084622 0 
-2.411607 1.650295 0.001761143 
-4.1751 -1.152696 0 
-0.3191573 -3.344796 0 
-3.985617 -0.9613947 0 
-1.268718 -3.862794 0 
-3.869626 -1.808375 0 
1.456396 -1.578014 0 
1.57999 -0.3738705 0 
3.790441 -1.184132 0 
-2.414742 0.2106224 0 
-0.8704188 -0.8674857 0 
4.263881 0.1495125 0 
-0.2615917 1.753361 0 
-1.768507 2.114647 0.03563844 
-3.184761 -4.693073 0 
0.6452888 2.30366 0 
-1.350208 2.794 0.08586321 
3.510831 1.978762 0 
-4.570716 -1.122553 0 
3.495068 1.071552 0 
-3.482889 3.530225 0 
-4.054597 -0.8157255 0 
1.178473 1.222692 0 
-3.347494 -2.061797 0 
3.178429 -1.354131 0 
2.461651 -4.245604 0 
2.254901 -3.248705 0.04589342 
3.456003 3.63745 0 
-4.483025 4.903573 0 
0.7878034 4.531978 0 
-2.710339 -3.224522 0 
-0.8065838 -1.309437 0 
-1.106274 -1.057552 0 
-1.673918 4.283291 0 
-0.2724632 -3.357725 0 
-0.8342116 3.888292 0.0002403868 
-2.507921 -0.2496058 0 
4.468558 4.7823 0 
-1.412304 4.244877 0 
-1.02796 3.551106 0.01637008 
-1.855943 -4.09649 0 
4.650851 3.045283 0 
2.640058 -1.903634 0.004553037 
4.789024 0.6802413 0 
2.395913 3.604362 0 
-4.633532 0.1989577 0 
-4.182281 3.730779 0 
-0.2576429 3.681576 0 
0.9673843 4.362556 0 
4.066982 -4.893386 0 
0.7487769 -3.322448 0 
2.592741 -3.143168 0.1706167 
0.9816744 -0.1054313 0 
0.577003 -2.327931 0 
-0.209453 -4.508512 0 
-2.401259 -4.151076 0 
0.1548839 -3.306081 0 
-2.102875 2.632766 0.08689568 
2.348841 1.464937 0 
0.8443369 1.565438 0 
-3.146744 1.474838 0 
-4.131726 -3.470592 0 
-1.193028 1.580161 0 
2.534375 4.047272 0 
-1.415649 1.689753 0 
4.937659 -2.312781 0 
4.973199 3.569333 0 
-0.7232308 1.468188 0 
3.128073 -4.242493 0.003554065 
-0.7912532 4.978177 0 
-1.654382 -0.6653538 0 
2.75242 3.298572 0 
-4.300526 4.375035 0 
-3.205555 -2.960144 0 
-2.925786 1.332125 0 
1.033954 4.254512 0 
3.080911 0.8965549 0 
3.88876 -0.1386254 0 
-0.02600261 1.792532 0 
-3.724283 3.836095 0 
3.89835 0.05298223 0 
4.18214 0.6927809 0 
-4.270675 0.556061 0 
-1.457441 -4.30237 0 
3.239564 2.362929 0 
2.908649 4.821955 0 
3.823251 1.182163 0 
2.422575 0.9506712 0 
2.493484 3.242518 0 
1.199165 4.78396 0 
0.3127784 3.356554 0 
-0.3400335 1.416791 0 
-4.527544 3.432071 0 
-2.986583 -1.301498 0 
3.593165 0.4310839 0 
-2.309584 -2.739352 0 
4.294553 -2.173954 4.37564e-06 
-0.7261281 0.8049974 0 
-1.691228 -1.202024 0 
-2.303557 -0.1224017 0 
-0.4775349 3.544991 0.0002319932 
3.387551 -1.011687 0 
-4.203405 -3.383876 0 
-0.5264727 4.520838 0 
-0.09661613 3.363305 0 
1.967405 0.8389528 0 
2.618961 -2.114035 0.02525963 
-3.374859 -0.5879974 0 
0.8928686 1.765021 0 
4.975533 -4.675102 0 
-1.183314 4.313218 0 
1.378364 1.897114 0 
-4.796802 2.365977 0 
1.430849 2.816579 0 
-3.484205 -1.284352 0 
-3.513931 4.767099 0 
-3.613565 1.494203 0 
-1.468934 -2.60186 0 
4.995008 -4.009701 0 
-1.523919 -3.139413 0 
0.2974643 4.767756 0 
-2.888614 4.555161 0 
4.995821 3.588529 0 
0.4441467 -1.164141 0 
-4.819584 1.547951 0 
2.642922 4.389009 0 
2.585789 1.153458 0 
4.365174 -3.286557 0.002740027 
-4.37556 -1.122907 0 
1.528946 4.220219 0 
-2.071627 -3.114653 0 
-0.526033 1.011235 0 
-3.107473 -4.673754 0 
-0.1277873 1.495892 0 
-0.493731 -3.237501 0 
-0.2309036 2.895776 0 
0.2691062 -4.387077 0 
-3.130622 -1.044761 0 
4.916233 -2.120926 0 
0.4329556 4.906161 0 
-1.031801 -4.042161 0 
0.2797193 -2.992584 0 
-3.328765 -0.7588719 0 
-1.777435 1.619044 0.0003717338 
3.06998 -0.05261059 0 
0.04468082 1.868489 0 
2.833926 -3.373907 0.2007751 
-0.2976359 4.898346 0 
1.267592 2.3453 0 
0.9066905 3.066206 0 
1.372893 0.8465229 0 
3.07435 0.193995 0 
-0.7936385 -3.061707 0 
4.687675 4.410815 0 
-2.263463 -1.234115 0 
-4.99547 -4.638715 0 
-2.258679 -1.254466 0 
4.871602 2.423584 0 
3.929151 -3.94098 0.004699057 
0.4993369 3.665269 0 
2.577804 3.35622 0 
-1.06743 4.605695 0 
4.226629 -1.964406 0 
1.922599 -1.785369 0 
-2.262602 -0.1255315 0 
-2.583261 0.9599309 0 
3.640443 3.084574 0 
-0.6148189 -1.201159 0 
0.3758203 -4.155357 0 
-1.358232 -4.652839 0 
0.619325 0.5770108 0 
0.8378548 -1.710831 0 
3.703441 -4.335458 3.143191e-06 
-4.453196 -4.728184 0 
1.654149 -3.10645 0 
-2.764123 -2.635481 0 
4.929924 -3.600411 0 
0.1356501 -3.594282 0 
2.821321 -3.177044 0.238743 
3.012267 3.877157 0 
2.697444 -2.228901 0.05770963 
0.7046813 4.726121 0 
-3.240524 -3.769359 0 
-1.027959 -4.108727 0 
-4.21696 3.892088 0 
-4.582243 -4.602988 0 
-3.461895 2.888879 0 
-0.6127872 -2.178221 0 
-4.304083 -4.825942 0 
0.8844092 -1.391261 0 
3.505677 2.196173 0 
1.709149 -0.8379361 0 
-1.306235 -2.708571 0 
-0.7646493 -4.569083 0 
-4.914212 2.136207 0 
-3.448822 4.684484 0 
-1.580293 -3.318009 0 
-4.994975 0.08698682 0 
3.122951 0.7281041 0 
3.348974 -3.056236 0.2783988 
-4.825518 -3.171204 0 
0.1498983 2.696373 0 
3.491128 -0.324908 0 
-2.292747 -2.45921 0 
-0.05880579 2.494403 0 
0.3383745 2.540133 0 
2.034007 1.588628 0 
-0.6364397 -2.234236 0 
-2.546276 1.013139 0 
1.607136 0.9855715 0 
2.683936 -4.704328 0 
-4.949898 0.1287346 0 
2.162101 -2.122056 0.0006520665 
-4.212691 -2.127591 0 
1.465171 0.0838428 0 
-0.339238 3.893843 0 
-2.371419 -0.8588923 0 
-2.09671 4.334001 0 
-1.938403 1.47311 3.123711e-05 
0.1704201 -2.593074 0 
1.685024 -1.757427 0 
-0.782599 -1.797999 0 
-1.310439 0.0398848 0 
0.4263835 -3.152047 0 
0.8695112 1.327504 0 
1.519653 -4.075393 0 
4.485646 -4.116046 0 
-2.244809 -0.004001586 0 
-2.37796 0.7869827 0 
2.732545 3.271276 0 
-0.7018448 4.001692 0 
-2.371241 2.562977 0.05478274 
-2.643394 2.59045 0.02472306 
4.02716 2.768883 0 
3.198459 2.841057 0 
-1.289163 2.875252 0.08031994 
2.908876 -0.1800701 0 
4.671444 1.227882 0 
-2.479501 1.312695 0 
1.717233 -0.0843065 0 
4.641366 -0.5432264 0 
2.917612 4.249358 0 
-3.469437 -4.927865 0 
0.6111258 2.047595 0 
1.802007 2.115529 0 
0.08155429 -1.366513 0 
-2.17867 -3.848282 0 
2.390557 3.916194 0 
0.7775489 2.528897 0 
1.758193 -1.504622 0 
-1.243232 4.561893 0 
-2.46883 3.939027 0 
-4.756407 -2.964709 0 
-0.1487989 -2.898693 0 
2.883695 2.171126 0 
-2.211953 -3.774964 0 
-2.607708 -3.522072 0 
4.311509 3.157225 0 
-3.432024 -2.872423 0 
-0.4821707 3.233262 0.002640668 
2.204117 3.258856 0 
-1.198767 -0.03015777 0 
-1.448397 3.792037 0.006353886 
-2.936545 3.327108 0 
-4.556982 -1.207931 0 
4.456353 -0.8431964 0 
-2.203065 0.1261262 0 
-0.8572354 -3.829029 0 
-0.6003745 -4.511417 0 
-1.395642 1.748791 3.82558e-05 
-4.827457 -1.447521 0 
3.21063 -4.691394 0 
3.660606 -4.593829 0 
4.986983 1.663241 0 
1.635301 -0.736838 0 
-0.05780706 -3.393147 0 
2.137967 -0.1639655 0 
-2.221267 -0.01003868 0 
0.4372534 4.85105 0 
-0.6917607 -4.186731 0 
-4.053059 4.907414 0 
-3.380404 4.151421 0 
-1.174496 4.288227 0 
-4.076342 -0.2671807 0 
-1.704271 -2.525085 0 
-0.1787096 1.111013 0 
3.763958 3.018997 0 
-1.055128 2.797969 0.0488244 
-0.4839641 0.4806826 0 
-3.181756 0.7871028 0 
0.93014 2.212877 0 
-4.170546 2.57264 0 
-3.210864 -1.515105 0 
-0.5196909 -1.397918 0 
0.2601379 4.231189 0 
-2.52965 0.6640462 0 
-3.131461 0.08794796 0 
3.225484 -2.257498 0.1065667 
2.400033 -1.514809 0 
-0.840519 -2.908838 0 
1.870405 3.18305 0 
-3.055903 -4.002228 0 
1.03752 1.652235 0 
-2.078566 -4.165176 0 
-0.7232188 3.307477 0.01167653 
-0.7402525 -4.428241 0 
3.899618 0.4008843 0 
-4.695751 0.6117101 0 
-1.194739 -3.873645 0 
-1.955202 2.302966 0.06587221 
-4.297873 2.914954 0 
-2.245129 -4.922209 0 
0.1375113 -4.76666 0 
1.638617 -4.585917 0 
-2.130328 1.944855 0.02069281 
-0.106881 0.9624254 0 
-2.921952 4.476634 0 
0.4358663 3.01932 0 
-0.12837 -2.832378 0 
0.3069884 3.879994 0 
-0.8292093 2.714446 0.0203981 
-1.862947 -3.727579 0 
-1.020995 2.766874 0.04315821 
-3.953131 -4.081158 0 
-1.930298 -4.640792 0 
-1.132943 0.4190773 0 
-1.939907 -4.627891 0 
4.059443 -3.426332 0.02926096 
-1.392228 -0.3555519 0 
4.513788 -1.25001 0 
2.033464 -1.793565 0 
1.053513 -0.5849327 0 
-1.668226 0.4848928 0 
-1.605489 2.576779 0.09405078 
-1.04276 3.551384 0.01698578 
2.564062 3.987958 0 
3.854047 4.666902 0 
-3.419369 -1.617308 0 
1.797943 2.75432 0 
-0.7033881 4.64519 0 
-3.53938 3.012644 0 
3.451907 -3.724048 0.09209299 
3.476627 4.346864 0 
1.973417 1.532446 0 
-2.513065 -0.2369149 0 
-2.4962 3.781543 0 
-1.375606 2.527238 0.06687336 
-0.0832777 -1.267454 0 
-2.116616 1.315868 0 
3.575249 3.937941 0 
1.098715 -3.8907 0 
-3.472423 -3.029813 0 
4.203419 -3.199931 0.01665547 
-1.481939 -2.018281 0 
1.605414 -4.238267 0 
-3.37411 -3.641539 0 
4.024642 -4.600008 0 
1.262734 4.533997 0 
3.186658 -0.3254605 0 
-0.2854815 0.01761653 0 
4.967113 -2.898886 0 
4.969309 -1.403298 0 
-2.078816 -2.766214 0 
-3.630365 -1.290845 0 
2.890393 -2.422717 0.1499352 
3.238574 2.265951 0 
1.087899 -1.682381 0 
0.3369394 -3.058522 0 
-3.684303 3.366844 0 
0.7845356 -3.389011 0 
0.3844332 3.323013 0 
4.915605 -3.870884 0 
-3.612888 -1.052668 0 
1.02768 2.285649 0 
3.766524 3.207641 0 
-2.25232 1.358712 0 
2.282647 -3.530952 0.02603001 
-2.97672 2.822445 0.001847711 
-3.287224 1.476323 0 
4.945739 -4.858356 0 
4.784047 4.490226 0 
2.762634 3.956887 0 
-4.897362 3.036352 0 
1.22318 -1.299058 0 
-3.827789 -4.207829 0 
4.880298 0.02723141 0 
-2.331491 -2.688962 0 
-1.029146 2.85963 0.04740728 
-0.01527076 2.178573 0 
-4.362336 -2.027542 0 
3.496772 -4.253211 0.001678228 
4.889561 -1.093345 0 
-1.817168 1.152076 0 
-3.513211 -4.218035 0 
-4.787475 0.5282128 0 
1.223336 -4.04879 0 
-1.704061 2.91327 0.1066999 
1.416208 0.8399119 0 
1.168488 0.7092273 0 
4.908347 -0.9058141 0 
-4.153923 1.873399 0 
0.1244487 -3.464536 0 
2.535956 -1.87106 0.001501875 
3.207629 -3.803805 0.08508782 
0.5827328 -3.033691 0 
-0.2331908 4.95952 0 
1.823354 -4.931181 0 
-0.6503223 4.219341 0 
3.75245 -1.722674 3.74443e-05 
2.412039 -1.429712 0 
1.787483 -4.371026 0 
-4.169104 3.42835 0 
-4.252898 2.180576 0 
0.9426767 -0.487771 0 
3.407923 -4.442024 0 
-1.514113 0.3052237 0 
-4.388219 1.850156 0 
-1.928459 4.844777 0 
-1.071308 -2.008496 0 
-4.223226 2.307043 0 
1.990538 3.012782 0 
0.3408573 -1.131553 0 
0.3911241 -0.889397 0 
2.68469 -2.41748 0.1074301 
4.219455 -0.4538458 0 
-4.797403 -4.109295 0 
-2.369727 4.902025 0 
-4.379511 -1.377967 0 
-0.1841124 2.963446 0 
4.826191 3.769419 0 
-0.5023336 4.471009 0 
-4.548045 4.752961 0 
-3.340186 -3.559643 0 
-1.693982 4.569698 0 
3.312129 2.439486 0 
-3.202988 -4.523719 0 
-0.5771561 4.13968 0 
-1.213664 -2.400842 0 
-0.6516672 4.763287 0 
-4.711547 -4.512243 0 
2.898745 4.630044 0 
2.167311 4.411801 0 
-1.439096 -0.03308645 0 
-4.229302 3.404073 0 
1.950304 -1.781405 0 
-0.4394247 3.523754 0.0001128193 
0.4667496 -4.199461 0 
2.604881 -2.980067 0.1817954 
1.425013 -0.5194761 0 
-4.745886 4.286872 0 
2.116565 -1.948107 0 
-2.311043 3.435447 0.004239285 
-2.371109 3.011367 0.03576566 
-3.333773 -4.838373 0 
2.426294 2.871592 0 
1.815963 -2.522503 0 
-4.765851 1.363432 0 
2.040205 0.6570777 0 
2.199824 -4.399563 0 
3.002118 -4.283498 0.001424826 
1.204858 1.816611 0 
3.517502 -3.047804 0.2393304 
-0.8072308 0.6546017 0 
-2.143506 4.225777 0 
-1.386737 -3.721019 0 
-1.312626 -3.960208 0 
-1.339417 -1.153915 0 
-4.591393 1.449154 0 
0.5686718 -0.2287856 0 
-2.37956 1.528869 0.0001151878 
4.814008 -1.135992 0 
2.326689 1.436093 0 
-2.158861 1.273726 0 
1.460183 -2.712523 0 
4.349805 1.362435 0 
3.567326 3.034887 0 
-4.052381 0.408507 0 
-2.300454 -3.475875 0 
-0.391776 1.645411 0 
0.08862022 -0.8596111 0 
4.496891 -1.599208 0 
0.2596216 -2.611376 0 
2.464748 3.656448 0 
2.350969 -3.113942 0.08430755 
3.632024 0.6659597 0 
-2.027366 -1.474259 0 
-1.818832 2.912944 0.1036528 
3.034274 1.504579 0 
-3.232138 -2.75387 0 
-1.205738 2.928561 0.07112424 
-4.362524 -2.137115 0 
-1.458235 -0.7693086 0 
4.631176 0.4921939 0 
1.874201 0.5422814 0 
-4.041888 -2.765142 0 
4.67285 -3.260534 0 
-1.714223 -4.311719 0 
-4.931849 3.895699 0 
4.421853 -3.033839 0.001589654 
-3.411719 -3.748012 0 
0.6953089 4.271718 0 
-4.19922 -1.632194 0 
1.819502 -0.7316929 0 
-1.261185 3.40749 0.04040775 
-1.11564 -2.406286 0 
-4.028666 1.682689 0 
1.035168 2.082286 0 
-1.955205 1.6721 0.002717815 
1.254275 2.301372 0 
-0.8612337 -1.001247 0 
3.511475 1.858506 0 
3.917779 -2.185971 0.01104504 
-1.525884 2.877101 0.1027553 
-0.6486532 -0.9274271 0 
2.680004 -2.869055 0.2029882 
1.925422 2.900072 0 
-1.692762 1.868025 0.007807804 
2.688731 -0.001692213 0 
-3.556149 -2.245139 0 
3.200473 4.352407 0 
-2.034257 -0.2211783 0 
2.973866 -3.346218 0.2349001 
-1.732387 4.081813 0 
0.5731469 -3.22171 0 
3.18662 4.171504 0 
0.9847201 -3.933841 0 
-2.611205 -1.395159 0 
0.3253835 0.9124624 0 
-0.163432 -1.289956 0 
-2.305675 0.4713069 0 
-0.6935652 -3.557806 0 
4.52746 0.3660606 0 
-3.062571 -4.838766 0 
2.918897 0.272658 0 
-0.5323693 2.933013 0.004779351 
3.492112 3.421353 0 
-3.474251 2.46485 0 
-0.07889397 2.239396 0 
3.567521 2.169752 0 
-0.6194009 -4.820192 0 
-0.9975517 -3.197109 0 
-1.331557 -3.760942 0 
-3.124568 3.616287 0 
4.029557 0.09877409 0 
4.731275 -2.575537 0 
1.228763 0.7862151 0 
4.331039 -3.808444 2.04841e-06 
-0.4609083 3.326197 0.001469378 
-2.180671 4.294275 0 
4.247622 -4.007282 0 
0.7585277 -2.982605 0 
2.606834 -3.688491 0.06085261 
-2.247095 -1.770884 0 
-3.929104 -4.111617 0 
2.161193 2.679232 0 
3.988178 -1.164472 0 
0.4974276 0.3999237 0 
-3.743122 3.062493 0 
-2.673517 -4.372812 0 
0.7594087 -4.135571 0 
-3.9076 -0.2574386 0 
2.313538 1.404557 0 
4.081054 -0.1209884 0 
3.481966 -2.559994 0.1784126 
1.194657 1.938309 0 
4.025234 3.499928 0 
-3.029135 -2.740653 0 
0.5578505 4.528292 0 
2.653683 3.544978 0 
0.6324773 -2.731569 0 
4.111153 -2.721089 0.02768145 
-1.018976 2.469488 0.02229178 
-0.6517769 -4.238548 0 
-0.4220865 2.370216 0 
0.849649 -1.27666 0 
0.4404334 1.970109 0 
-3.781448 -2.512393 0 
1.791842 -4.828018 0 
1.472743 2.386075 0 
-1.833512 4.361749 0 
-1.163453 -3.74059 0 
-0.8373058 2.797651 0.02389988 
4.073196 -2.588582 0.02570679 
-1.909653 0.5690876 0 
3.743866 3.827722 0 
0.8327194 1.380954 0 
3.261125 -4.385312 0.0002108651 
0.7622252 -2.762974 0 
-4.679211 -1.622837 0 
-2.798599 4.756965 0 
-1.855284 -2.82339 0 
-0.6571108 2.768002 0.009188877 
-0.6163239 0.9542378 0 
4.090981 3.091576 0 
4.379218 -2.390432 4.301798e-05 
4.86597 -3.811184 0 
-3.091189 1.360478 0 
-2.389151 -4.442713 0 
-0.4696288 3.501347 0.0004795475 
-1.322255 1.350377 0 
4.046791 -2.153728 0.002930704 
-0.9629879 4.052408 0 
4.959693 1.576015 0 
4.949355 -3.548043 0 
-4.74142 2.562036 0 
-1.212042 4.890742 0 
-3.269036 4.089059 0 
4.161658 -0.1494107 0 
-3.605382 -1.441401 0 
4.957608 -2.57543 0 
2.36264 4.902936 0 
2.024842 4.646631 0 
-2.099042 1.116585 0 
2.572758 3.253747 0 
-4.017976 3.325645 0 
4.498606 -1.389786 0 
-2.535403 -1.17617 0 
1.643468 1.87779 0 
-2.571973 1.011503 0 
3.14819 -4.820644 0 
-4.319899 -1.067037 0 
3.391286 -0.8182015 0 
3.781929 1.366522 0 
-4.536457 4.339162 0 
-3.588121 4.997947 0 
0.4562008 -2.311995 0 
-1.011463 -2.073578 0 
0.7359601 -3.949036 0 
-1.351439 -0.805546 0 
-3.333152 -2.080842 0 
-3.341222 2.760515 0 
-2.169113 -2.340939 0 
-2.741061 0.6559732 0 
0.4433008 -3.881976 0 
-3.307226 -0.905418 0 
-0.481039 2.373708 5.879383e-05 
0.4068583 4.872366 0 
-1.808662 -4.356874 0 
-4.17958 2.987917 0 
-0.3289983 2.086054 0 
1.210989 -3.976583 0 
-0.2520756 2.413527 0 
3.0444 4.227895 0 
-1.14343 2.910254 0.06323635 
-4.361417 1.356497 0 
0.200916 0.2094856 0 
4.409192 1.917373 0 
2.138685 3.525699 0 
4.723022 1.989257 0 
-4.961506 1.952257 0 
-4.622804 0.4179542 0 
3.731828 -2.600581 0.1198139 
1.140251 0.5011725 0 
-1.547279 4.445354 0 
1.458009 3.059731 0 
4.371114 -2.988728 0.003606476 
-2.900071 4.298676 0 
2.126768 -0.9803364 0 
2.24609 -0.6548334 0 
-1.572389 -1.866828 0 
0.8708437 -2.464218 0 
1.223121 -4.730433 0 
1.870503 -3.09615 0.000960608 
-0.0420405 0.589744 0 
-3.305277 2.840443 0 
2.274994 -1.192209 0 
1.95475 -0.4231834 0 
-0.7907166 -2.795737 0 
-0.3881462 -0.7538615 0 
-0.6545079 -1.942315 0 
4.451604 -1.989654 0 
-3.668593 2.394366 0 
4.695041 3.973742 0 
-0.8586475 -3.4616 0 
-1.245457 -1.667932 0 
4.018179 -0.8495768 0 
-3.142947 4.519081 0 
-3.440541 1.324391 0 
0.2237137 1.10018 0 
3.393788 -4.915673 0 
4.60063 4.174089 0 
-1.097731 -2.352995 0 
-4.907374 3.219871 0 
1.21066 -0.2997645 0 
1.000884 3.22006 0 
-1.566843 -3.330504 0 
3.581437 -4.538551 0 
-0.4855506 1.880984 0 
2.298218 -0.7212504 0 
2.958508 -3.053727 0.2794538 
-4.781298 -0.4430784 0 
4.854112 2.765415 0 
-2.665929 1.00556 0 
-3.133842 1.574922 0 
-4.688421 0.04685215 0 
-2.73069 4.402152 0 
-4.287163 1.647113 0 
3.384647 0.9762422 0 
-1.11943 -0.482562 0 
-1.718705 -1.683542 0 
-4.061996 4.60535 0 
1.275265 -1.24716 0 
3.967159 -4.253061 0 
-1.833438 -1.36188 0 
-4.533616 -1.66927 0 
0.7458148 2.279117 0 
-3.793212 -4.91268 0 
1.271201 -0.5998713 0 
0.9346148 4.084752 0 
-0.8576292 0.108788 0 
2.216961 1.074915 0 
-4.974308 0.4944577 0 
-3.544322 -2.986394 0 
-3.083838 3.236967 0 
1.046093 1.679636 0 
-0.3166658 -0.2389195 0 
-2.693853 -2.088897 0 
-0.5852044 1.329719 0 
-1.279047 -1.276689 0 
-4.647472 4.973566 0 
-3.025862 -0.4047368 0 
3.705688 -4.026696 0.008150885 
4.30111 -0.05609284 0 
-2.664971 -0.499765 0 
4.057083 -0.1461659 0 
3.664689 3.952481 0 
0.3152104 -1.864115 0 
2.819987 -0.5203586 0 
-4.667263 -3.695602 0 
0.08298047 -2.596837 0 
-3.568118 0.4880106 0 
-4.770431 -2.149224 0 
0.8219251 -3.173084 0 
1.272001 3.854806 0 
-2.800174 -2.711245 0 
-3.013317 1.267546 0 
4.972701 3.287749 0 
-4.398279 -1.884462 0 
-2.816393 -4.477287 0 
1.83752 -1.610708 0 
3.921085 -1.183829 0 
-1.992221 2.703334 0.09820981 
1.099521 -0.763692 0 
-1.575106 3.028176 0.09643953 
-1.527831 4.871449 0 
0.04983838 3.262357 0 
1.824681 -1.149856 0 
-0.9884973 1.998802 0 
1.483345 -4.946501 0 
-2.670138 -2.868438 0 
-4.741378 -4.623894 0 
-3.295221 -4.155308 0 
4.305246 3.125716 0 
-0.5931402 2.101527 0 
3.491293 -0.5060551 0 
-3.303598 -2.639639 0 
1.215075 1.538939 0 
-2.262504 4.291223 0 
4.391632 1.247469 0 
-2.248306 2.495491 0.06693571 
4.402349 -3.796177 2.140584e-06 
-4.394846 -0.4023556 0 
-1.032504 0.9202226 0 
-3.380151 -0.8890598 0 
-3.709963 4.991369 0 
-2.240261 -2.675503 0 
0.5422098 2.522021 0 
4.445427 1.44516 0 
-4.522974 -2.205934 0 
1.428319 2.44044 0 
-0.6009433 2.413518 0.0007161326 
0.2846339 3.184619 0 
-2.570288 2.995859 0.01773585 
1.575056 -4.538708 0 
1.822328 3.02385 0 
0.9241068 2.859263 0 
4.898539 3.670835 0 
-2.439014 1.391415 0 
-2.408847 -4.996815 0 
4.207774 -3.10838 0.0175389 
3.954269 -2.988413 0.08348869 
0.7093306 -2.015727 0 
2.217802 -2.904341 0.04451648 
-1.906761 2.574946 0.09778485 
-0.5681444 2.679645 0.00367995 
4.634233 -2.060971 0 
2.592285 -1.763418 0.0003303809 
4.402369 0.9189239 0 
-0.8745456 3.055564 0.02993828 
0.09694099 3.901712 0 
-1.410317 0.4608005 0 
3.431871 -1.286156 0 
1.708295 -4.090683 0 
1.644527 0.3658213 0 
3.406816 -4.599286 0 
-2.831475 4.0776 0 
-0.03513255 0.1705429 0 
-1.46702 3.96955 0.0005536784 
-1.470104 0.9576877 0 
-4.674085 -4.911062 0 
4.427918 1.275052 0 
-0.2169853 2.66792 0 
-4.516586 -2.412068 0 
-3.419766 0.5230103 0 
4.195643 -1.73365 0 
2.266703 -1.433825 0 
3.189869 -3.433371 0.2200308 
3.461228 0.5612817 0 
-0.4452546 0.230671 0 
3.56604 -0.6129057 0 
0.8033932 -2.954563 0 
2.785784 -1.754648 0.001076981 
-3.781581 -4.690826 0 
-3.074143 -1.960788 0 
-4.330206 -0.8854212 0 
4.783141 2.38005 0 
2.959381 -4.360197 0.0001667887 
2.315593 1.635047 0 
3.599184 -0.7127733 0 
-1.857822 3.879005 0.0002508753 
-1.924012 0.9014788 0 
3.824672 -1.423456 0 
-1.555303 -4.431834 0 
-0.8287686 -2.768144 0 
3.457657 -3.103309 0.2526154 
-1.872463 -1.059218 0 
1.45725 0.5762931 0 
-0.7112244 -0.7047312 0 
3.689207 -3.314083 0.1514887 
-1.713141 3.616642 0.01574642 
1.888227 4.416424 0 
0.3487792 -4.870762 0 
2.531662 -2.031159 0.008795762 
-3.032805 0.6320905 0 
3.666976 0.2628711 0 
2.331933 -2.67967 0.06171739 
3.139421 -0.4756823 0 
1.207878 3.640459 0 
0.3117178 -1.874808 0 
4.355332 -3.245307 0.003424821 
1.927121 3.902884 0 
-0.468812 0.2413219 0 
4.704884 2.215177 0 
2.056766 -4.877757 0 
-2.065412 0.5250099 0 
1.317991 -3.446035 0 
-2.757017 -4.034654 0 
-0.5883425 4.489001 0 
-0.03676999 1.665445 0 
4.016332 -0.9847997 0 
2.522803 -0.2085707 0 
3.489572 3.019247 0 
-1.542402 -1.961704 0 
0.7555051 3.091544 0 
-1.374842 2.427567 0.05368294 
2.373901 2.671024 0 
1.135383 -1.660635 0 
2.596963 0.7285163 0 
-0.7655433 -4.546879 0 
3.113233 4.757011 0 
-4.154906 2.954805 0 
-2.515617 -4.270257 0 
1.574596 0.4929914 0 
2.257684 4.673969 0 
-0.1249543 -4.768122 0 
3.187816 -3.851686 0.06971373 
-1.279193 -1.290796 0 
0.2444093 -3.173128 0 
-1.461062 4.803764 0 
3.400933 -4.419337 0 
3.828393 -2.527233 0.07560978 
-4.53533 -3.67979 0 
-0.2184152 -0.6046994 0 
-0.4308472 2.766844 0.001096982 
0.3318329 1.908203 0 
-2.142439 -2.975174 0 
-3.350648 -3.855823 0 
-2.691773 -4.589648 0 
-3.361455 0.5708948 0 
0.7569047 1.368435 0 
0.5492741 0.441193 0 
2.446204 -2.144167 0.01422504 
-2.089853 -4.669765 0 
3.905642 -4.921531 0 
-4.893785 4.336906 0 
4.209512 -3.573266 0.004526323 
-1.885178 -1.93791 0 
-3.302866 3.442364 0 
-4.390576 3.401047 0 
-1.617918 2.655089 0.1020373 
-1.227619 1.031334 0 
-4.86321 4.488873 0 
-4.981037 1.73212 0 
-3.548142 -1.888787 0 
-1.849121 4.521301 0 
3.581523 1.557155 0 
2.656888 0.3483302 0 
2.051948 4.996785 0 
-3.711686 1.183199 0 
-1.09484 1.198911 0 
1.769015 -2.845887 1.29513e-05 
4.635898 -4.147628 0 
-2.868047 -3.437907 0 
1.469713 2.086385 0 
-4.303971 0.1930361 0 
-4.229362 1.590251 0 
-0.2256656 -1.523105 0 
0.1278056 -2.401771 0 
4.579159 -0.9278977 0 
4.758384 1.658624 0 
2.148667 4.816473 0 
-3.191473 4.59898 0 
-4.566433 -2.970035 0 
-0.8558392 -2.989275 0 
1.323887 -1.423215 0 
-2.311534 3.433957 0.004270208 
-1.218421 -0.4597065 0 
3.065102 4.380923 0 
0.670868 -1.670566 0 
4.467036 1.681305 0 
4.396986 2.830222 0 
-1.76529 -4.168799 0 
0.6936166 0.4689382 0 
-4.761959 4.554175 0 
2.198627 -0.4323301 0 
2.560731 3.129178 0 
1.754216 -2.713102 2.393322e-06 
3.274733 2.412362 0 
0.01604231 3.771559 0 
-1.475962 -0.9908391 0 
-1.589803 2.27796 0.05048965 
-0.05077862 0.9082558 0 
-2.577027 -0.7075405 0 
-0.145968 -2.272189 0 
3.568863 2.957088 0 
-4.155095 1.22581 0 
4.116335 0.8249853 0 
-1.144353 -2.022948 0 
1.180881 2.644151 0 
1.243676 -2.698698 0 
2.185757 2.138913 0 
-3.617113 4.360167 0 
3.294671 2.456131 0 
1.070429 3.338367 0 
-3.833887 1.019522 0 
1.449352 -0.6917188 0 
2.434393 4.45413 0 
4.654899 1.882936 0 
-3.881843 2.069089 0 
0.9759709 -2.053462 0 
0.2381441 -3.131113 0 
-1.265359 -3.904191 0 
-1.27894 -4.361457 0 
-1.136406 -2.158614 0 
-2.315576 -4.209399 0 
3.56333 4.124142 0 
4.558249 -1.218785 0 
3.314419 2.281133 0 
0.8725584 2.556221 0 
-3.14518 -4.335556 0 
-1.492823 -4.053524 0 
-2.971003 1.906477 0.0001642231 
-0.64486 -4.469489 0 
2.033557 -2.482769 0.002945129 
-4.453612 -4.862889 0 
-2.374998 3.099911 0.02735063 
1.326274 1.698885 0 
1.480551 -1.522996 0 
4.224786 3.756605 0 
0.4635975 4.057037 0 
-2.248663 -4.794907 0 
3.016551 -3.1135 0.2842461 
3.530916 -4.838705 0 
-4.685915 0.8074011 0 
-0.265995 -3.448397 0 
3.508619 3.202752 0 
-0.5123712 -1.277439 0 
2.972155 4.08546 0 
-1.837564 -0.7031174 0 
-3.866794 2.974817 0 
-3.831063 1.787929 0 
-0.01679415 -0.1172374 0 
-2.532321 4.899945 0 
-4.528018 0.5167018 0 
-1.304713 -4.414794 0 
-4.516627 0.1947323 0 
-2.759021 1.316406 0 
-2.938113 1.049556 0 
4.978279 -2.901773 0 
0.2599177 3.451777 0 
4.72888 -2.243281 0 
2.077979 -4.355811 0 
-4.081549 0.6289619 0 
4.832098 0.9351054 0 
4.38353 4.608609 0 
4.184158 2.814295 0 
0.8857406 2.463757 0 
3.556298 -4.793177 0 
4.841882 -2.608386 0 
-2.705065 1.544372 0 
-1.208327 -3.807709 0 
4.641531 2.191703 0 
-2.946657 -4.124462 0 
1.871988 -4.560605 0 
2.856822 3.900136 0 
-3.023376 1.785448 0 
-1.933741 -2.223401 0 
-0.06960522 3.909544 0 
-1.855363 -0.1852382 0 
1.903282 -0.2605787 0 
0.3483709 4.8592 0 
2.392288 3.509118 0 
4.896637 1.461858 0 
-0.689081 1.645547 0 
4.622684 4.034142 0 
4.019361 -3.737383 0.01027214 
-0.5485651 -1.018013 0 
-2.019421 -1.034626 0 
1.665746 2.404676 0 
-0.1359903 -1.366533 0 
-0.9159924 1.071355 0 
-0.478809 -3.151992 0 
4.049978 3.066114 0 
1.982128 2.593217 0 
1.212557 4.216872 0 
2.3227 -0.397523 0 
-4.722565 -1.317023 0 
-3.57153 4.951412 0 
0.319133 -4.537676 0 
-4.625575 -3.763895 0 
1.882605 1.191544 0 
-1.636325 3.878549 0.001382697 
-2.818666 0.3628385 0 
3.792188 4.298649 0 
-0.7735481 -0.8741496 0 
-0.4864994 -0.2519725 0 
0.3189924 0.9056771 0 
-4.01439 -3.497956 0 
1.000027 3.613126 0 
-0.1346191 1.898882 0 
3.256277 -3.396026 0.2279116 
4.806073 -3.215106 0 
-2.401967 -3.040275 0 
1.209279 0.3315467 0 
2.455333 -3.705013 0.03154927 
-2.866912 3.237682 5.060832e-05 
3.630465 2.849223 0 
4.918527 0.9183185 0 
1.736144 2.114246 0 
-1.070608 1.969062 4.916489e-05 
-1.772525 -1.142637 0 
3.189767 3.116894 0 
-2.152767 4.10906 0 
2.512386 4.009131 0 
2.347853 -3.710669 0.01663192 
-0.1201897 3.798246 0 
-1.806433 2.08949 0.03385266 
2.725055 -4.538581 0 
-4.76575 1.485716 0 
2.862144 0.140162 0 
-3.597001 1.472397 0 
4.80047 -2.677089 0 
0.7098203 -2.735631 0 
3.174311 3.471229 0 
-1.701141 2.740113 0.1093514 
4.061801 1.173513 0 
2.641501 4.065753 0 
0.1919782 -3.446086 0 
-3.354443 2.770592 0 
-3.561726 -4.401471 0 
-1.940061 4.910873 0 
-2.898511 3.93633 0 
-3.025831 -1.69055 0 
2.454712 1.826453 0 
-0.2667795 0.918413 0 
-1.232926 3.889565 0.002172831 
2.671244 3.439798 0 
4.284743 -1.957592 0 
-3.866499 -4.31782 0 
-0.345346 -2.808123 0 
-2.496428 -4.360731 0 
1.897759 -1.623192 0 
2.579166 3.769713 0 
2.2407 4.232819 0 
2.596655 -4.263968 3.138513e-05 
4.558811 0.220092 0 
-3.041801 0.9865149 0 
0.9345041 4.802031 0 
3.183813 4.713397 0 
-3.203963 1.163342 0 
-1.320992 0.6670255 0 
-1.012317 -0.5107927 0 
-0.8767062 -3.190241 0 
-4.100613 -3.148518 0 
4.619494 4.465916 0 
1.853018 -2.994319 0.0006387724 
1.082456 -2.584146 0 
1.787446 -2.122671 0 
-0.2323549 3.432322 0 
2.03452 -2.73634 0.00884485 
-0.4474363 -4.239753 0 
-3.352071 -0.5374216 0 
2.810119 4.888782 0 
-4.399688 -3.489106 0 
3.535009 1.090376 0 
-0.9022073 0.1394792 0 
1.004071 3.304557 0 
3.951688 1.90882 0 
4.574328 0.7561817 0 
3.192427 -2.890927 0.2909309 
0.1715977 2.766518 0 
-3.783778 4.266356 0 
0.7847307 -0.3296881 0 
-1.789289 2.931824 0.1033699 
1.325135 0.2905368 0 
3.061488 0.6032187 0 
-1.051602 -0.575709 0 
-4.899744 -1.447715 0 
2.440886 -4.596528 0 
-0.1844663 1.883751 0 
-3.973962 2.43108 0 
-2.01354 -2.148622 0 
4.214142 -1.4085 0 
-1.793231 -1.766655 0 
0.5279669 -4.429325 0 
1.723962 -1.174768 0 
0.2874488 -3.583454 0 
0.5167211 0.3695474 0 
-3.715419 4.671432 0 
-1.253424 -2.128039 0 
-0.6731143 2.436356 0.002198669 
-0.07269153 3.767957 0 
-3.095876 0.7428004 0 
3.622513 -0.09941142 0 
4.231728 -2.674824 0.009712785 
-4.995481 4.757766 0 
-2.792336 -0.354642 0 
4.030876 -4.842942 0 
3.002531 -4.910951 0 
-0.6596473 1.086002 0 
-1.787897 -2.264041 0 
-2.069493 0.2726859 0 
3.436011 4.594639 0 
-4.71727 -1.805805 0 
-0.8473151 0.1895078 0 
-1.811804 -2.191516 0 
0.9829992 3.33406 0 
0.8648692 -0.8763855 0 
-3.329556 -3.111245 0 
-4.039868 -0.8276689 0 
4.387738 -0.5690241 0 
-3.494667 -3.556133 0 
-1.969296 -0.2505271 0 
0.6931984 4.305528 0 
4.27316 1.130151 0 
4.22865 4.77034 0 
-3.702607 -0.06684555 0 
3.270974 -3.429526 0.2163037 
-3.971197 2.624906 0 
-1.393205 -0.1129638 0 
-2.795823 -0.5101558 0 
-4.888222 -4.251343 0 
1.58881 -4.848022 0 
-0.8007983 -2.050959 0 
-1.287805 0.4562676 0 
-1.635637 2.059462 0.02244037 
0.6513948 1.690156 0 
-3.91335 0.2424258 0 
0.9849276 -3.443632 0 
0.7970623 0.4105457 0 
1.007034 -4.432038 0 
-3.445728 -4.349786 0 
-0.4685522 2.189123 0 
1.677688 -0.6001897 0 
-3.153761 3.043402 0 
2.052178 3.304902 0 
1.198113 3.679649 0 
0.9617025 -0.8201873 0 
4.87347 1.837428 0 
-4.784538 2.860161 0 
4.433844 -3.371953 0.0005938842 
0.2992903 -0.6241533 0 
-1.449226 1.019977 0 
1.253767 3.238127 0 
1.740528 -0.3410939 0 
-1.455717 1.181923 0 
-1.469538 4.366306 0 
4.918793 0.9306941 0 
-4.525564 3.464643 0 
-3.776115 -4.645779 0 
2.682965 -3.497955 0.1285157 
1.814901 -2.643177 2.156817e-06 
0.7026443 2.826275 0 
-3.907629 -0.4283797 0 
-4.82418 -4.757139 0 
-4.929245 2.56977 0 
1.182905 -1.495055 0 
-4.316149 0.160622 0 
-4.556205 -4.186921 0 
-0.6474859 -4.205012 0 
-3.314541 3.51763 0 
1.819366 -2.871319 2.976968e-05 
-1.974735 -3.295892 0 
-0.5684876 0.07468213 0 
-3.026888 2.940509 0.0002674134 
-1.572264 -3.003329 0 
1.361072 -4.131929 0 
-0.3707387 -0.0722339 0 
-4.759942 -2.326362 0 
0.3072056 -2.245516 0 
4.261474 -0.3415924 0 
-0.719488 -0.2047225 0 
-3.754034 -1.639161 0 
-1.729877 -0.7392029 0 
-2.037873 2.880905 0.08780161 
3.733302 -0.7606553 0 
3.642635 -4.581942 0 
1.401757 -0.3906137 0 
4.475466 -2.849975 0.0005895206 
2.685128 0.7447151 0 
4.303524 -2.063644 0 
1.115111 -2.271124 0 
2.384714 -1.363248 0 
-0.1582755 -4.577333 0 
2.710296 -4.47972 0 
2.174463 -4.817125 0 
4.477613 -0.7579046 0 
1.39966 -4.433511 0 
0.1085989 1.164947 0 
1.096851 -4.569238 0 
0.3393269 4.044692 0 
1.862296 0.04674136 0 
-0.6901569 4.657475 0 
2.678744 1.220442 0 
2.038673 -1.159505 0 
3.163201 1.078204 0 
-0.04247532 -0.824597 0 
-1.345819 -3.799889 0 
2.086192 4.914063 0 
2.261438 -0.7282243 0 
1.683012 4.695244 0 
2.425159 2.02808 0 
1.633353 3.482713 0 
1.814297 1.684985 0 
-2.943563 -0.5606835 0 
3.54302 3.438075 0 
0.008131446 4.351644 0 
1.168545 -0.2798183 0 
-2.521218 1.992102 0.01319866 
-0.3889202 1.635289 0 
-1.876821 -2.390071 0 
2.645942 -4.367007 0 
-3.922156 -2.732728 0 
-1.798909 3.529396 0.02197594 
-4.606411 3.956492 0 
-3.855468 1.332141 0 
2.496006 -0.1325015 0 
-1.075272 0.4150825 0 
4.389355 3.902312 0 
1.296542 3.139088 0 
-4.896492 -3.769025 0 
-1.134997 -4.59311 0 
-4.745267 -3.770866 0 
-2.903426 2.449597 0.006314616 
-3.421671 4.507504 0 
-0.9814197 -2.336158 0 
1.007376 -2.915488 0 
-1.159134 3.037482 0.0629449 
-3.062573 -4.1692 0 
-1.330813 -1.355706 0 
-0.6817147 1.730235 0 
0.2761756 0.9907225 0 
-4.008335 2.260881 0 
1.281717 -3.138298 0 
1.154489 2.205266 0 
0.7264255 -0.3403949 0 
-4.105584 -2.896369 0 
0.4518895 3.032673 0 
-1.206914 -3.118076 0 
0.105138 -3.287362 0 
4.31935 -4.631474 0 
1.749902 -4.893553 0 
2.27995 -2.18503 0.00649851 
1.224058 -0.7323884 0 
2.867775 -3.105571 0.258612 
-0.6030189 -0.5752233 0 
-1.846117 4.957083 0 
-0.8038115 3.802716 0.0009211288 
4.954678 -0.8966423 0 
0.5898063 2.127244 0 
0.1390379 3.414141 0 
-2.732444 1.741175 0.0005897675 
-2.990805 2.534535 0.003227534 
-0.3006138 -2.819623 0 
-1.777677 -1.394717 0 
0.4740891 3.038543 0 
-4.91799 1.635076 0 
-0.4896495 3.759619 0 
1.007251 -1.050465 0 
-1.720497 4.928972 0 
-3.15861 3.919533 0 
0.3911324 -0.2212742 0 
1.297969 -2.854949 0 
-2.205616 0.5619392 0 
1.448225 3.458482 0 
1.985103 3.038531 0 
-2.724425 -1.523589 0 
-0.4901043 -1.356209 0 
-2.412559 -4.467332 0 
4.039752 0.8582208 0 
-1.8222 2.095053 0.03515075 
-3.941768 1.964848 0 
4.675719 3.293792 0 
-3.520601 4.663632 0 
-2.94292 1.015035 0 
-3.39373 2.564185 0 
-2.290004 3.333677 0.01226433 
-2.632501 4.964437 0 
0.2868448 1.762322 0 
-4.48583 4.412354 0 
-0.08834658 3.711804 0 
4.781727 2.749991 0 
-1.028636 1.139657 0 
-3.799186 4.361823 0 
2.508317 2.093178 0 
-3.719004 1.359422 0 
-1.574322 3.001406 0.09852689 
4.738179 3.423729 0 
-0.161525 3.930274 0 
1.510709 1.761933 0 
-4.456247 4.586655 0 
-2.001288 -4.377722 0 
1.506983 -0.7389317 0 
-2.004973 -3.206452 0 
4.00399 0.5114274 0 
-3.173018 -2.329076 0 
3.946348 -0.2513303 0 
-4.15663 -4.313172 0 
-3.623142 2.586582 0 
3.596803 3.287119 0 
-4.659411 -2.121578 0 
-1.834239 -0.05521234 0 
4.342435 2.762452 0 
2.492609 -4.287696 0 
-0.8865265 2.989503 0.03198364 
1.637891 0.8084435 0 
2.543231 -4.631852 0 
3.040128 3.134401 0 
-3.304586 3.849443 0 
-1.112799 -2.258117 0 
-2.555311 1.667444 0.001034438 
-3.273267 -3.061057 0 
2.448937 4.957098 0 
0.2102851 3.077806 0 
1.80567 -3.596483 0 
-1.249775 -4.016178 0 
-2.016109 0.5788754 0 
-2.228279 2.235543 0.04775321 
4.101287 4.048777 0 
-4.251682 3.522842 0 
-3.853839 2.960805 0 
2.973625 2.336349 0 
2.748485 3.570293 0 
1.03524 3.757497 0 
4.828539 -4.441838 0 
-2.408699 -1.184593 0 
-3.89011 2.110979 0 
-2.459223 2.304796 0.0355722 
4.28603 1.845352 0 
4.455263 2.833427 0 
-1.748189 1.37856 0 
3.78538 -1.553232 0 
-3.636216 -2.048197 0 
4.046892 0.4381612 0 
-3.913324 1.762237 0 
-2.527567 4.07763 0 
1.128707 3.715541 0 
-1.412973 0.4223127 0 
0.1613833 -2.636828 0 
-1.231264 3.582767 0.02106997 
-3.960891 0.2960298 0 
-0.7098851 -2.006806 0 
-2.828071 -1.754147 0 
4.13446 -4.609968 0 
-3.889139 0.3277618 0 
4.23663 -2.154104 2.485139e-05 
-0.7665958 -3.275413 0 
0.654389 3.822901 0 
1.746023 -0.8708023 0 
1.070662 -2.572674 0 
4.237822 -2.172223 9.782986e-05 
-2.086494 -1.711256 0 
3.139424 4.079144 0 
2.873137 -3.861528 0.05311957 
-4.238498 0.8406005 0 
0.6180881 3.292255 0 
4.776757 4.423819 0 
4.510529 -3.846948 0 
-3.273786 -4.256674 0 
3.686954 -3.592432 0.08739107 
-4.278049 -1.703455 0 
-1.509008 -2.762482 0 
-3.806813 3.774113 0 
3.243073 0.888325 0 
0.3393167 -3.62991 0 
-0.7533268 3.651057 0.003037451 
4.630425 3.684608 0 
1.751036 0.3419589 0 
-1.630765 3.719038 0.008991154 
-4.058455 -1.10996 0 
1.837107 0.5850347 0 
0.8169047 -0.04337017 0 
-0.7271346 -4.806804 0 
4.933042 3.5839 0 
1.55044 0.03742981 0 
2.038628 4.076922 0 
0.7257882 -0.8737506 0 
-1.998104 4.0269 0 
-0.8160512 -3.147122 0 
2.35725 0.02301836 0 
1.002353 -1.862532 0 
2.647225 3.312844 0 
-0.8633574 4.596368 0 
1.720361 2.695787 0 
4.256681 3.008664 0 
-1.552967 2.683571 0.09987162 
-3.31587 -2.283017 0 
2.250045 -2.736272 0.0453934 
-4.158198 -2.723236 0 
0.6057111 2.026013 0 
-3.329977 -2.054254 0 
-2.214532 -0.7800385 0 
3.75276 -2.971186 0.1584411 
0.5724335 -4.506674 0 
-3.572647 -3.409624 0 
-1.409495 -2.602894 0 
-4.495132 0.3455289 0 
-0.4862268 0.8280234 0 
-0.9372758 4.628109 0 
-3.244392 -2.151184 0 
2.360355 -3.528593 0.0405574 
4.254367 1.045704 0 
2.133376 1.480362 0 
4.456981 0.758849 0 
4.246214 -1.0043 0 
-2.571387 -2.088416 0 
1.626762 3.309269 0 
-0.2577745 -4.738824 0 
-0.7899796 -0.8139157 0 
-3.442526 2.114865 0 
-1.938714 -0.5939609 0 
-3.788874 4.07319 0 
0.7650992 -2.486682 0 
0.9432794 -1.485524 0 
-0.9233028 2.864702 0.0349223 
2.616264 -0.8390362 0 
-0.02378388 -1.594984 0 
1.075106 3.499797 0 
-3.439563 -4.357989 0 
2.527908 4.732279 0 
-3.865777 4.88061 0 
0.8206764 -4.547913 0 
-0.3310628 4.554878 0 
-2.522361 -1.268688 0 
-4.838038 -0.4808898 0 
2.31381 -3.892238 0.00240312 
4.663728 3.878529 0 
3.251502 -3.755782 0.100422 
-4.401644 1.396995 0 
-2.541867 -2.181124 0 
-3.101314 3.851948 0 
-0.6350601 4.588737 0 
2.499207 -4.978024 0 
4.184212 -1.957872 0 
-1.635976 3.753715 0.006819996 
4.063693 -4.194171 0 
4.985749 -3.241507 0 
3.696604 0.8328538 0 
4.811316 -3.24746 0 
2.503603 4.551336 0 
-2.35596 -0.3730497 0 
1.043469 4.083894 0 
-2.39815 -1.992981 0 
2.679385 -1.652369 2.94707e-05 
3.044145 -4.428343 0 
-1.17174 2.208118 0.01019758 
-3.179236 2.242012 4.442694e-05 
4.494643 -1.029146 0 
1.775886 4.314143 0 
-4.577 -1.881967 0 
-0.02453246 2.820904 0 
1.147175 -1.724284 0 
3.954582 -4.112765 0.000126273 
3.242606 2.651276 0 
-2.195274 1.464503 8.307402e-05 
-1.949524 0.4088679 0 
-2.582374 -4.691606 0 
0.09076716 1.561633 0 
-1.712766 0.413651 0 
-0.2878208 -4.95459 0 
-1.605377 2.490475 0.08376318 
-4.189558 4.828766 0 
-2.291289 -3.464491 0 
2.373559 -1.328686 0 
3.249432 4.133293 0 
3.171757 0.5624085 0 
-2.265302 2.933591 0.05528868 
-1.534927 4.008021 1.87963e-05 
3.761 2.984489 0 
0.9814719 1.256431 0 
-2.007425 -2.94176 0 
4.719164 -2.540525 0 
-2.509743 3.996346 0 
1.02826 2.187681 0 
-3.619584 -4.948428 0 
-0.0532819 -0.4453377 0 
3.894269 -0.252542 0 
0.5244371 4.403401 0 
-4.933849 -4.637049 0 
2.532424 4.786681 0 
1.258078 -2.821891 0 
1.949172 4.094335 0 
-2.868007 2.50792 0.008277342 
3.025816 -4.238457 0.003312118 
0.8931819 3.310242 0 
-2.649959 2.06449 0.01078026 
0.8906655 4.154404 0 
-1.04063 2.437743 0.02114481 
-1.398232 -3.529329 0 
-0.5842549 3.853802 0 
4.57369 4.90828 0 
4.499888 -3.828287 0 
-3.233235 1.154368 0 
0.5983079 -4.324365 0 
-3.999479 0.613996 0 
1.155247 -0.7618347 0 
-3.523259 -2.608253 0 
-0.8028836 -3.602972 0 
0.4150183 3.41609 0 
4.421117 -0.02321009 0 
1.286073 -4.896465 0 
2.673483 -3.289927 0.1761753 
-0.4862403 4.216115 0 
3.730235 -1.2314 0 
-3.378216 4.374855 0 
3.631017 -3.111272 0.199841 
2.352406 -2.510232 0.04628428 
-4.054342 -1.434434 0 
-1.162583 3.838155 0.003367411 
0.5489737 4.512728 0 
1.010273 -2.873755 0 
1.768641 -4.350081 0 
4.532492 3.903397 0 
0.1821709 -2.944458 0 
4.724021 -2.385504 0 
4.288177 -4.668473 0 
-3.709 -3.035477 0 
-3.381094 -4.143077 0 
1.837277 -4.485146 0 
-4.868928 0.07536303 0 
2.438983 -4.952079 0 
-4.124891 -1.185338 0 
-3.940943 -1.062925 0 
2.748257 -0.2293186 0 
4.800705 4.341927 0 
1.72468 -3.622056 0 
2.688195 -3.89701 0.02772316 
-4.053327 0.7079408 0 
1.86394 -4.423462 0 
-2.732211 -4.966649 0 
-2.412019 2.999246 0.03229664 
-3.180459 -3.803051 0 
-3.754792 0.3859778 0 
-4.286467 -3.796115 0 
-3.114928 -0.5957183 0 
-1.828459 -3.640636 0 
3.313081 -4.172807 0.007122193 
4.390686 2.802866 0 
-2.700541 4.969502 0 
-4.25171 1.343081 0 
0.4514735 -3.106775 0 
-1.774233 -1.586924 0 
2.720498 -3.54777 0.1240993 
4.761739 0.9901013 0 
0.1276688 -0.7470107 0 
3.120291 -2.440336 0.1773913 
-2.29201 -0.3897727 0 
-0.6713239 -4.900249 0 
-2.969918 4.05532 0 
-2.176873 2.190399 0.04515611 
-0.2806563 1.46327 0 
0.1987717 3.253093 0 
-2.267499 -1.462842 0 
2.129107 4.854037 0 
-2.265196 0.08349896 0 
-2.416919 3.429125 0.001546335 
0.8081497 2.917872 0 
3.064975 -2.076397 0.04839886 
-2.438962 0.1985506 0 
3.248956 -3.045775 0.2915494 
2.21399 2.565605 0 
-0.3994931 -4.137039 0 
-2.051448 -1.162642 0 
2.563394 -2.813866 0.1564996 
-2.961321 3.975942 0 
3.706963 0.8091518 0 
-2.654913 4.881941 0 
-2.056265 2.454084 0.07971907 
-2.048457 -0.5784311 0 
3.172421 -2.348566 0.141747 
0.8501792 1.230346 0 
-2.088052 -2.858196 0 
0.4229204 -3.013015 0 
4.322777 -2.560192 0.00220638 
-4.903515 3.612622 0 
-0.06175362 -3.684929 0 
-4.925854 -3.605302 0 
-3.624081 0.7533134 0 
-3.180271 -0.3294801 0 
-3.653972 3.451756 0 
-4.220798 -0.3310874 0 
