ply
format ascii 1.0
comment VCGLIB generated
element vertex 1820
property float x
property float y
property float z
element face 0
property list uchar int vertex_indices
end_header
0.031068 0.07585924 0 
-0.07807088 -0.09118257 0 
0.0488242 0.0722345 0 
0.04562945 -0.06468057 0 
0.05437071 -0.002653166 0 
0.00225368 0.03066616 0 
-0.00610673 -0.05272115 0 
0.05605418 0.02432573 0 
0.004074666 -0.06405721 0 
-0.04111886 -0.00058096 0 
0.04187493 -0.01523306 0 
0.08329119 0.02009613 0 
-0.052519 0.09467706 0 
-0.004930719 -0.009446439 0 
0.09559326 0.01714654 0 
-0.04873712 0.0368119 0 
0.09057854 0.07018769 0 
0.05836409 0.08666635 0 
-0.09121726 0.009851077 0 
0.01774493 -0.05900045 0 
-0.0176349 0.07095714 0 
0.02130406 0.01473156 0 
-0.06994665 1.257926e-05 0 
-0.06089155 0.04824683 -0.0001639057 
-0.06174253 -0.06699668 0 
-0.06511232 0.07922076 0 
-0.04352248 0.03976512 0 
-0.06877757 -0.05282483 0 
-0.01608502 -0.02930468 0 
0.08694994 0.05090827 0 
-0.01528603 -0.05228487 0 
0.03040123 -0.02311455 0 
-0.09918167 0.0728825 0 
-0.09141717 -0.091713 0 
0.09470537 -0.07045063 0 
-0.07499619 0.03944634 0 
-0.09778214 -0.07714196 0 
-0.05161037 -0.02592699 0 
0.0625748 0.06789032 0 
-0.03567261 -0.05967562 0 
0.05694179 0.0231528 0 
-0.07388084 0.02061846 -1.272847e-05 
-0.09146091 0.05804957 0 
0.08742679 0.03343053 0 
0.09687105 0.0617008 0 
-0.0715159 -0.08544753 0 
0.0833072 7.832518e-05 0 
-0.00803918 -0.0690489 0 
0.06960691 -0.05612201 0 
0.03958769 0.03104561 -0.0001043233 
0.09035614 0.05174831 0 
-0.02668266 -0.06546414 0 
-0.09959958 0.00804944 0 
-0.08701166 0.05616513 0 
0.09855837 -0.03297503 0 
0.09227791 -0.06217813 0 
0.09240787 -0.04263207 0 
-0.0810406 -0.09790456 0 
0.03280029 -0.04102822 0 
-0.04474419 0.04525632 0 
-0.03487807 -0.02967382 0 
-0.09390958 0.0379692 0 
0.06064112 -0.07972735 0 
-0.04749323 0.02204273 0 
-0.08286827 -0.09053133 0 
0.02427301 -0.002328814 0 
-0.01675602 -0.001389674 -2.161481e-05 
0.07004541 0.0538606 0 
-0.03678455 0.07591054 0 
-0.0758276 -0.06641995 0 
-0.06334811 -0.08359586 0 
0.03330202 -0.05306022 0 
0.01836324 -0.03720991 0 
0.004648596 -0.0565284 0 
-0.004975738 0.06508069 0 
-0.07877307 0.04956748 0 
0.06138623 0.06651862 0 
0.03933196 0.07085898 0 
0.06854589 -0.0009719301 0 
0.04928496 0.0600581 0 
-0.03291927 0.02888338 0 
-0.07134414 -0.0761298 0 
0.09028821 0.08317605 0 
-0.01053893 0.08397602 0 
-0.03493805 -0.05226094 0 
-0.01462426 -0.02926171 0 
-0.01006037 -0.09573936 0 
-0.03344199 0.0793563 0 
-0.0150045 0.04639513 0 
-0.04057255 -0.04923455 0 
0.0956282 0.01722457 0 
-0.04731526 0.04445099 0 
-0.01291081 -0.02880042 0 
-0.08216594 -0.001852397 0 
-0.05513941 0.03482149 0 
0.08015622 0.07384352 0 
-0.001670813 0.05296723 0 
-0.09449449 0.003402761 0 
0.05505475 0.0001216714 0 
-0.00910952 0.05837609 0 
0.03771078 -0.00641694 0 
-0.006210717 -0.07367606 0 
0.002603351 -0.08217543 0 
-0.03220806 0.03870197 0 
0.0964655 0.04713122 0 
0.06178584 -0.0988834 0 
-0.06533429 0.05320714 0 
-0.09775467 -0.004317533 0 
-0.07196283 -0.06326117 0 
-0.01241922 0.06880548 0 
-0.0008659436 -0.05502227 0 
0.02613424 0.06529923 0 
-0.07991563 0.07484895 0 
-0.02883716 -0.02021611 0 
0.09829423 0.07984108 0 
-0.008354746 -0.008286896 0 
-0.001851199 -0.02630039 0 
0.05555094 -0.06079378 0 
0.04539952 -0.009696959 0 
0.07403678 -0.09705213 0 
-0.02833351 -0.01725559 -2.734239e-05 
0.02698863 -0.07695483 0 
0.02050213 0.07203433 0 
0.02615491 -0.06205798 0 
-0.0655117 0.04255287 -5.676208e-05 
0.0978308 -0.04777806 0 
-0.008749517 0.01909669 0 
0.009434424 -0.08000602 0 
-0.05614033 0.08091491 0 
-0.01739831 -0.09210093 0 
-0.07842569 0.05180793 0 
-0.07664755 0.06849656 0 
0.09279576 0.0192247 0 
-0.0420074 0.03775834 0 
0.07607426 0.07761718 0 
-0.04019165 0.0202963 0 
0.007962611 0.01174483 0 
-0.01450015 0.07954552 0 
0.08742163 -0.05746309 0 
0.03346933 0.04981086 0 
0.03357764 0.07653864 0 
-0.02736953 0.08784109 0 
-0.09755882 0.06673674 0 
0.09669437 -0.04702235 0 
0.05468368 -0.06097435 0 
-0.009556946 -0.08117585 0 
-0.01290624 0.0005593459 -0.0001004207 
0.07186551 -0.05280372 0 
0.03308053 0.04425766 0 
0.06568646 0.0905547 0 
0.08014505 -0.003474557 0 
0.06592606 -0.03378531 0 
-0.01490116 -0.07217035 0 
0.01446986 -0.01869326 0 
-0.05549665 0.08439729 0 
-0.06071489 0.03352461 0 
0.07466248 -0.02931067 0 
0.02239512 0.08078875 0 
0.02129524 0.007602116 0 
-0.05460815 0.03542119 0 
-0.06692412 -0.0008435808 0 
0.08389167 -0.03566608 0 
0.05725675 0.08881125 0 
-0.04391644 -0.09206797 0 
-0.005229061 -0.01219341 0 
-0.0444417 -0.0003713791 0 
-0.06989753 -0.09400959 0 
0.08214518 -0.03152213 0 
0.00523488 0.01898609 0 
0.02186393 0.00748685 0 
-0.06840192 -0.03565803 0 
0.06125552 -0.09383486 0 
0.09625082 0.003951863 0 
-0.0742315 -0.01507017 0 
-0.08191251 -0.02616801 0 
-0.03493121 -0.06437133 0 
0.09804276 -0.09937043 0 
0.06855035 0.09336196 0 
-0.06442112 -0.01228978 0 
0.03646168 0.08525194 0 
-0.05164556 0.07788435 0 
0.07599785 0.04438522 0 
0.03118464 -0.001784995 0 
-0.05897967 0.006899172 0 
-0.07403004 -0.06171587 0 
-0.09343595 -0.06068978 0 
0.06775837 0.09653792 0 
-0.05355139 0.08235036 0 
0.07472759 0.09334606 0 
0.02297695 -0.09789168 0 
0.01606804 -0.0159637 0 
0.08728927 -0.05074083 0 
0.09017344 -0.09417821 0 
0.02668019 -0.05090513 0 
-0.01080536 0.07339184 0 
-0.0238459 -0.0668078 0 
-0.049058 -0.08801078 0 
0.08242457 0.05284069 0 
0.003173942 0.005905186 0 
-0.08410497 -0.06388558 0 
-0.01287307 0.05095527 0 
-0.00838284 0.01751823 0 
0.05992514 0.01119608 0 
-0.05786686 0.08180501 0 
-0.02212993 -0.07599793 0 
0.01619365 0.03367666 0 
0.09979612 -0.05025019 0 
0.03448365 -0.04686037 0 
-0.05252381 0.02774015 0 
0.05828061 0.05969048 0 
0.06198202 0.0306692 0 
0.08617844 -0.09395337 0 
-0.06457092 -0.0735901 0 
0.03466729 0.08415346 0 
-0.05912854 0.09832001 0 
-0.07055798 0.09009659 0 
0.05950957 -0.0270674 0 
-0.03529442 -0.06324021 0 
-0.04666794 0.03420351 0 
0.007450242 0.06540745 0 
0.09092321 0.007189702 0 
0.05619484 -0.03355952 0 
-0.09687859 0.02592693 0 
0.02298693 0.07302563 0 
0.01364815 0.08996142 0 
0.007515609 0.01248122 -8.634051e-05 
0.08938248 -0.004361477 0 
-0.08185035 0.05983429 0 
0.07105033 0.09832828 0 
-0.08112609 -0.0415679 0 
0.08486478 -0.08958966 0 
-0.05178473 -0.07924666 0 
0.09031157 -0.04526705 0 
0.07799874 0.04671525 0 
0.03246816 0.01002626 0 
0.03771417 0.07855346 0 
0.01137239 -0.01290472 0 
0.05353458 0.09341297 0 
-0.08717042 -0.02966097 0 
0.06437501 0.03750473 0 
-0.09970109 0.04771481 0 
0.04149819 -0.04123452 0 
-0.0737198 0.02536805 -3.282889e-05 
-0.07261652 -0.0667707 0 
-0.08125946 -0.09835478 0 
-0.08258665 0.03681124 0 
-0.07882001 -0.08929691 0 
-0.07358639 0.04746683 0 
0.01485213 0.02740333 0 
0.06569836 0.03465773 0 
-0.01841036 -0.08259508 0 
0.03499208 0.01160535 0 
0.05895506 0.05190742 0 
0.01406484 -0.07058282 0 
0.04826503 -0.00615446 0 
0.05995907 0.01121888 0 
0.03004044 0.06694715 0 
-0.07330207 0.00640142 -0.0001152672 
0.002447625 0.05713606 0 
0.06260481 0.01048729 0 
0.04195489 -0.06723686 0 
0.0923872 -0.01869863 0 
0.04445541 0.02285392 0 
0.01784573 -0.05717811 0 
-0.0215373 -0.01813943 0 
0.005956609 0.03674388 0 
-0.006066404 -0.08822226 0 
-0.07537214 0.06435837 0 
0.05707042 0.03908673 0 
-0.07090792 -0.03736107 0 
0.0801937 -0.06111236 0 
0.079592 0.02320519 0 
0.04138007 -0.06348766 0 
-0.04375926 0.06951546 0 
0.007465915 -0.08259148 0 
0.01172016 0.03876518 0 
-0.04677708 0.01729782 0 
-0.002887947 0.03661669 0 
-0.04939907 0.0009512365 0 
0.04570519 -0.009255621 0 
-0.08072501 -0.09725557 0 
-0.01712718 -0.01500512 0 
-0.07189575 0.05822918 0 
0.09910814 0.05895683 0 
-0.08299997 0.0248765 0 
0.08359833 -0.07471401 0 
0.01394274 -0.09071044 0 
-0.09549471 0.09512208 0 
-0.08000285 0.02582231 0 
-0.04303339 0.0131123 0 
0.06298339 -0.09435675 0 
0.02907646 -0.05658415 0 
-0.03094242 -0.003431455 0 
-0.03497754 -0.04956663 0 
0.009111037 0.02208025 0 
0.01974785 0.01003609 0 
0.07915854 0.04273013 0 
-0.05132972 -0.07704028 0 
0.08388274 0.04211197 0 
-0.004282037 -0.0744842 0 
-0.02813892 -0.03710104 0 
-0.0384571 -0.03176484 0 
0.08580238 0.09046397 0 
-0.01199106 -0.05916698 0 
-0.02377598 0.07815924 0 
-0.09075399 -0.0573086 0 
0.03581141 -0.06608566 0 
-0.08922333 -0.03966894 0 
-0.003256023 0.0326516 0 
0.05390726 0.008197586 0 
0.02272334 0.006071986 0 
-0.0493601 0.0373211 0 
0.0009772206 -0.0521996 0 
0.06059469 0.07701276 0 
-0.0006642129 0.0799171 0 
0.09090364 0.07078493 0 
-0.0173 0.004573382 0 
0.04560274 0.02743724 0 
-0.03447346 -0.04803421 0 
-0.07493711 -0.03893321 0 
-0.0237489 0.06292355 0 
0.06946325 -0.07212947 0 
0.01427053 -0.05208769 0 
0.07307721 0.02202153 0 
-0.06471716 -0.08748692 0 
-0.0134309 0.01647551 0 
0.02732817 0.06855736 0 
-0.06829202 -0.03042479 0 
-0.02947322 0.0571343 0 
-0.02730588 0.02739775 0 
0.08140974 -0.04540464 0 
-0.04371509 0.08051185 0 
-0.01262615 0.07628726 0 
0.08122142 -0.02064526 0 
0.07036803 -0.03206223 0 
0.06607765 0.08539463 0 
0.03107807 0.09274614 0 
0.05745808 0.03105932 0 
-0.0593352 0.05071746 -5.292556e-05 
0.08424914 0.03659266 0 
0.050691 0.03249219 0 
0.02133965 -0.08339158 0 
-0.09653929 -0.08995745 0 
-0.05447992 0.03938948 0 
-0.02098365 -0.01831478 0 
-0.07007147 -0.08314314 0 
-0.0597974 0.02750432 0 
0.05916294 -0.04254292 0 
0.0683061 -0.06028828 0 
0.01653034 0.05054215 0 
0.02325077 0.08065086 0 
-0.0821346 0.05839084 0 
0.03805754 0.01222664 0 
0.05533784 -0.03965427 0 
0.02212398 0.0004399362 0 
0.04661049 -0.09524764 0 
-0.05620139 -0.01771441 0 
-0.05258848 0.07599718 0 
0.0934377 -0.07593015 0 
-0.0183502 0.06672011 0 
-0.02084082 -0.03456803 0 
0.09830495 -0.03591621 0 
-0.04901886 -0.09589788 0 
-0.01777848 0.07278527 0 
-0.02865888 -0.06532423 0 
-0.07358796 0.07051281 0 
0.05582509 -0.01549644 0 
0.08992887 -0.01710183 0 
0.01722751 0.08412886 0 
-0.04755419 -0.01993729 0 
-0.02157672 0.02196506 0 
-0.08065627 0.09076107 0 
-0.04811193 -0.02432165 0 
-0.0493017 -0.08740921 0 
0.04947661 -0.05364909 0 
-0.07382117 -0.03247454 0 
0.004038614 0.008959327 -2.455203e-05 
0.08623384 -0.05404139 0 
0.01708684 0.07307331 0 
-0.01692568 0.053565 0 
0.03276791 0.06607204 0 
0.05060262 -0.006219983 0 
-0.08429265 0.07711811 0 
0.02377327 -0.08408909 0 
0.008388074 -0.09839317 0 
0.05958454 0.07784285 0 
-0.02112958 0.04264735 0 
0.02951623 0.07934219 0 
-0.03816081 0.08201676 0 
-0.07662185 -0.07935098 0 
0.074931 -0.04766343 0 
0.08445964 0.08361737 0 
0.09913012 -0.02488111 0 
-0.02155474 -0.01286245 0 
-0.03312996 0.06473434 0 
0.07041094 0.05713847 0 
0.00603372 0.0991904 0 
0.007393702 -0.06981181 0 
0.003087716 0.004718703 0 
0.01292884 -0.009134181 0 
0.03307439 -0.07363057 0 
-0.0141035 -0.02434437 0 
-0.07330219 -0.04254694 0 
-0.06440583 -0.04715004 0 
0.05235072 0.03507604 -3.023629e-05 
0.02513453 -0.02153355 0 
0.04970958 -0.03106803 0 
-0.09998272 0.06677894 0 
0.002245033 0.008120691 -2.272919e-05 
-0.04246507 0.06966814 0 
0.02888349 0.02618881 -0.0003023351 
0.00349351 -0.06237444 0 
-0.04773039 -0.08363413 0 
-0.07008501 0.04713688 0 
0.03971703 0.09140016 0 
0.0730443 0.05589753 0 
0.09603976 -0.09162809 0 
-0.001603632 0.03870451 0 
-0.08603089 -0.0147282 0 
-0.006009674 0.03223268 0 
-0.04479072 0.09945953 0 
0.06287979 -0.05900873 0 
-0.06665343 -0.0806113 0 
-0.09453681 0.005451553 0 
-0.03419347 -0.085928 0 
0.03399773 0.05935865 0 
-0.002855852 -0.07335819 0 
0.07263242 -0.03262337 0 
-0.0700158 0.01504127 0 
-0.06539324 -0.09739944 0 
0.05509859 -0.04474561 0 
0.06892207 -0.0151544 0 
0.08205052 0.08968854 0 
-0.04092086 0.09381676 0 
0.07235155 0.004520137 0 
0.02233138 -0.07025596 0 
0.03004333 0.008211188 0 
-0.09240812 0.06759402 0 
0.02736892 0.09229627 0 
-0.02016738 0.03155589 0 
-0.03339703 -0.09586353 0 
0.05623569 -0.06527108 0 
0.08073016 0.07209694 0 
0.0801302 -0.03949239 0 
0.03587331 0.08900988 0 
-0.06237981 -0.07747229 0 
0.01828486 0.02769944 0 
-0.06298324 -0.09978934 0 
-0.05412519 -0.01700572 0 
-0.05033856 -0.09328742 0 
0.06066817 -0.07412913 0 
0.02789566 0.05953551 0 
-0.007421784 0.03741851 0 
0.06515235 -0.08785795 0 
0.01115022 -0.07789616 0 
-0.08171254 -0.0639141 0 
-0.09716496 0.04116561 0 
-0.01419505 0.0752546 0 
-0.07554115 -0.07172 0 
0.06340983 0.001916995 0 
-0.04661846 0.03311674 0 
-0.07066084 -0.05955929 0 
-0.006411577 0.01992245 0 
0.04980887 0.03272867 -5.623185e-08 
-0.01029569 0.06827522 0 
-0.03464178 0.09156902 0 
-0.0663531 0.08975882 0 
-0.01399581 -0.04957423 0 
-0.08340182 0.09387104 0 
-0.05148945 0.01217176 0 
-0.003664687 0.05046259 0 
0.0007342292 0.0869353 0 
-0.01729706 0.00305584 0 
-0.05873994 -0.09629063 0 
0.06664826 -0.09055923 0 
0.03606944 -0.05977564 0 
-0.05333979 -0.01652967 0 
0.09776842 0.05561712 0 
0.009628904 0.04128008 0 
0.08958428 0.008939983 0 
-0.03799374 0.01366985 0 
0.03961493 -0.007356996 0 
0.04494102 0.00557714 0 
-0.02819213 0.02762753 0 
0.08730887 -0.05203649 0 
-0.05319725 0.08580023 0 
-0.09194586 -0.04839427 0 
-0.05189602 0.008647346 0 
0.01344427 0.06566653 0 
0.08826808 0.06162484 0 
-0.05337625 -0.003453713 0 
-0.04853588 0.06435018 0 
0.06191727 -0.03981606 0 
-0.09265582 -0.03328601 0 
0.06891401 -0.03401155 0 
-0.03827774 0.0940171 0 
0.05774336 0.03531048 0 
0.06680981 -0.08673143 0 
0.03171615 -0.08328046 0 
-0.05741572 0.06901277 0 
0.04727501 -0.09095508 0 
-0.06625018 0.09024025 0 
-0.02174864 -0.01569017 0 
0.04657524 -0.02541441 0 
0.03979633 0.05704257 0 
-0.08303042 -0.04202102 0 
-0.01080692 0.07797553 0 
0.04231576 0.0611907 0 
0.05598451 0.03444129 0 
-0.06222158 0.09241763 0 
0.06429884 0.05575182 0 
0.07334914 0.03130921 0 
-0.004257006 0.06622174 0 
-0.09961176 -0.01374501 0 
-0.04346406 0.04480367 0 
0.03312863 -0.01884812 0 
-0.08716837 0.007489846 0 
-0.04039462 -0.05472773 0 
0.08962277 0.04238917 0 
0.07446188 0.01239391 0 
-0.08837968 -0.03581468 0 
0.08428206 0.06112453 0 
0.08278711 0.09520494 0 
-0.04132172 0.03082829 0 
-0.06931619 -0.08717 0 
-0.07040364 0.01790191 -1.373255e-05 
0.03069247 0.01683331 0 
-0.001811734 -0.07757142 0 
0.02643728 -0.06089864 0 
-0.06787677 0.08378567 0 
0.07409302 -0.08110759 0 
-0.07756701 -0.07744099 0 
-0.04020869 0.01635099 0 
0.01560676 -0.03338702 0 
0.03544213 0.03788148 0 
-0.07325274 -0.01828787 0 
0.061211 0.009156615 0 
0.06708485 -0.08481115 0 
0.01529116 -0.06538986 0 
-0.0882538 0.04410448 0 
-0.06687869 0.04343815 0 
0.04291551 0.04101852 0 
-0.04323412 -0.04548227 0 
0.02721597 0.081717 0 
0.09096407 0.02665379 0 
0.08678803 0.02494546 0 
0.08866347 -0.03216984 0 
-0.04315779 0.09123538 0 
-0.08844638 -0.07492808 0 
0.0009882089 -0.07466056 0 
-0.0759696 -0.01851606 0 
-0.04720109 8.099493e-05 0 
0.0807979 0.09479569 0 
-0.09740764 -0.05304982 0 
-0.08469073 -0.02948187 0 
-0.0754834 0.02544456 0 
-0.07983001 0.06477013 0 
0.05988457 -0.04824666 0 
0.01793548 -0.09819909 0 
0.003782588 0.008543864 -1.455048e-05 
0.04061559 -0.004505359 0 
0.01952007 0.009148581 0 
0.06595697 0.03965314 0 
0.06012701 -0.04540111 0 
-0.01229073 0.008625372 0 
-0.06408116 -0.09944015 0 
0.09571123 0.08188163 0 
-0.08413412 -0.02915005 0 
-0.04960324 -0.0952595 0 
-0.05503415 0.08066453 0 
0.06573432 -0.05308807 0 
-0.07330006 0.0608668 0 
-0.005674766 -0.07353836 0 
-0.02154095 -0.0007811233 0 
-0.00178329 0.05462126 0 
0.08102275 -0.001093735 0 
0.07088298 -0.04241398 0 
-0.05224739 -0.01590136 0 
-0.02064502 -0.06075704 0 
0.02619779 0.0007170336 0 
-0.004943325 -0.06232559 0 
0.0004247401 0.04290534 0 
-0.08961748 -0.05919294 0 
0.03875722 0.08474407 0 
0.0890201 0.007022598 0 
0.09754686 -0.03690866 0 
0.0003613023 -0.09574356 0 
0.03623497 -0.01421617 0 
-0.0300959 -0.05947914 0 
0.04169749 0.09896506 0 
-0.04754785 -0.0544495 0 
0.07203785 -0.09972306 0 
0.04800255 0.03252422 0 
0.023585 0.05062063 0 
-0.006639509 -0.09587265 0 
0.02920564 -0.04456751 0 
-0.0832528 0.09804829 0 
0.0050195 0.04806609 0 
-0.03652623 -0.05615924 0 
-0.06242849 -0.02925497 0 
0.01638591 0.0424231 0 
-0.08635269 0.09626954 0 
-0.09482858 0.06641851 0 
0.03080117 -0.0275828 0 
-0.02763148 -0.05290705 0 
-0.02216791 0.09630816 0 
0.05082076 0.08686443 0 
0.06427707 0.05360437 0 
-0.04577081 0.08409793 0 
0.006459801 0.03780767 0 
-0.003493649 -0.00854974 0 
-0.005667043 -0.07316683 0 
0.0394343 0.03553139 0 
0.04499479 0.04367733 0 
-0.06327955 -0.07092866 0 
-0.01632854 0.07606207 0 
0.0008302197 -0.005421761 0 
-0.01649849 -0.01908272 0 
0.08037274 -0.04231783 0 
0.01223532 0.09688391 0 
-0.06496054 0.03454622 0 
0.0631074 -0.0702675 0 
-0.002677731 0.02959213 0 
-0.03071789 -0.02005885 -0.00012686 
-0.02429609 -0.08399509 0 
0.009107884 0.0853648 0 
0.09763624 0.09415808 0 
0.09098986 -0.07212992 0 
0.08098599 0.02975386 0 
0.06836265 0.08979908 0 
0.03501473 0.06413744 0 
0.05850215 -0.03173894 0 
-0.04453737 0.03511335 0 
0.05629175 0.02920244 0 
-0.05104433 0.06050502 0 
0.02995032 -0.08268418 0 
-0.004262574 -0.01865325 0 
-0.05676907 0.04534779 0 
0.09327926 -0.0151893 0 
-0.04272097 0.05131857 0 
0.07852637 0.08448656 0 
0.004465637 -0.04473786 0 
-0.07160279 0.04177916 0 
-0.02418003 -0.007947448 0 
-0.05963365 0.03301438 0 
0.05822675 -0.06198291 0 
0.067108 0.004164171 0 
0.08627185 0.04206316 0 
0.04705308 0.0486159 0 
0.0274921 -0.09002945 0 
-0.03732747 0.09940092 0 
0.0840234 -0.04551088 0 
0.0769649 0.04929336 0 
0.08706342 0.09797448 0 
-0.005292395 0.09613708 0 
-0.0430726 0.02310493 0 
0.04975369 0.03549787 -0.0002324067 
-0.01512781 0.09007671 0 
0.09745649 -0.05056696 0 
-0.07735077 -0.07366157 0 
0.08848757 -0.03667481 0 
-0.03791664 0.07965013 0 
-0.02900324 -0.0831175 0 
0.04302109 -0.003561425 0 
0.09865847 -0.02847057 0 
0.05120309 0.04752328 0 
0.08866441 -0.0748726 0 
-0.05234273 0.02652188 0 
-0.02191561 0.0214793 0 
0.06808754 -0.0322875 0 
0.05062187 0.09608411 0 
-0.08393992 -0.009777365 0 
-0.07769563 -0.0236924 0 
-0.03943526 0.003121106 0 
0.09841138 0.0638183 0 
0.07706029 0.06045609 0 
0.07684007 0.08137859 0 
0.01116752 -0.0422882 0 
-0.0861803 -0.06180629 0 
-0.08469643 -0.03993148 0 
-0.04877067 -0.07185617 0 
0.06181425 -0.0223511 0 
-0.00556863 -0.02152886 0 
0.02353614 -0.02334917 0 
-0.0847093 0.0747623 0 
0.09626156 0.05790731 0 
-0.08389548 -0.01263139 0 
-0.02573062 0.08530057 0 
-0.03729257 -0.04094795 0 
-0.02372999 0.0735807 0 
0.07958201 0.04595061 0 
0.04544215 0.04541513 0 
-0.003919147 0.0815568 0 
-0.0422544 -0.02072509 0 
0.03847627 -0.01960102 0 
0.05078084 0.09142226 0 
-0.01940837 -0.09453381 0 
0.006606388 -0.03213289 0 
0.001272213 0.01834608 0 
0.06646906 -0.08858255 0 
-0.06673353 -0.009941517 0 
-0.07688835 0.06716987 0 
-0.006326251 -0.07595423 0 
0.0691302 -0.0432597 0 
0.0994479 -0.0934083 0 
-0.04562135 -0.08949682 0 
0.0559145 0.08399948 0 
-0.008889517 -0.0743623 0 
0.004604274 -0.06332042 0 
0.0118513 0.06429346 0 
0.04370269 0.08328798 0 
-0.02137204 -0.07130273 0 
-0.03144087 -0.09040608 0 
0.01440513 -0.004744096 0 
-0.07497594 -0.0005092309 0 
-0.09673932 0.06343694 0 
0.08791342 0.09032615 0 
0.06353088 0.004561292 0 
-0.02548104 0.0714085 0 
-0.07305596 -0.04267425 0 
-0.001415028 -0.0961439 0 
0.04321384 -0.06763588 0 
-0.04628249 0.03742307 0 
-0.05640318 0.01426525 0 
0.08783631 0.01210924 0 
0.05846158 -0.07015099 0 
-0.02724651 -0.0005150487 0 
-0.09906958 0.04700928 0 
-0.0478186 0.04272675 0 
0.07180569 0.00624585 0 
-0.05242337 -0.000910987 0 
0.004462535 0.004792544 0 
0.02666113 -0.02067216 0 
-0.0275307 0.09735187 0 
-0.05981172 -0.07618789 0 
0.06965961 0.07006607 0 
-0.01458263 0.002253853 0 
-0.07853743 0.08177728 0 
-0.07813879 0.02059796 0 
-0.07671601 0.04288625 0 
0.02936343 -0.07722052 0 
0.07433214 -0.02796209 0 
0.04440084 0.008474583 0 
-0.0597859 -0.05442252 0 
0.03071908 0.01457558 0 
0.006172449 0.01848198 0 
-0.008976916 -0.03284026 0 
0.05260482 -0.01752854 0 
-0.04105835 -0.01159439 0 
0.08732993 0.09686016 0 
0.00855522 0.01809075 -7.936913e-06 
0.07885581 0.01100045 0 
0.02639441 0.02447873 -4.656138e-05 
-0.09578414 -0.08656916 0 
0.09607297 -0.0183493 0 
0.01678997 -0.04578054 0 
-0.08878064 0.06431851 0 
-0.007731492 -0.0610639 0 
0.06285713 -0.08103634 0 
0.07112457 -0.08028701 0 
0.006940445 0.0517343 0 
-0.09504443 0.0412382 0 
-0.05716876 -0.04784126 0 
0.07086285 0.02023043 0 
0.07014801 0.09663232 0 
-0.02885985 0.009208775 0 
-0.09772563 0.04400588 0 
0.03085903 0.01068566 0 
-0.07219902 -0.04429846 0 
0.08255273 -0.06941435 0 
0.09276835 -0.0735634 0 
-0.03849612 -0.04645097 0 
-0.0822545 -0.06013249 0 
-0.02492642 0.02628908 0 
0.0403202 0.08849544 0 
0.07060455 0.05120734 0 
-0.0944959 0.01631699 0 
-0.06338225 0.0922331 0 
-0.02675965 0.02986442 0 
-0.01053191 0.09453136 0 
-0.02541224 0.04544967 0 
-0.01360418 -0.07517891 0 
0.02090679 0.05405129 0 
0.02055249 0.03871796 0 
-0.05450859 -0.01035547 0 
0.09124607 0.04470555 0 
-0.02847515 -0.03061021 0 
0.05568174 -0.03154866 0 
0.01371084 -0.02555817 0 
-0.0691741 0.087804 0 
0.05454213 -0.01829304 0 
0.04768396 0.05584345 0 
-0.05403408 -0.05452599 0 
0.01511874 -0.04714985 0 
-0.01519465 -0.09391502 0 
-0.01783199 0.09978882 0 
-0.06148946 0.04395637 0 
-0.07720748 0.07429793 0 
-0.05534114 -0.03464774 0 
0.06402582 -0.03591718 0 
-0.0355529 0.09982847 0 
0.07718233 0.07722051 0 
-0.01216651 -0.0509062 0 
-0.07283314 0.04022717 0 
0.0895373 0.02810025 0 
-0.07689957 0.0300146 0 
-0.009764396 -0.05476019 0 
0.0853996 -0.02615096 0 
-0.02070661 0.06477327 0 
0.025255 -0.02458584 0 
-0.02984156 0.004299416 0 
-0.03771086 -0.09023175 0 
0.07801374 -0.04169459 0 
-0.07823266 -0.07577529 0 
0.02085479 -0.04245142 0 
-0.09101309 -0.07459119 0 
-0.009701618 0.03730883 0 
-0.07122526 0.08782118 0 
0.001242388 0.02746824 0 
-0.05036073 -0.07363396 0 
-0.03672726 -0.05031724 0 
0.03681821 0.04657651 0 
0.02648013 -0.02593668 0 
-0.0260024 0.07897078 0 
-0.09171902 -0.04617376 0 
-0.03975469 0.07110667 0 
-0.06371961 0.0157321 0 
0.09853294 0.05421503 0 
-0.0421849 0.07576471 0 
-0.03912042 0.004792516 0 
0.05432288 0.04386037 0 
-0.04661548 -0.07830541 0 
-0.01001244 0.05434115 0 
0.08571871 -0.02005005 0 
0.05255987 -0.02337397 0 
-0.04656521 0.08565941 0 
-0.05290136 0.02564895 0 
-0.08177247 -0.03686668 0 
-0.05424937 0.08689965 0 
-0.02320488 0.0208118 0 
-0.01091831 0.01240684 0 
-0.02641081 -0.07801504 0 
0.02165986 -0.04855538 0 
-0.02998084 0.0005602287 0 
0.03480741 -0.09810883 0 
0.07586335 0.06389259 0 
0.06109924 -0.006139292 0 
0.09814102 -0.09241679 0 
-0.01243366 -0.05356549 0 
-0.01814275 -0.04822313 0 
-0.09773646 -0.09376525 0 
-0.00128445 0.07313523 0 
-0.05828873 0.04361212 0 
-0.03469032 -0.09946343 0 
0.04980421 -0.07099058 0 
-0.07608698 -0.06759293 0 
0.05668188 0.0512046 0 
0.07203729 -0.001687897 0 
-0.009482845 -0.05148667 0 
0.01765271 -0.03446352 0 
0.08514056 -0.004785467 0 
0.07354275 0.07233091 0 
0.07760412 -0.04939567 0 
-0.01274787 0.06351332 0 
0.04552368 0.07064948 0 
0.0399338 -0.09681553 0 
0.002796815 -0.09731379 0 
0.04658126 -0.009509394 0 
-0.01256488 -0.04031802 0 
0.05496483 -0.05108003 0 
-0.08614649 0.01183742 0 
-0.04520471 -0.0623358 0 
-0.05944824 -0.07850206 0 
0.06024032 0.06798291 0 
0.01148769 0.01577371 -0.0001357041 
-0.03611236 -0.01042027 0 
-0.03927203 0.04284045 0 
0.00058148 0.03127388 0 
0.07023937 0.09914593 0 
0.009531941 0.03440754 0 
-0.09529218 0.01074595 0 
-0.08872896 -0.04224324 0 
-0.07141053 -0.09318825 0 
-0.06939445 -0.03003542 0 
-0.06801518 -0.07977818 0 
-0.071215 0.06921306 0 
0.06626704 -0.09933703 0 
0.08472446 -0.03520359 0 
-0.02588198 -0.01231103 -0.0003726228 
-0.03551401 -0.08961056 0 
0.01921371 0.07851282 0 
-0.03690325 -0.02330043 -0.0002841713 
0.02307925 -0.06328195 0 
0.04125119 -0.0326696 0 
-0.07064435 0.0133017 -4.210326e-05 
0.08223067 -0.03619081 0 
0.07319295 -0.02521282 0 
-0.002130274 0.05004233 0 
0.03285966 -0.08012342 0 
0.0486016 -0.04957607 0 
0.009979018 -0.09787169 0 
0.07162441 -0.06466903 0 
-0.09964578 -0.06511354 0 
-0.07125076 0.0756603 0 
-0.09957795 0.05508905 0 
-0.0783469 -0.04230518 0 
-0.02505216 -0.07723357 0 
0.001317069 9.464053e-05 0 
0.09669809 -0.06553087 0 
0.004417984 0.02502032 0 
-0.0304202 -0.01893469 -0.0002664869 
-0.01713502 0.04412552 0 
-0.05178633 0.08713725 0 
0.09227064 0.0078837 0 
0.04410591 0.020423 0 
0.01672767 -0.0896029 0 
0.02186908 -0.01710752 0 
0.00340128 -0.04915564 0 
0.09452738 0.07911207 0 
-0.06118125 -0.05362942 0 
-0.05196276 -0.01913431 0 
-0.05023565 -0.05512282 0 
-0.01753682 -0.005824222 -0.0001669161 
0.0669114 -0.02517347 0 
-0.05510296 0.05419004 -4.014538e-07 
-0.002868459 -0.02207685 0 
-0.0648313 -0.04401303 0 
0.02276247 -0.02803604 0 
0.02943448 0.0254204 0 
-0.02305842 -0.09677272 0 
-0.05635897 0.09675474 0 
0.03080557 0.001660091 0 
-0.007860814 0.01800567 0 
-0.02490988 -0.02456222 0 
0.0299332 0.02254923 0 
-0.03146151 -0.02105545 -7.218874e-05 
0.07113168 -0.07264704 0 
-0.07895131 0.03377015 0 
-0.03145135 0.0530316 0 
-0.0971236 0.0572534 0 
0.04408018 0.06812432 0 
-0.08299087 -0.02721169 0 
0.03810563 0.07454318 0 
-0.06349862 -0.07247146 0 
-0.03207979 0.07572095 0 
0.09745663 -0.0223898 0 
-0.037404 0.006878487 0 
0.003452044 0.04249633 0 
-0.07054469 0.08173494 0 
-0.07259825 0.0962203 0 
-0.04991497 -0.04250705 0 
-0.03451716 -0.0106505 0 
-0.06840658 0.02101452 0 
-0.03957886 0.08363438 0 
0.00521773 0.03692869 0 
0.07609771 0.09418131 0 
0.09626032 0.007467407 0 
-0.02025244 -0.03107675 0 
-0.01685887 0.04257783 0 
0.06449265 -0.003136344 0 
-0.09550315 -0.02345481 0 
-0.04708418 0.07509877 0 
0.03826287 0.04749763 0 
0.09316424 -0.07397987 0 
0.04368578 0.08312318 0 
-0.09009179 0.03729325 0 
-0.05653118 0.07848518 0 
0.06011704 -0.0455837 0 
0.09150766 -0.03446872 0 
-0.07123766 -0.02488081 0 
0.02476853 0.05053978 0 
-0.05226704 0.03913727 0 
-9.951867e-05 -0.03418392 0 
0.03022183 0.09950551 0 
-0.08635782 0.04078073 0 
0.03106747 0.09155404 0 
0.03074202 0.0759748 0 
-0.0850272 -0.04151237 0 
0.05850774 0.06610323 0 
-0.09650005 -0.08891642 0 
0.01055229 -0.02454787 0 
0.07116143 0.008006748 0 
0.0132249 -0.05533182 0 
0.05017009 0.06233703 0 
-0.08309989 0.09732437 0 
-0.07499465 0.05909939 0 
0.08036263 0.01615403 0 
-0.09845325 0.08950871 0 
-0.07296181 0.02682713 -7.339801e-05 
0.01989331 0.04308775 0 
0.06502384 -0.005083596 0 
0.06789042 0.02772072 0 
-0.0592288 -0.05435023 0 
0.05925005 -0.02560619 0 
-0.02321547 -0.05723684 0 
-0.05687961 -0.003354075 0 
0.07517146 0.0538301 0 
0.06286772 -0.02875285 0 
-0.05278721 -0.06465031 0 
0.06864849 -0.04858783 0 
0.06874971 -0.07085714 0 
0.08598338 -0.05228244 0 
0.02097666 0.06670165 0 
0.0116962 0.08787484 0 
-0.08913025 -0.02441028 0 
0.08434469 0.03004436 0 
0.06418556 0.02182489 0 
0.03663153 -0.08774625 0 
0.03136052 0.09058549 0 
0.07485592 0.04873753 0 
0.09514748 0.09411989 0 
-0.07599922 -0.0515966 0 
0.01892472 0.0904041 0 
0.01002211 -0.04219212 0 
-0.08988407 -0.06422166 0 
0.05424565 0.02456257 0 
-0.06788216 0.04783008 0 
-0.002710962 0.03470759 0 
-0.07373651 0.0802471 0 
0.04620761 -0.04293544 0 
0.08568239 0.08074923 0 
0.056939 -0.06564943 0 
0.01332644 -0.0293307 0 
0.02202128 0.05749991 0 
-0.09918422 -0.009169405 0 
-0.007034145 0.02427978 0 
0.05221955 -0.08450964 0 
-0.04488713 -0.001881747 0 
-0.0384919 0.05327488 0 
0.06676218 -0.06823267 0 
-0.00557083 -0.0129814 0 
0.06350252 -0.07592521 0 
0.06309472 0.010242 0 
0.000866561 0.09725621 0 
-0.06988059 0.01536083 0 
0.0508345 -0.01129837 0 
-0.04602635 -0.0588472 0 
0.01572729 -0.0872201 0 
0.05744924 -0.0209248 0 
0.0253351 0.08026211 0 
-0.0754381 0.03292308 0 
0.07468314 0.03568769 0 
0.07309395 0.06559458 0 
-0.02705796 0.0871876 0 
-0.03669609 -0.08757699 0 
0.013231 0.009561162 0 
0.04171893 0.09138791 0 
-0.09005675 -0.03005947 0 
-0.09003557 0.03025896 0 
-0.003316639 -0.05922249 0 
-0.04686166 0.08423992 0 
0.02722248 0.07988527 0 
0.07477935 0.03684015 0 
0.08379495 -0.03057133 0 
0.09598359 0.07906451 0 
0.01562627 0.09716375 0 
-0.089941 -0.04562321 0 
0.06619379 -0.06040153 0 
-0.004729117 0.04494199 0 
0.02094834 -0.04578683 0 
-0.09582986 -0.003297326 0 
-0.08965816 0.07269419 0 
0.03329768 -0.06133473 0 
-0.02063921 -0.07786674 0 
0.08898044 0.07398321 0 
-0.06053632 -0.04421153 0 
-0.07677395 0.09232285 0 
0.0078023 0.03898877 0 
0.03203212 -0.05119994 0 
0.06381261 -0.02428532 0 
0.03013329 0.09024999 0 
0.02157881 0.08539769 0 
-0.03501405 0.0907561 0 
0.05210302 -0.02557379 0 
0.08724909 -0.0465911 0 
0.05674879 0.08136913 0 
0.07408962 -0.02331946 0 
0.06633352 -0.01890922 0 
0.08370391 -0.05970501 0 
-0.06086153 0.05549183 0 
-0.09048432 -0.006580596 0 
-0.07358204 0.03036078 0 
0.04690446 0.04341296 0 
0.05485064 -0.05897088 0 
-0.09539028 -0.06764527 0 
-0.04287844 0.08629343 0 
0.08441937 -0.07509471 0 
-0.06443802 -0.01637353 0 
-0.0206187 0.02026027 0 
-0.04986661 0.07239416 0 
0.08974873 0.05672625 0 
0.01146126 -0.09090073 0 
0.03259978 -0.002501687 0 
0.05424296 0.04876231 0 
0.05066008 -0.04962591 0 
-0.09984802 -0.01784264 0 
0.04049446 0.03963223 0 
0.03799954 0.01948977 0 
-0.0832208 0.01615567 0 
0.06107476 -0.05342596 0 
-0.02767845 -0.05452491 0 
-0.06874745 0.03133263 -6.326148e-05 
0.06472545 -0.09923866 0 
-0.053903 0.0002105164 0 
0.09337222 0.09621405 0 
-0.01321627 -0.01072626 0 
-0.01602041 0.006552749 0 
0.05263393 -0.08475898 0 
-0.07591207 -0.09208264 0 
0.0538218 -0.0101407 0 
0.04589317 -0.06074961 0 
0.02615037 0.0961047 0 
0.02406731 -0.05325655 0 
0.01501162 0.05032842 0 
-0.07817034 -0.05828253 0 
0.02647674 -0.09651916 0 
0.03259025 -0.002485701 0 
0.06875223 -0.09634698 0 
-0.06713788 0.09678253 0 
-0.09560115 -0.05068863 0 
0.05672021 0.02667746 0 
-0.009544184 -0.08369583 0 
0.04406067 0.06429503 0 
0.04993179 -0.0511079 0 
0.07855713 -0.006733578 0 
0.01402199 0.05502178 0 
0.09926485 0.07915297 0 
-0.06148996 -0.02967616 0 
0.003745267 0.02718671 0 
0.0556001 -0.08943499 0 
-0.07366748 0.09473965 0 
-0.0980943 -0.04191566 0 
0.02228573 0.02904235 0 
0.0588103 0.02867024 0 
-0.08132257 0.09934524 0 
-0.08600082 -0.05465631 0 
0.03668229 -0.02223501 0 
-0.07669498 -0.05415345 0 
-0.03985611 -0.0266078 -9.985467e-06 
0.03856226 -0.09295389 0 
-0.07047249 -0.08952164 0 
0.0245133 0.04222469 0 
0.03894747 0.03539351 0 
0.009852929 0.04424064 0 
0.04167418 -0.04231957 0 
0.04900456 -0.08345524 0 
-0.05919661 0.01580416 0 
-0.08148038 0.06263412 0 
0.09185858 -0.01915407 0 
-0.05743691 -0.07514359 0 
0.05228758 0.01936731 0 
-0.09685879 -0.08796893 0 
0.06972272 -0.06645189 0 
-0.09827352 0.09908254 0 
-0.05127306 0.09256844 0 
-0.0779845 0.0758642 0 
0.07881714 -0.05790487 0 
-0.03251046 -0.06186527 0 
0.07123795 -0.002806972 0 
0.02779673 0.04663388 0 
-0.04799553 0.05222879 0 
0.03064121 -0.09762116 0 
-0.04370421 -0.06312263 0 
0.04028134 -0.02132691 0 
0.02651474 -0.00911161 0 
-0.08400252 -0.02615898 0 
-0.08207057 -0.03777961 0 
0.01669224 0.09559721 0 
-0.08154696 -0.01210422 0 
-0.0563133 -0.0607677 0 
-0.01614112 0.06305569 0 
0.0870343 -0.08095428 0 
-0.04152019 0.04422393 0 
0.04529229 -0.01989701 0 
-0.02555116 -0.03039983 0 
-0.01471708 -0.03298998 0 
0.0909477 -0.01607528 0 
0.08498505 -0.04434038 0 
-0.05227849 -0.036267 0 
-0.03823619 -0.0571194 0 
-0.01469978 0.0002077789 -1.264196e-05 
0.02269123 0.01843826 0 
0.04726972 -0.0085306 0 
0.07519257 -0.03634761 0 
-0.0462672 -0.09026209 0 
-0.07944779 0.05328579 0 
-0.06566024 0.08781683 0 
0.005880348 -0.06032403 0 
0.02687174 -0.05232524 0 
0.09966349 -0.04495383 0 
-0.03431649 -0.003781544 0 
0.02170225 0.07186504 0 
0.01264569 -0.08199135 0 
0.06097655 -0.01138797 0 
-0.07988047 0.05462896 0 
0.07749616 0.01202388 0 
-0.06041069 0.007552086 0 
-0.01034932 0.09566292 0 
-0.07377657 0.03359525 0 
0.02632415 0.07097244 0 
-0.01588134 -0.05468974 0 
-0.02844471 0.0419648 0 
0.08373437 0.002406773 0 
0.06878299 -0.01917478 0 
-0.004628876 -0.04196207 0 
-0.01259376 -0.03426754 0 
0.03278136 -0.04100428 0 
0.06068417 -0.01256987 0 
0.09087144 -0.003512666 0 
-0.0286123 -0.0714685 0 
-0.05503901 -0.02967063 0 
-0.05738747 -0.06054265 0 
-0.03751662 -0.05171525 0 
0.08490371 0.02063876 0 
-0.08413689 0.08828209 0 
-0.03785871 0.09672279 0 
-0.08094541 -0.07050716 0 
-0.06702068 -0.06209169 0 
-0.09993654 -0.02496938 0 
0.07859895 0.01595331 0 
-0.05557268 -0.06698707 0 
-0.06231071 -0.04479912 0 
-0.04787195 0.01756116 0 
-0.01246436 -0.02513774 0 
0.05256954 -0.005509329 0 
0.0718785 -0.05762133 0 
-0.0158754 -0.06891447 0 
0.09659493 -0.07113577 0 
0.05828163 -0.09123415 0 
-0.08700023 -0.07738134 0 
0.08788244 0.09745891 0 
0.007941827 -0.05785863 0 
-0.008457575 0.05546538 0 
-0.01707339 0.04605819 0 
0.07086273 -0.07542749 0 
0.06771044 -0.02372097 0 
-0.05449125 -0.02352823 0 
-0.037939 0.06784002 0 
-0.09516259 0.01578332 0 
-0.02928397 -0.06829707 0 
0.06197403 0.09917159 0 
-0.04796875 -0.09264617 0 
-0.01223471 -0.06056315 0 
0.0612402 -0.06684693 0 
0.04615739 -0.029845 0 
0.01924848 0.01709569 0 
0.06723874 -0.006963506 0 
-0.01382866 0.09438169 0 
0.05434573 -0.09923015 0 
-0.0672904 -0.03868775 0 
0.08674785 -0.00177588 0 
0.04667458 0.06494691 0 
-0.01473585 0.02395392 0 
0.01105928 0.09922446 0 
0.02241929 0.09590723 0 
0.007369532 -0.01274891 0 
-0.05156925 -0.08806756 0 
-0.03343637 0.08635896 0 
-0.01718205 0.09096988 0 
0.01041624 -0.07303207 0 
-0.05658596 -0.03422014 0 
0.03999333 0.03061134 -3.931855e-06 
0.07254486 0.07820713 0 
-0.000703946 -0.01800821 0 
-0.06108145 -0.03620108 0 
-0.0771168 0.07942945 0 
0.03770965 -0.0871748 0 
0.04426246 0.06528084 0 
-0.03833279 0.09372787 0 
-0.06301026 -0.006896436 0 
0.08584289 0.07903283 0 
-0.03448704 0.06345086 0 
-0.03211734 -0.06349646 0 
0.06577821 -0.09455696 0 
0.0116584 0.07716279 0 
-0.03366813 -0.03166756 0 
-0.01794048 -0.004675713 -0.0003048555 
-0.06352122 -0.04733557 0 
-0.08227174 0.01818889 0 
0.05306112 0.096508 0 
0.08314512 0.01628915 0 
-0.04511371 0.02809566 0 
-0.0240182 0.03786929 0 
-0.07369647 0.0102028 -7.020765e-05 
-0.002650592 -0.04920759 0 
0.06974946 0.09970737 0 
0.03653248 -0.0497204 0 
0.05968554 0.0181582 0 
0.05671909 -0.003394535 0 
-0.02803821 -0.01954122 0 
0.09103402 -0.06297217 0 
0.01611554 -0.02591952 0 
-0.02946837 0.09109118 0 
0.05373979 -0.02316234 0 
-0.03192181 -0.09481812 0 
0.05255119 0.01233978 0 
0.0395593 0.09534592 0 
0.07138486 0.04041374 0 
-0.08245265 0.07871311 0 
0.09411278 -0.08276175 0 
-0.04882833 -0.04922312 0 
0.07758106 -0.06700169 0 
-0.05803272 -0.0341109 0 
-0.06712318 0.002530704 0 
0.08024992 -0.00333126 0 
0.07619857 -0.02066719 0 
-0.04986225 -0.03023897 0 
0.04134718 -0.06635896 0 
0.01014618 -0.06321172 0 
0.04530028 0.01876525 0 
-0.05639608 -0.03699426 0 
-0.0430157 -0.05365007 0 
-0.04632273 -0.04787657 0 
-0.0559336 0.06689438 0 
0.0205013 -0.09218043 0 
0.03944187 0.03808611 0 
0.03820112 0.08076074 0 
0.03916285 -0.06567767 0 
0.08344869 -0.03512661 0 
0.04688841 0.04137819 0 
-0.0742566 -0.02202749 -2.037287e-10 
-0.05633048 -0.05698893 0 
0.04777018 -0.03075631 0 
-0.03166479 0.05176194 0 
0.05246274 0.05045388 0 
0.07598525 -0.03985079 0 
-0.005176976 0.03169652 0 
0.06788887 -0.08970802 0 
-0.08405045 0.05373997 0 
0.07012087 0.03357761 0 
0.07680134 0.07220804 0 
0.01093088 0.007159957 0 
-0.08544528 -0.08532679 0 
0.0748025 0.06501332 0 
-0.07612802 -0.09237696 0 
-0.02242547 -0.07674537 0 
0.009298397 -0.09182546 0 
0.0395207 0.02443746 0 
-0.04693175 -0.0003525474 0 
-0.04249032 -0.0810979 0 
-0.06465751 -0.03270622 0 
0.07967517 0.02200498 0 
0.07304728 0.007635993 0 
-0.0176639 0.01261194 0 
-0.07872393 0.06748812 0 
0.09205718 -0.02644172 0 
0.07570042 0.02328944 0 
-0.01213808 0.01549234 0 
-0.0320558 0.08984866 0 
0.08159415 0.05313461 0 
0.04699476 -0.06253617 0 
-0.09990539 0.07002264 0 
-0.05133851 -3.248352e-05 0 
-0.07806532 -0.03973768 0 
-0.001468228 -0.05236239 0 
0.02535038 0.04524168 0 
-0.07743689 -0.05828311 0 
0.09571339 -0.04752304 0 
0.0007944204 0.05122641 0 
0.05916047 0.07496471 0 
-0.09362633 0.02362503 0 
0.07093685 -0.08237436 0 
-0.08725723 -0.02203212 0 
-0.08348282 -0.004923204 0 
0.08068921 0.07348217 0 
0.05802862 0.06379247 0 
0.09534955 0.04291733 0 
-0.08216681 0.03921453 0 
-0.03085796 0.02775152 0 
-0.007851621 -0.03941275 0 
-0.07809955 -0.07633039 0 
0.07296912 -0.07914774 0 
0.0862648 0.002946303 0 
0.01371825 -0.03998571 0 
-0.05143295 0.02063987 0 
-0.02302521 -0.08176338 0 
-0.09362996 0.04792742 0 
0.05190088 -0.04356825 0 
-0.07908425 -0.07846708 0 
0.0005370332 0.0186984 0 
0.0951807 -0.01503695 0 
0.0631127 -0.02023569 0 
-0.01425039 0.02225361 0 
-0.07739481 0.03252246 0 
-0.0728233 0.06011833 0 
0.03722753 0.02466667 0 
-0.01784633 0.005967466 0 
0.002196859 -0.05276379 0 
-0.09559523 0.04087266 0 
-0.03732302 -0.02247496 -0.0001460794 
0.0782301 0.04755396 0 
0.06912874 -0.04271474 0 
0.09002356 -0.08742453 0 
0.0322873 -0.09005317 0 
-0.05707027 0.05556373 0 
-0.08497413 -0.04241503 0 
-0.05971344 0.02227161 0 
0.03185621 -0.02755364 0 
0.09552921 -0.0464151 0 
-0.0825209 -0.05321999 0 
-0.04038896 0.02544886 0 
0.09106752 0.01338555 0 
0.04561393 -0.09352624 0 
0.06785156 -0.002858508 0 
-0.0159791 -0.01789834 0 
-0.042302 -0.07990754 0 
-0.05411036 0.01171053 0 
0.02550501 -0.05922926 0 
-0.007070781 -0.09237009 0 
0.001206419 0.06957427 0 
-0.06963061 -0.0318749 -7.580892e-05 
0.04106286 0.09814614 0 
-0.007220013 0.05687742 0 
-0.01731013 0.02141101 0 
-0.05281664 0.01519606 0 
-0.008521317 -0.09954587 0 
0.02974203 0.04417147 0 
0.07679687 -0.02995383 0 
0.03915488 -0.08622148 0 
-0.0006781074 0.07781405 0 
0.05988433 0.05526415 0 
-0.02939217 0.0488504 0 
-0.07871959 0.04701517 0 
-0.006840827 -0.01587455 0 
-0.05713867 0.000295162 0 
0.09845596 0.01917429 0 
-0.06392366 -0.08189622 0 
-0.03647119 0.06051561 0 
0.03918973 -0.01654224 0 
0.05934589 0.018701 0 
0.0364454 0.08701961 0 
-0.04192887 0.04864624 0 
-0.01300947 -0.005399898 0 
0.04806939 -0.003265485 0 
0.04933054 0.000371367 0 
-0.06349965 0.08471416 0 
0.03509315 0.09792878 0 
0.03317017 -0.07239433 0 
0.01590276 0.0002288322 0 
-0.07773683 0.003034167 0 
-0.06890516 0.07006494 0 
-0.04073605 -0.05568318 0 
-0.01113856 0.0258851 0 
0.05399989 0.01184387 0 
-0.0007875285 -0.04334108 0 
0.03601311 -0.07496801 0 
0.08515984 -0.009477067 0 
-0.08672979 0.04526375 0 
0.05504784 -0.05580714 0 
0.0827364 -0.0008608341 0 
0.05100561 -0.009155618 0 
0.03201593 0.05114178 0 
0.04489494 0.02228181 0 
0.04738884 0.003377116 0 
0.09108032 0.05508651 0 
0.01883031 0.04662646 0 
0.04826406 0.05162573 0 
0.002301363 0.08113038 0 
-0.02423893 -0.06096557 0 
0.01826585 -0.07730552 0 
-0.0999558 -0.01940688 0 
0.0407912 -0.0196023 0 
0.07439752 0.002767168 0 
-0.005422125 -0.0265193 0 
0.0889796 -0.06620026 0 
0.04651322 -0.04105476 0 
0.05977714 -0.02334132 0 
-0.02377109 -0.05602539 0 
-0.02580629 0.0398155 0 
0.01894288 0.06314056 0 
0.07470991 0.04882861 0 
-0.01476861 0.04652753 0 
-0.009102262 0.002994935 -0.0002921877 
-0.03383287 0.08614106 0 
-0.006224853 0.0596912 0 
-0.09391271 0.09735942 0 
0.04980842 -0.03060582 0 
0.03578718 0.07611863 0 
-0.05245472 0.01438866 0 
-0.05502697 0.09538114 0 
0.09747675 0.03864779 0 
0.09674109 -0.006387868 0 
-0.02982737 0.05058368 0 
-0.05493803 0.01969852 0 
-0.07701051 0.06139658 0 
-0.03454315 -0.08587442 0 
-0.003127173 -0.02301848 0 
0.01642929 0.02103636 -0.0003158835 
0.03751345 0.07863114 0 
0.03942948 -0.02538731 0 
0.07356256 -0.002068271 0 
0.0917491 0.001753924 0 
-0.04751214 -0.09554406 0 
0.08047023 -0.09827434 0 
0.08008215 -0.01098798 0 
-0.09742176 -0.06519146 0 
-0.03244602 0.09281813 0 
-0.01024723 0.08168503 0 
0.0604801 0.01368197 0 
0.09432457 -0.04174561 0 
-0.06704311 0.08693245 0 
-0.0864045 0.02312082 0 
0.01857532 -0.002696861 0 
0.02659446 0.07369547 0 
-0.09110117 -0.05013654 0 
-0.05124006 -0.05468532 0 
-0.04729493 0.09631241 0 
-0.01261632 -0.0702792 0 
0.03719471 -0.07710718 0 
-0.04778202 0.03389276 0 
0.07446135 -0.04106447 0 
0.02673835 0.05716142 0 
-0.03810961 0.06676413 0 
0.04506033 -0.03749162 0 
0.04990523 -0.01770572 0 
0.007829694 -0.05191529 0 
0.009588439 -0.08972383 0 
-0.02028554 -0.06611589 0 
0.02318201 -0.0857989 0 
0.0207944 -0.05144414 0 
0.07682364 0.03646541 0 
0.05355092 0.0786831 0 
-0.08124715 0.04595675 0 
0.02516328 -0.0346732 0 
0.09061753 -0.03705582 0 
0.01111636 0.0234398 0 
-0.039814 0.08871662 0 
0.01011659 -0.07136189 0 
-0.007925791 -0.005439074 0 
0.01110145 0.02916647 0 
-0.07932402 0.06890552 0 
-0.06300317 -0.04762982 0 
0.02053938 -0.01123838 0 
0.009738463 -0.09275945 0 
0.09898825 0.01805623 0 
-0.0724609 -0.03356755 0 
0.04203163 -0.09036168 0 
0.06846438 0.06875578 0 
0.04037496 -0.01985916 0 
0.09525336 0.0006199053 0 
-0.05384174 0.04666802 0 
0.08895944 -0.01180512 0 
0.04108295 0.03229546 -0.0003750093 
-0.03916024 -0.0205604 0 
-0.09075204 -0.01702709 0 
-0.01360151 0.06421833 0 
-0.06221329 -0.09036347 0 
-0.0692756 0.08936173 0 
0.05509698 -0.0002504215 0 
0.09357599 0.01515253 0 
0.01121715 0.07184692 0 
0.01739466 -0.07008153 0 
0.0539242 -0.08718889 0 
-0.08434063 0.05689409 0 
-0.06713282 -0.07709032 0 
-0.09705342 -0.09875056 0 
-0.07149501 0.02110286 -4.053851e-05 
0.06285068 0.03071731 0 
0.01068482 -0.06730366 0 
-0.006373336 0.0690871 0 
0.01008891 0.01177736 0 
0.06847508 0.03341239 0 
0.02555343 -0.0565854 0 
0.09444226 0.08221726 0 
-0.028813 -0.05731657 0 
0.003252631 -0.04069447 0 
0.09587972 0.05588312 0 
0.007717629 -0.03918698 0 
-0.05044964 0.06516695 0 
0.003589106 -0.06711096 0 
-0.06385568 0.06612407 0 
0.05724863 0.01932555 0 
-0.06332304 0.07242912 0 
-0.09838715 0.06258435 0 
0.09442428 -0.078518 0 
-0.0008877127 0.05478413 0 
0.07067364 0.01737049 0 
0.02414841 0.07999432 0 
-0.04840479 0.048252 0 
0.08127841 -0.03711969 0 
-0.04535783 0.03704491 0 
0.04358968 -0.05230533 0 
-0.0905057 -0.0671089 0 
-0.008490037 -0.09918158 0 
-0.03180528 0.05789943 0 
-0.0002911828 0.09005657 0 
-0.09503455 -0.00995577 0 
0.03926393 0.07866819 0 
-0.03004017 0.02467409 0 
-0.07056554 -0.0401767 0 
0.05427092 0.03078738 0 
-0.009080333 -0.03367975 0 
-0.05075775 -0.09877019 0 
0.02518029 0.00813181 0 
-0.09762556 0.01718548 0 
-0.08689299 0.07237034 0 
-0.08916102 -0.04331405 0 
-0.01530181 -0.02253043 0 
-0.01237018 -0.08724797 0 
-0.06095258 -0.07216652 0 
-0.07353264 -0.08842464 0 
-0.051192 -0.02070604 0 
-0.04262218 -0.05793603 0 
0.04702585 -0.01807961 0 
0.07096019 0.02409445 0 
0.03992763 -0.004090851 0 
-0.02140955 -0.09512195 0 
-0.04451997 0.03125582 0 
-0.04723068 0.08334372 0 
-0.03906356 -0.06715006 0 
0.008886574 -0.007155489 0 
-0.0414964 0.0254185 0 
0.09135042 -0.06153148 0 
-0.08965321 -0.01867312 0 
0.0007107774 -0.07854821 0 
0.09469365 0.05117778 0 
0.05357951 -0.04166549 0 
-0.0872312 -0.09391786 0 
0.08959558 0.02207205 0 
-0.015581 0.00362715 0 
-0.00170712 0.02676842 0 
-0.003651128 -0.07097442 0 
-0.04298643 0.06462696 0 
-0.06969211 0.02801824 -4.123358e-05 
0.06774892 0.04671704 0 
0.04662626 -0.03540285 0 
-0.03591948 0.09045911 0 
-0.07447995 -0.06591126 0 
0.06933313 0.03943639 0 
0.05596341 0.07716569 0 
-0.0785933 0.0624912 0 
0.07505488 0.08050852 0 
0.08727245 -0.05979031 0 
-0.09914105 0.07938122 0 
-0.03514362 -0.05002028 0 
0.01951843 0.03663909 0 
0.06000276 -0.05043514 0 
0.05983278 -0.02088949 0 
0.02134531 0.02099418 -3.927953e-05 
0.07269165 -0.08082291 0 
0.08093073 0.006835203 0 
-0.03675501 0.07077302 0 
-0.02240767 -0.03628553 0 
-0.09117012 -0.05449017 0 
-0.09618199 0.05516068 0 
0.05932347 0.0558235 0 
0.0797366 -0.08289754 0 
0.02181655 -0.007375265 0 
0.07368016 0.07982744 0 
-5.131389e-05 0.01261471 0 
0.03311672 0.04744326 0 
0.02058823 0.03076008 0 
0.06691575 0.02404197 0 
0.0360574 -0.09817592 0 
0.02728498 -0.09345194 0 
-0.01336566 0.02842102 0 
-0.04383811 -0.07345173 0 
0.04081617 -0.03802283 0 
0.09043425 0.05038405 0 
-0.07929233 0.0482735 0 
-0.01867261 -0.05745282 0 
0.05622963 -0.08152355 0 
0.06551746 -0.08830412 0 
0.07018502 0.06870846 0 
0.09260966 -0.06894522 0 
0.08240385 0.02799735 0 
-0.0844658 -0.008053145 0 
-0.09193087 -0.03476231 0 
-0.04142947 0.02067789 0 
-0.06180451 0.08575955 0 
0.01401184 0.03676036 0 
-0.09896152 0.02675756 0 
0.008719834 -0.06443813 0 
-0.04879992 -0.09115326 0 
0.03936567 0.06851491 0 
-0.034941 0.003907475 0 
0.04036008 0.02482859 0 
-0.001142671 0.0225866 0 
-0.04962416 0.04151626 0 
-0.02221068 -0.05893592 0 
-0.05645835 -0.06085153 0 
-0.01852622 0.07591673 0 
-0.04565586 -0.01972265 0 
-0.07741601 -0.06590767 0 
0.05245463 -0.0315427 0 
0.02909251 -0.0007221343 0 
0.09107563 0.07295913 0 
-0.0187714 -0.09898642 0 
-0.07729015 -0.08675878 0 
-0.04511428 0.04703799 0 
0.08964299 -0.01695182 0 
-0.04966159 0.03941469 0 
-0.06707203 0.02802516 0 
-0.08549459 0.0326272 0 
0.09336087 0.05496231 0 
0.06894891 0.06525308 0 
0.09795436 -0.01259731 0 
-0.09835477 0.09870874 0 
0.09981559 0.04146554 0 
0.06600344 0.02171137 0 
-0.07882867 -0.06198271 0 
-0.06034736 0.06670496 0 
-0.01204701 -0.07586137 0 
0.07523619 -0.09246112 0 
0.08158921 -0.09129252 0 
0.009110088 0.03140342 0 
0.02221415 0.00507939 0 
-0.0338745 0.02761913 0 
0.02632348 0.05477223 0 
-0.06519885 -0.05473491 0 
-0.08337791 0.04784209 0 
0.05120616 -0.0268644 0 
-0.02454873 -0.04772324 0 
0.009485723 0.04516762 0 
-0.05137018 -0.08757076 0 
-0.06808071 0.005180338 0 
0.0996405 0.0846471 0 
-0.0817084 0.00943682 0 
-0.005686589 0.0179516 0 
-0.02587066 -0.04442914 0 
0.0556595 0.04663123 0 
0.08979895 0.07613373 0 
0.07789188 -0.09003234 0 
-0.03515793 0.02403456 0 
0.001201833 -0.09500395 0 
-0.003008818 0.04952715 0 
-0.07525541 0.01096209 0 
-0.03073272 -0.07206263 0 
-0.01367839 0.08589 0 
0.004471782 0.02340445 0 
0.07825842 -0.09435893 0 
0.0840402 0.032378 0 
0.06187788 0.018053 0 
-0.0002398063 0.002193863 0 
-0.08649185 0.09156626 0 
-0.06003162 -0.07573499 0 
-0.09589358 -0.03560051 0 
-0.03652348 0.09771012 0 
0.04028865 -0.01539129 0 
-0.06537537 -0.03824275 0 
0.01785686 0.03155123 0 
-0.09635573 0.06089582 0 
0.06195487 -0.05079218 0 
0.02031423 0.01049699 0 
-0.04977844 0.03028422 0 
-0.0541602 0.01844489 0 
0.05702158 0.02168161 0 
-0.09417712 -0.09023581 0 
-0.01665908 0.0323805 0 
0.001723529 0.04893234 0 
0.06570986 -0.05660013 0 
0.03710315 0.03950673 0 
-0.003995335 -0.03531326 0 
-0.07120582 0.09087832 0 
0.05853302 -0.09362286 0 
0.02255437 -0.01736756 0 
0.0409624 -0.04901012 0 
0.07009231 0.08301111 0 
0.07745674 0.05897183 0 
-0.05775965 -0.05909126 0 
0.03618103 0.04969672 0 
0.00782158 -0.03657674 0 
-0.02847826 -0.04882164 0 
0.09630162 -0.08667929 0 
0.03488011 -0.05007641 0 
-0.04727614 0.003757194 0 
0.04905875 -0.06386046 0 
-0.02309148 -0.02907209 0 
-0.06037565 0.09222862 0 
-0.06329929 0.04348171 -6.062e-05 
-0.02181436 -0.01272613 0 
0.05439407 0.09707174 0 
-0.02896133 -0.02058773 0 
-0.05759395 -0.07584272 0 
0.07197517 0.06107292 0 
-0.08445774 -0.06939828 0 
-0.03507512 0.07669903 0 
-0.05352585 0.03458637 0 
0.07107786 -0.08199537 0 
-0.0259554 0.0635585 0 
-0.03498656 0.08555879 0 
0.003723169 0.03856582 0 
-0.05255862 -0.06329204 0 
0.08032015 0.06583309 0 
0.01494177 -0.01341907 0 
-0.08936921 -0.08932573 0 
-0.0929968 0.01735574 0 
0.08047824 0.0423093 0 
-0.02725875 -0.05119073 0 
-0.01578622 0.08296111 0 
-0.06874472 -0.06718048 0 
-0.0576089 0.04966515 -2.165756e-05 
0.05946994 0.09021146 0 
-0.05425358 0.0005975623 0 
0.03114795 0.06466844 0 
0.05043536 -0.0528929 0 
-0.04294347 0.01571762 0 
0.07841131 -0.04913738 0 
0.03529016 -0.02834361 0 
-0.01315819 0.008216575 0 
-0.007142007 -0.07632396 0 
-0.05583783 -0.07062265 0 
-0.06478635 0.06702809 0 
0.04213991 0.04399057 0 
0.03847242 -0.09220779 0 
-0.09678017 -0.07132147 0 
0.05013298 0.02783499 0 
0.07728247 0.04703704 0 
0.08297559 -0.03200044 0 
-0.03066579 0.004614667 0 
0.08927977 -0.09266832 0 
0.03882786 0.03528779 0 
0.01088083 -0.005138119 0 
0.07534788 -0.07741635 0 
0.0164385 -0.05207818 0 
0.093404 0.006401334 0 
-0.04368563 0.09239281 0 
-0.06993113 -0.01001266 0 
-0.03701575 0.04167662 0 
0.01087146 0.03149731 0 
