ply
format ascii 1.0
comment VCGLIB generated
element vertex 1777
property float x
property float y
property float z
element face 0
property list uchar int vertex_indices
end_header
0.05491538 0.09364106 -0 
-0.0341632 0.04109513 0 
-0.07686809 -0.03705114 0 
0.08550899 -0.0893752 -0 
-0.004780188 0.005034928 0 
0.04360686 -0.08704238 -0 
0.09348541 0.03343811 -0 
0.01310264 0.06250574 -0 
-0.02786722 -0.05588615 0 
0.04324798 -0.07058467 -0 
0.0890192 -0.01587882 -0 
0.05119 0.09562638 -0 
-0.01787599 0.02817233 -9.184793e-06 
0.04481287 -0.01002587 -0 
-0.08152215 -0.05410912 0 
-0.0009105721 -0.08595466 0 
-0.05819284 -0.08777569 0 
-0.0713888 -0.02399407 0 
0.04336002 -0.06277268 -0 
0.06752647 -0.08875869 -0 
-0.001170306 0.07141409 0 
0.0003105825 -0.01737479 0 
0.01315428 -0.06560001 -0 
-0.05394756 -0.04420677 0 
-0.02834891 -0.02904642 0 
0.02640184 0.09695191 -0 
-0.009886723 -0.06713097 0 
-0.09285802 -0.02832626 0 
0.07090311 0.07324658 -0 
-0.02286777 -0.03379745 0 
-0.01011391 0.07561834 0 
0.02819396 -0.09145418 -0 
-0.09754283 -0.06884986 0 
0.07534233 -0.01507344 -0 
0.09431895 0.02064556 -0 
-0.01884556 -0.01792066 0 
-0.006162263 0.009507881 0 
0.001650649 0.04017224 -0 
0.05396957 0.04812782 0.0006523232 
0.06174908 0.03962592 0.0006506314 
-0.0808171 -0.0653647 0 
0.09009717 -0.07600188 -0 
-0.05031763 0.03301182 0 
0.03737899 -0.09591611 -0 
0.01863389 -0.07431283 -0 
0.05207964 0.03303163 0.0006581832 
-0.00963508 -0.008917375 0 
-0.09409538 -0.009923574 0 
-0.05313988 -0.001995438 0 
0.04921836 0.07207423 -0 
-0.06469904 -0.05534757 0 
0.005798941 -0.06242399 -0 
0.07599547 0.04582264 -0 
0.0411814 -0.07763817 -0 
-0.08708543 -0.05504101 0 
0.0552811 -0.02356163 -0 
0.05860838 0.04903193 0.00036274 
-0.02399384 -0.04317759 0 
0.05840902 -0.005469277 -0 
0.08610466 0.06531726 -0 
-0.04500388 0.07920177 0 
0.0865591 -0.03226956 -0 
-0.001945511 0.08041137 0 
0.01431266 0.08049878 -0 
0.0369201 -0.03627298 -0 
-0.01763517 -0.04901706 0 
-0.06449763 0.0148956 0 
0.02689672 -0.01637653 -0 
0.07099066 -0.00265026 -0 
0.05361769 -0.06464916 -0 
0.04895762 -0.02104805 -0 
0.09296145 0.01886199 -0 
0.03530762 0.04911702 -0 
0.02730579 0.03875692 -0 
-0.01596536 0.02481857 0 
0.09738719 -0.08689979 -0 
0.0646769 -0.03570464 -0 
-0.04573839 0.02872388 0 
-0.02367402 0.001346437 0 
0.05037523 0.04417964 0.001007399 
-0.07673575 -0.03520757 0 
0.06810786 -0.03507179 -0 
0.006774892 0.03601949 -0 
0.01706487 0.05536415 -0 
0.06226919 0.03892563 0.0005590569 
0.06589563 -0.0483781 -0 
-0.04761025 0.003526671 0 
-0.07423618 -0.01382808 0 
0.03356031 -0.07533184 -0 
0.04527026 0.07449547 -0 
-0.08266056 0.09267318 0 
0.09397523 0.02826577 -0 
-0.0814978 0.0430506 0 
-0.08869135 0.03418529 0 
-0.02814761 -0.09142918 0 
-0.07536361 0.03760543 0 
0.05087121 0.08167351 -0 
-0.0671565 -0.05825419 0 
-0.09478307 -0.0422659 0 
0.07427037 -0.03114093 -0 
-0.05542547 -0.01125817 0 
-0.09966895 0.03312965 0 
-0.01686278 0.04183897 0 
0.01682972 0.0834776 -0 
-0.0602603 -0.04759935 0 
0.04562192 -0.01591344 -0 
-0.003482614 -0.01241592 0 
-0.07606089 -0.03723723 0 
-0.08558223 -0.05946271 0 
-0.02669799 -0.09444242 0 
-0.01998515 -0.003225935 0 
0.04382467 -0.006504054 -0 
0.08162959 0.008783985 -0 
-0.08651866 0.01975337 0 
0.02822973 0.007932183 -0 
-0.05198119 -0.05313231 0 
-0.050778 0.06014626 0 
0.08774545 0.05287804 -0 
0.04932069 0.07798156 -0 
0.04324239 -0.0839873 -0 
0.03448217 0.08495618 -0 
-0.04767206 0.008106159 0 
-0.05653556 0.07902157 0 
0.09144346 0.02947819 -0 
-0.09918112 0.06507751 0 
0.02037831 0.0885841 -0 
-0.08881244 0.0161207 0 
0.08194159 -0.05356869 -0 
0.03638782 -0.07874948 -0 
-0.07928972 -0.01174763 0 
0.02539433 0.005619687 -0 
-0.01019757 0.05433922 0 
0.09959222 -0.08640043 -0 
0.01341649 -0.01769019 -0 
0.07411987 -0.09821369 -0 
0.06908235 -0.04860108 -0 
-0.06635137 -0.03975248 0 
0.07201949 0.00863577 -0 
0.01956363 0.07082127 -0 
0.01313649 -0.0371354 -0 
0.06676693 0.06998621 -0 
-0.06538718 0.02783306 0 
-0.02280632 0.04134247 0 
-0.008104723 0.0074064 0 
-0.04038902 -0.06327911 0 
-0.004393215 0.04296268 0 
-0.06842333 0.06436847 0 
0.04038452 -0.05668712 -0 
-0.07933742 0.0705142 0 
0.005471218 -0.08944029 -0 
0.002975313 0.06742922 -0 
0.03884295 -0.02847369 -0 
-0.02649699 -0.05965924 0 
-0.04270695 0.05377683 0 
0.009617987 0.05182198 -0 
-0.01512611 -0.06255289 0 
0.07731201 0.0966414 -0 
-0.0118307 -0.08289085 0 
0.01172068 -0.02766292 -0 
-0.06339599 0.07136538 0 
-0.0844166 0.06779643 0 
0.00546331 0.03429018 -0 
0.04180958 -0.09432442 -0 
0.009137359 -0.03121635 -0 
-0.05314299 0.02227953 0 
-0.04652652 -0.0486115 0 
0.07757315 -0.04802977 -0 
-0.05137096 -0.05334461 0 
-0.08304937 -0.03997584 0 
-0.02621069 -0.02877243 0 
0.01890855 0.06117753 -0 
-0.03721999 0.03535103 0 
0.02694827 0.0001142352 -0 
-0.09501745 -0.09969713 0 
0.04664999 0.09519944 -0 
-0.01128117 -0.04777111 0 
-0.01026394 -0.08776601 0 
-0.06655921 -0.0161857 0 
0.02331495 -0.007705542 -0 
0.01365704 0.05436756 -0 
0.07622617 0.08181068 -0 
-0.09787951 0.04912174 0 
-0.03132933 0.01527893 0 
-0.01891238 0.05655554 0 
0.009583263 -0.05578709 -0 
0.009164495 0.03328802 -0 
0.08658767 0.09394 -0 
0.01914316 0.05427384 -0 
0.02731458 0.07453042 -0 
-0.09204991 0.09697236 0 
0.03631231 0.01144164 -0 
-0.09069906 0.0151448 0 
0.06236728 0.02832599 2.929425e-05 
0.0004924374 -0.01958044 0 
-0.06243221 -0.01316014 0 
-0.009706317 0.05660064 0 
0.08280381 0.005873019 -0 
0.06663726 -0.08269944 -0 
0.02225358 -0.06356772 -0 
0.05854828 0.03551569 0.0008364191 
-0.0815318 -0.009181572 0 
0.004658588 -0.002327369 -0 
0.07010596 -0.06405611 -0 
-0.05160491 0.07006818 0 
0.0268234 -0.06647637 -0 
0.09125292 0.0397754 -0 
-0.09236024 -0.05255929 0 
-0.02842718 0.07593007 0 
-0.07828447 -0.04250649 0 
0.04774788 0.07421372 -0 
-0.07139912 0.05557759 0 
-0.06134545 0.00395458 0 
0.07178743 -0.04416066 -0 
0.05312957 -0.05609662 -0 
-0.01846597 -0.0839617 0 
-0.01911855 0.01475885 0 
-0.05734775 0.04903249 0 
-0.05016398 0.01601203 0 
-0.03546328 -0.001499631 0 
-0.0006043924 -0.08528478 0 
-0.07314305 -0.06566533 0 
0.01704831 0.04636704 -0 
-0.09052962 -0.05002934 0 
0.01600326 0.05409633 -0 
-0.04436286 0.0108418 0 
0.06842835 0.01668696 -0 
-0.02309031 -0.0225327 0 
-0.09508061 0.07213956 0 
0.07232771 -0.01713919 -0 
0.02903224 -0.0596217 -0 
-0.02703337 -0.0910458 0 
0.04973213 -0.09419128 -0 
0.008777455 -0.004098881 -1.304681e-05 
0.09110965 -0.09067206 -0 
-0.04064186 0.02837968 0 
-0.008604423 -0.0781177 0 
0.08105461 0.0468251 -0 
0.04446955 -0.06291379 -0 
-0.0937946 0.03591133 0 
-0.04745892 -0.04652465 0 
0.01632471 -0.01374057 -4.755457e-05 
-0.07796822 -0.00230066 0 
0.09888143 -0.02761446 -0 
-0.02630622 -0.07767366 0 
0.01762011 0.06781995 -0 
0.07281218 0.07599634 -0 
0.001298594 -0.06674976 -0 
-0.02275459 0.01158578 0 
0.05085782 -0.02392628 -0 
0.09933928 -0.05983837 -0 
0.05056023 0.0681545 -0 
-0.05288293 -0.08205131 0 
-0.05117369 0.03102259 0 
0.03476261 0.0235065 -0 
0.06611274 -0.06798975 -0 
-0.09382384 0.08446025 0 
0.03345802 -0.02105795 -0 
0.009131958 -0.09004363 -0 
-0.07802288 -0.01095624 0 
0.02034642 0.09620629 -0 
-0.009832318 -0.008486407 0 
0.03034135 0.002785725 -0 
0.08347797 0.04840583 -0 
-0.02920145 -0.0758105 0 
0.05235878 -0.09010328 -0 
-0.04399354 -0.04173961 0 
-0.02801952 0.06105521 0 
-0.02544892 -0.007984934 0 
-0.04104305 -0.02074205 0 
-0.07734488 0.06749438 0 
-0.05142462 -0.08981012 0 
0.005887338 -0.03251247 -0 
-0.01756377 -0.03579441 0 
0.08745136 -0.06526659 -0 
-0.09687861 -0.06766196 0 
-0.02510416 0.07833603 0 
0.04795265 -0.04396871 -0 
0.08653592 0.007933787 -0 
0.03743502 0.08137798 -0 
0.02973884 -0.04442059 -0 
0.05217519 -0.02537288 -0 
-0.07857795 0.05211283 0 
-0.007765965 -0.0732236 0 
0.06704907 -0.06480885 -0 
-0.03780299 0.09813228 0 
0.05577068 0.004416223 -0 
-0.07469025 -0.036286 0 
0.04012211 -0.0601119 -0 
0.01486924 -0.06569394 -0 
-0.05264898 -0.007611124 0 
0.02206593 -0.03642795 -0 
0.09458145 0.05023331 -0 
0.05547324 -0.08329048 -0 
-0.05563807 -0.06460014 0 
-0.09079796 0.01416384 0 
-0.03372154 -0.07561009 0 
0.05894094 0.05466312 9.612851e-06 
0.04407387 -0.08725972 -0 
0.07733487 -0.09989357 -0 
0.09025748 -0.01107579 -0 
-0.03919033 0.09681989 0 
0.08865098 -0.06111285 -0 
0.03450469 0.02429173 -0 
-0.0009551862 -0.009147119 0 
-0.09264173 -0.09999087 0 
-0.07205608 -0.03546308 0 
-0.04990263 -0.09195615 0 
0.01813321 -0.04198698 -0 
0.02565011 -0.007931747 -0 
-0.02835065 0.05138217 0 
0.03421101 -0.0008120145 -0 
0.05203394 -0.08512942 -0 
0.03050203 0.08453701 -0 
0.01463577 0.006426729 -0 
-0.07294296 -0.03364214 0 
0.005042905 -0.03334697 -0 
-0.01555964 -0.04730441 0 
0.09198307 -0.09905416 -0 
-0.0603958 0.05907353 0 
-0.007869316 0.02032351 -0.0001769039 
-0.0430505 0.03063432 0 
0.0758049 0.04118702 -0 
-0.01420002 0.01938219 0 
-0.02364979 0.03794715 -0.0001680536 
0.004723305 -0.001547531 -0 
0.04609953 -0.08847176 -0 
0.03152438 -0.04586625 -0 
-0.09553038 0.01881495 0 
0.04415404 -0.02216452 -0 
0.0927158 -0.07578648 -0 
0.08966154 0.02224871 -0 
-0.06178526 0.0772292 0 
0.05808085 -0.02389084 -0 
0.05603813 -0.09182564 -0 
0.007914757 -0.05130348 -0 
0.01869916 0.06025499 -0 
-0.0629168 0.09522663 0 
0.007037675 -0.07579544 -0 
-0.01991894 0.03487161 -0.0001301253 
-0.0934397 -0.07954867 0 
-0.0481832 0.08152694 0 
-0.03415628 0.03061582 0 
0.09893294 0.09092429 -0 
0.008446042 0.04840392 -0 
0.09687737 0.09572726 -0 
-0.09662567 0.09240119 0 
-0.002323385 -0.08265387 0 
0.02778721 -0.02851823 -0.0002477179 
0.07445316 0.03997036 -0 
-0.09293596 0.0172719 0 
0.05490477 -0.08541068 -0 
0.0978484 -0.05981357 -0 
-0.03209659 -0.08568721 0 
-0.09333281 -0.06233341 0 
-0.08520743 -0.06940953 0 
0.02942196 -0.05456061 -0 
0.05312515 0.01587224 -0 
0.004519007 -0.07063361 -0 
-0.09803965 0.01903084 0 
-0.09651 -0.04369122 0 
0.07677776 -0.02172087 -0 
0.03512958 -0.08383182 -0 
-0.001142863 0.05481564 0 
0.01104118 -0.07879501 -0 
0.08036971 -0.0459574 -0 
-0.007157524 0.01896808 -4.050575e-05 
-0.0966039 -0.05699579 0 
-0.06800561 0.03680157 0 
0.01587221 -0.03577694 -0 
-0.06776387 0.02992255 0 
-0.006241802 0.008353306 0 
0.07664757 -0.06331261 -0 
-0.09474625 0.0984203 0 
-0.0432236 -0.004757868 0 
0.07349632 -0.07428043 -0 
-0.06607466 -0.04687092 0 
-0.04986355 0.09668688 0 
-0.0599959 -0.01633741 0 
0.05379435 0.0519354 0.0001796412 
0.08947369 -0.08840445 -0 
0.008474888 0.04544057 -0 
0.09680433 0.03958152 -0 
-0.008975997 0.0186193 0 
0.01879652 -0.08398733 -0 
-0.01444574 -0.09520182 0 
-0.06974839 0.03029865 0 
-0.0920625 0.05538367 0 
0.08144889 -0.07836139 -0 
-0.04582839 -0.0462844 0 
-0.03682921 -0.07531395 0 
0.0965535 -0.07793678 -0 
0.0698756 -0.06828417 -0 
-0.03882489 -0.008071504 0 
0.04610401 -0.03751254 -0 
-0.06922028 -0.08564168 0 
0.08657658 0.0791728 -0 
-0.02284168 -0.005760371 0 
-0.06026696 -0.06604607 0 
-0.08996096 0.08827215 0 
0.0598153 0.08279771 -0 
-0.08649281 0.07152639 0 
-0.09191104 -0.04043288 0 
0.09890956 0.01955946 -0 
-0.05189691 0.09710446 0 
0.07392479 0.08302064 -0 
0.00876449 -0.02258809 -0 
0.03037893 0.07123657 -0 
0.09402501 -0.02033862 -0 
0.02304273 0.04573827 -0 
0.04110716 0.0239332 -0 
0.01347635 0.01211594 -0 
0.01437282 -0.06903644 -0 
0.03562394 -0.0819228 -0 
-0.05309764 -0.03152332 0 
-0.03330388 -0.04334071 -1.647232e-05 
0.07788619 0.006126088 -0 
0.02147924 0.02791603 -0 
0.0609487 -0.03461323 -0 
-0.06219429 0.05751987 0 
0.07948598 -0.01547781 -0 
0.05743637 0.0959141 -0 
-0.04188936 0.04669054 0 
0.08242411 0.01372113 -0 
-0.0446024 -0.07625998 0 
0.05046515 -0.07678272 -0 
0.02345769 -0.03686435 -0 
-0.07510814 0.01776798 0 
0.01331183 0.08660501 -0 
0.09394834 -0.0182252 -0 
-0.07769264 0.05147311 0 
-0.007863528 -0.06687096 0 
-0.06562471 0.04759334 0 
-0.0224671 0.03528383 -0.0002059069 
0.05205492 -0.007835904 -0 
0.06210291 -0.0262646 -0 
-0.09585062 0.0638202 0 
-0.01615946 -0.0350015 0 
-0.0820951 0.03081921 0 
-0.008161008 0.08122079 0 
-0.02921363 0.03881052 0 
0.09528549 -0.02267984 -0 
0.06866416 0.007929714 -0 
0.06987866 -0.008420259 -0 
-0.003467734 0.06206292 0 
-0.09502834 -0.08097117 0 
-0.00757615 0.003836998 0 
-0.01254848 -0.02961103 0 
-0.03414394 -0.02212295 0 
0.01737463 -0.05013713 -0 
0.09190047 -0.05035713 -0 
-0.05037898 -0.09984888 0 
-0.03082643 0.02905128 0 
-0.03815301 0.04685876 0 
-0.08663887 0.08227129 0 
0.0528319 0.08332124 -0 
-0.07374693 -0.01318717 0 
0.06151011 -0.01151397 -0 
0.03650684 -0.05561325 -0 
-0.04541814 -0.09471493 0 
0.01101455 0.03396557 -0 
-0.03807494 0.05318372 0 
-0.0457609 -0.01739307 -2.862045e-05 
-0.08150952 0.07197257 0 
0.0263656 -0.03758108 -0 
-0.05606128 0.03507084 0 
-0.08123557 0.06835342 0 
-0.0999486 -0.02007061 0 
-0.09516062 0.08811912 0 
0.01954848 -0.06101364 -0 
0.02188233 0.07243643 -0 
-0.09241987 0.06993483 0 
-0.03817014 0.09970739 0 
0.07286598 -0.04584651 -0 
-0.03822876 0.01964001 0 
0.06314239 0.09830153 -0 
-0.0100572 -0.09623097 0 
0.06124522 0.08763431 -0 
0.09839877 0.04542236 -0 
-0.02523334 -0.03830029 0 
-0.07312638 0.04543924 0 
-0.003359332 -0.04618465 0 
-0.02792421 0.09076487 0 
0.02482301 0.07638732 -0 
-0.06311566 -0.05705843 0 
-0.003206363 0.003379733 0 
0.0446699 0.02823953 1.48911e-05 
-0.07491873 -0.0405048 0 
-0.04722293 0.04390703 0 
-0.09390846 -0.01948398 0 
0.07052226 -0.02373511 -0 
0.07439309 -0.0545482 -0 
-0.07386211 0.08187131 0 
-0.01776489 0.09456247 0 
-0.08293694 0.06204698 0 
-0.06258013 -0.05896965 0 
-0.03648534 0.01377192 0 
-0.03256015 0.005495639 0 
0.02963871 -0.05231495 -0 
-0.08885845 0.02718387 0 
0.0928496 0.06157788 -0 
-0.03351143 0.08307581 0 
-0.0242162 0.006222785 0 
-0.0548519 0.02158056 0 
-0.07637055 0.09704919 0 
0.02031375 0.03873399 -0 
-0.067691 -0.09812059 0 
-0.03325218 -0.09107162 0 
0.006704012 0.005571985 -6.190589e-06 
-0.03070874 0.09229471 0 
-0.06462912 0.02312861 0 
0.06776136 0.08458947 -0 
-0.0129538 -0.06549842 0 
0.09517002 -0.07515617 -0 
-0.07215752 0.02266956 0 
0.07275511 0.07553582 -0 
-0.07326137 -0.01983862 0 
0.06305311 -0.04048625 -0 
0.09997684 0.03585954 -0 
-0.08702743 -0.0570659 0 
0.03277541 -0.03408693 -0 
-0.06889838 -0.02822955 0 
0.07325576 -0.042206 -0 
0.02903245 0.02381714 -0 
-0.09327222 -0.01914516 0 
-0.08470374 -0.01579205 0 
-0.0001705558 0.01512424 -1.434264e-05 
-0.01172812 0.03631548 0 
0.06062457 0.002577897 -0 
0.09278598 -0.06776175 -0 
-0.02010669 0.09803667 0 
-0.04763361 0.0802549 0 
0.03442835 -0.03167645 -0 
-0.01253999 0.0792977 0 
0.06788589 -0.01753826 -0 
-0.0591174 0.003218922 0 
0.0004476868 -0.03984296 0 
0.08207881 -0.07966889 -0 
-0.04734261 0.0374222 0 
-0.06941181 -0.09661476 0 
0.08461174 0.08609318 -0 
-0.07026348 0.07632247 0 
-0.01243603 -0.02658249 0 
0.07473939 -0.07372144 -0 
-0.07372427 -0.05670556 0 
0.05611913 0.06136011 -0 
-0.03737904 -0.006020418 0 
0.08239061 0.06482439 -0 
0.08778169 -0.06580854 -0 
0.0199825 -0.04607327 -0 
0.03840038 0.08770555 -0 
0.08027104 0.04293481 -0 
0.07918773 -0.08049901 -0 
-0.01129124 0.04929786 0 
0.0265367 0.07954039 -0 
0.07089535 0.0301821 -0 
-0.06480668 0.01007917 0 
-0.002769468 0.06175836 0 
0.04918613 -0.06448344 -0 
-0.05017178 -0.09645609 0 
0.09585451 0.002885392 -0 
0.0390899 -0.05915073 -0 
0.02948689 -0.08071725 -0 
-0.03070561 0.07635876 0 
0.07511224 0.0007383855 -0 
-0.01949627 0.06306509 0 
-0.05236764 0.06130705 0 
-0.04958142 0.0447631 0 
0.0952674 -0.07260612 -0 
-0.01981534 0.003113907 0 
-0.01414913 0.08288901 0 
-0.05491617 0.01804863 0 
0.09923599 -0.03203565 -0 
-0.03514989 -0.07549392 0 
0.001033892 0.04521041 -0 
-0.03974582 -0.06600647 0 
-0.02173424 -0.02232512 0 
0.07649658 -0.03234674 -0 
-0.07533427 -0.0384238 0 
-0.01375603 -0.006889655 0 
0.09682576 0.009451004 -0 
0.0590418 -0.06954356 -0 
-0.05435627 -0.03030962 0 
0.06332522 -0.07343747 -0 
0.05704041 -0.0009955193 -0 
0.09410504 -0.04064799 -0 
0.0148996 -0.03636032 -0 
-0.07063866 0.04834002 0 
0.03657076 0.09145098 -0 
-0.09310678 0.06015038 0 
-0.01360364 0.03086827 0 
0.07795074 0.0404051 -0 
-0.002811743 0.0416724 0 
-0.03639108 0.07704859 0 
0.03059884 0.03142753 -0 
0.005823913 -0.0645384 -0 
0.09506841 -0.01039689 -0 
0.005312572 -0.0253165 -0 
0.03716548 0.07032291 -0 
-0.06604166 -0.05194248 0 
0.09064033 -0.07314163 -0 
-0.03343301 0.04558896 0 
-0.09478435 0.01616126 0 
-0.01273931 0.06991439 0 
0.02481832 -4.567785e-05 -0 
0.08811513 0.05668332 -0 
0.09692991 -0.02919594 -0 
-0.05262777 -0.09794779 0 
0.03922474 -0.09274328 -0 
-0.05603018 -0.09368437 0 
0.09324015 0.03354322 -0 
-0.0002977981 0.03727728 0 
-0.06202175 -0.03029539 0 
0.04032343 -0.05975151 -0 
-0.08999883 -0.09828623 0 
-0.004989953 0.04454404 0 
0.01637415 0.02991266 -0 
-0.08792455 -0.03979509 0 
0.01233949 -0.07624271 -0 
-0.07846751 0.04135405 0 
-0.06267742 -0.03474641 0 
-0.04537353 -0.03512507 0 
0.02056262 -0.07666039 -0 
-0.04932321 0.02097867 0 
-0.06993493 0.0845862 0 
0.02566835 0.03383097 -0 
-0.08127195 -0.03410184 0 
0.01769164 0.04496073 -0 
-0.0122326 0.007651326 0 
0.02080854 -0.08196738 -0 
-0.01545255 -0.0903767 0 
-0.02424433 -0.007347204 0 
-0.08576635 -0.06417438 0 
0.04365436 0.05986657 -0 
-0.003855255 0.0743155 0 
-0.09598349 -0.06223604 0 
0.07782274 0.0850782 -0 
-0.01026419 0.05700218 0 
0.01284086 0.00714112 -0 
-0.0349485 -0.0784856 0 
-0.01174886 0.06761998 0 
0.03952484 -0.07530569 -0 
0.0638232 0.01160107 -0 
-0.0688992 0.01732894 0 
0.02323204 -0.0007507259 -0 
0.04877235 0.07166767 -0 
0.07133537 -0.07238074 -0 
-0.01715673 0.0337154 0 
0.02781455 0.05689943 -0 
-0.02632517 -0.05379866 0 
-0.02083468 -0.07476309 0 
-0.08981395 -0.06150448 0 
-0.0344869 -0.04088007 -5.431799e-05 
-0.02396386 -0.01085319 0 
0.05406062 -0.04296343 -0 
-0.09500907 -0.0126653 0 
-0.0852592 0.01770299 0 
-0.06387097 0.05456647 0 
0.09946221 0.009832271 -0 
-0.01949243 0.04043641 0 
-0.02369693 -0.0979792 0 
0.007002557 -0.02347232 -0 
0.06955983 0.003973654 -0 
0.0201654 -0.01472746 -0.0001105449 
-0.01853175 0.06437457 0 
-0.04313141 0.09931503 0 
0.002717654 0.01714281 -0 
0.03857078 0.05661089 -0 
0.06760275 0.03297783 1.231847e-05 
-0.01105317 -0.02390445 0 
0.03186768 -0.08631633 -0 
-0.07449207 -0.009335514 0 
0.05408068 0.08730619 -0 
-0.006211039 0.06927641 0 
0.06645151 0.05120624 1.165905e-06 
0.02887387 0.04246899 -0 
-0.05274399 0.09686205 0 
-0.09950913 -0.03344299 0 
0.02524069 -0.009371673 -0 
-0.04982885 -0.06261531 0 
0.09312449 0.07700165 -0 
-0.06440599 0.08135337 0 
0.08584408 0.01934886 -0 
-0.07496013 -0.07207844 0 
-0.08456544 -0.01226396 0 
-0.04863562 -0.07987868 0 
-0.05072768 0.05171703 0 
0.02644852 -0.06661686 -0 
-0.03068599 0.03333072 0 
-0.04766032 0.003213297 0 
-0.00611981 -0.02016785 0 
-0.03261042 -0.07171601 0 
-0.07842353 -0.04603801 0 
0.08997838 -0.02032801 -0 
-0.05346085 -0.02295503 0 
0.01298572 0.05307928 -0 
0.08140506 0.06782024 -0 
-0.03677791 0.07326294 0 
0.04959128 -0.03491079 -0 
-0.06207547 0.08472498 0 
0.06144448 0.07661681 -0 
-0.09674126 -0.03263615 0 
-0.06126425 0.03418638 0 
-0.07592487 -0.08304489 0 
-0.08577189 -0.07857227 0 
-0.06851217 -0.01926005 0 
0.07753943 -0.05167308 -0 
0.0495851 0.07987177 -0 
-0.04633551 0.007599006 0 
0.07304201 -0.01604827 -0 
-0.01983243 -0.02155885 0 
0.03684834 -0.05179691 -0.0002645094 
-0.09573465 0.08924405 0 
-0.008597033 -0.01801984 0 
-0.06492554 0.06465942 0 
0.09455572 -0.09839675 -0 
-0.01660167 -0.08604465 0 
-0.044701 0.08098689 0 
-0.05249813 -0.04153479 0 
0.0603324 -0.08302538 -0 
-0.0428641 -0.08363476 0 
0.04353205 -0.07154666 -0 
-0.02629675 0.07178993 0 
0.06988201 0.08344273 -0 
-0.033643 0.09810601 0 
0.0003703771 -0.03109398 0 
-0.04370259 -0.03468779 0 
0.01084127 -0.01775605 -0 
0.05268433 -0.08810605 -0 
-0.02833276 0.01101897 0 
0.004607554 -0.01400549 -0 
0.06818821 -0.04520672 -0 
-0.01125009 0.02153214 -1.01999e-05 
0.07881835 0.001215255 -0 
-0.09078507 0.08446647 0 
0.04200663 0.09909937 -0 
-0.01404586 0.07992435 0 
-0.06447648 0.05557359 0 
0.002612456 0.0217235 -0 
-0.0457247 0.02369886 0 
-0.02039205 -0.06169466 0 
0.06348631 0.04430811 0.0003028959 
-0.006178329 0.09366523 0 
0.04736752 0.02056261 -0 
0.0141429 0.04259589 -0 
0.09239116 -0.04161764 -0 
-0.05278486 0.01060381 0 
-0.04256207 0.04938213 0 
-0.06945262 0.03802491 0 
-0.05671958 -0.08355024 0 
-0.01556422 0.04587903 0 
-0.05240794 -0.005849794 0 
0.0203476 -0.02294376 -0 
0.03915946 -0.09749386 -0 
-0.07332968 -0.01638546 0 
0.09538215 -0.04246552 -0 
-0.09266196 0.05591347 0 
0.02805782 0.04675148 -0 
-0.05130501 -0.02370655 0 
-0.03819019 -0.02582297 0 
0.07450197 -0.09079664 -0 
-0.05743093 0.08944224 0 
-0.01677794 -0.0997842 0 
-0.01499933 0.09207267 0 
0.05469637 0.03337455 0.0007687275 
0.01959543 -0.008479373 -0 
0.04083594 0.0147025 -0 
-0.05068893 -0.05757098 0 
0.07214502 0.01883315 -0 
-0.09800791 0.03080456 0 
-0.008949849 -0.07220445 0 
-0.09893037 -0.05755436 0 
-0.07303457 0.06589592 0 
0.01899197 -0.08114814 -0 
0.08000455 0.07281407 -0 
-0.05737615 0.01899406 0 
0.09699635 -0.0786336 -0 
0.09597348 -0.05014507 -0 
0.09206993 0.01156929 -0 
-0.009003119 0.04312809 0 
-0.01084212 0.07008342 0 
0.0414841 0.07537328 -0 
-0.001527415 6.425552e-05 0 
0.0130579 0.05069448 -0 
-0.0560933 -0.0005120343 0 
0.007914159 -0.03220352 -0 
0.009041532 -0.08559922 -0 
-0.03208984 0.07719438 0 
0.01274935 -0.06679185 -0 
0.09892742 -0.07039359 -0 
-0.08480848 -0.01431586 0 
0.05785906 0.05767424 0 
0.08240762 -0.00945803 -0 
-0.03250298 -0.09894541 0 
0.00340415 0.009823598 -0.0001049385 
-0.01121526 -0.03307578 0 
0.01995827 -0.05262145 -0 
0.0919023 0.06875727 -0 
0.004727909 -0.01946163 -0 
0.02037175 -0.02719156 -0 
-0.02158675 -0.04116155 0 
-0.0839957 0.01254106 0 
0.06754446 -0.01987461 -0 
0.003902187 0.08790097 -0 
0.04007895 -0.07243323 -0 
0.08875038 0.02690489 -0 
-0.05594037 -0.01681795 0 
0.06651028 0.06494546 -0 
0.03493056 -0.01536545 -0 
0.08162448 0.004523283 -0 
0.09333344 0.04083728 -0 
-0.01937045 0.03563751 0 
-0.01011111 -0.08627491 0 
-0.08905519 0.03163591 0 
0.0008738679 -0.05830244 0 
0.02945609 -0.0251207 -0 
-0.003727101 -0.07403069 0 
0.0155359 0.006593217 -0 
0.07337705 -0.07417126 -0 
0.0106874 0.0904985 -0 
-0.06193805 0.08786687 0 
-0.05718116 -0.07255615 0 
0.03110077 -0.02610337 -0 
0.02281074 0.005474712 -0 
-0.09156357 -0.0897505 0 
-0.09936844 -0.01513848 0 
-0.02880274 -0.09741785 0 
-0.02558355 0.08413655 0 
0.08458726 0.09212037 -0 
0.02553565 0.06635155 -0 
0.03073118 0.03519732 -0 
0.07226544 -0.03732508 -0 
0.03620192 0.01029694 -0 
0.06311871 -0.06662899 -0 
0.04874435 -0.05541915 -0 
-0.008794742 0.09427507 0 
0.03320639 0.07056044 -0 
0.07479386 0.04518399 -0 
0.08730784 0.02142534 -0 
0.08852421 -0.02853301 -0 
0.03399451 0.01840339 -0 
0.02080201 0.03692493 -0 
0.07627695 -0.01272057 -0 
0.0514524 0.01689769 -0 
0.0416329 0.005329956 -0 
-0.001195863 0.09263989 0 
0.03626214 -0.03289887 -0 
0.03443866 -0.006078816 -0 
0.06326984 -0.01927248 -0 
0.05002397 -0.0167355 -0 
0.02795529 0.009124584 -0 
0.03250748 -0.02410831 -0 
-0.05783835 -0.05335788 0 
-0.04860818 -0.0999137 0 
0.01449287 0.08649954 -0 
-0.01167535 0.02805539 0 
-0.08398917 -0.06777229 0 
0.07782766 0.05521952 -0 
-0.09864651 -0.07739128 0 
0.04868139 -0.05584094 -0 
-0.05139974 0.02426309 0 
0.01957471 -0.03354229 -0 
0.03762728 -0.04318466 -0 
-0.07115 0.005423139 0 
-0.04790791 0.05072732 0 
-0.01608258 -0.04084341 0 
-0.0646001 0.02843903 0 
0.09068134 0.0593973 -0 
0.01862955 -0.03166727 -0 
0.04319704 0.0798677 -0 
0.05899447 -0.06230557 -0 
0.08133785 0.07622375 -0 
-0.06090443 0.03728534 0 
0.08254245 0.03430787 -0 
0.0440008 0.006396223 -0 
0.0313202 0.05852247 -0 
0.01125642 0.0806101 -0 
-0.09607083 0.01889204 0 
0.006608598 0.03431893 -0 
0.07857135 0.02480846 -0 
-0.05838022 -0.09102643 0 
-0.09978421 0.08696571 0 
0.0954842 0.03833678 -0 
0.05738814 -0.0002970807 -0 
0.07549741 0.04623287 -0 
0.02842459 -0.03551656 -0 
-0.06629412 -0.0801267 0 
-0.07755377 -0.02735716 0 
0.09028651 -0.04356346 -0 
-0.02967403 0.01888692 0 
-0.08736566 -0.06549213 0 
0.01712562 0.001666455 -0 
0.07143877 0.08620371 -0 
0.07044078 -0.06687797 -0 
0.001776276 -0.07075317 -0 
0.01258439 0.02776156 -0 
0.02767996 -0.07606626 -0 
-0.06115902 0.04747921 0 
-0.0344214 0.02251866 0 
-0.07973721 0.06351105 0 
-0.005416261 0.05745243 0 
-0.09106597 0.005838079 0 
0.08799742 0.01453442 -0 
0.06566789 -0.08447205 -0 
0.0005518939 0.02805384 0 
0.03134055 0.01650691 -0 
0.09035176 0.09548277 -0 
-0.04720595 -0.09634717 0 
0.0123693 -0.04587957 -0 
0.0323756 -0.06056772 -0 
-0.02825622 0.09087034 0 
-0.05123639 0.06232591 0 
-0.01899089 -0.06803175 -7.843463e-06 
0.01660053 0.08586491 -0 
-0.01269491 0.07216698 0 
0.06172086 0.09332886 -0 
-0.08674649 0.04272632 0 
-0.04081972 -0.0610097 0 
-0.03249669 0.06140008 0 
-0.09265412 -0.02811499 0 
0.06570122 -0.08259147 -0 
-0.06663954 -0.05714605 0 
0.06579358 -0.08920565 -0 
0.06024289 -0.03339791 -0 
-0.0943958 0.004484835 0 
0.02960913 -0.03923048 -2.118614e-06 
0.008281691 0.05788401 -0 
0.07132474 -0.02979763 -0 
-0.03898628 0.04866975 0 
0.08539015 0.007896754 -0 
-0.004008782 -0.04714611 0 
0.03398242 0.003024151 -0 
0.01150848 0.0425713 -0 
-0.05342992 -0.04302199 0 
-0.04274894 0.06886706 0 
-0.04069693 0.0974087 0 
0.09152965 -0.0501212 -0 
0.05533169 0.020236 -0 
-0.02367304 0.0156497 0 
-0.07679145 -0.03057216 0 
-0.02333651 0.01627017 0 
0.07532765 -0.00262891 -0 
0.005759352 -0.06406056 -0 
0.0850421 -0.08030269 -0 
0.04092646 0.06536425 -0 
-0.02594137 -0.03899418 0 
0.01260605 -0.03714135 -0 
0.009175368 -0.01420117 -0 
0.05450771 0.01315446 -0 
-0.07834595 0.07805359 0 
-0.009092957 -0.005030905 0 
-0.04941761 -0.0744478 0 
0.03058635 -0.09481314 -0 
0.06680939 0.02117798 -0 
0.09330136 -0.009193599 -0 
0.09332319 0.01130751 -0 
0.07128076 -0.0286427 -0 
0.06397431 0.05624667 -0 
-0.0734243 0.07277349 0 
0.02683031 0.07950523 -0 
0.01302149 0.0959743 -0 
-0.05069636 0.02577158 0 
0.0590295 -0.01805759 -0 
-0.06360912 0.06017151 0 
0.02672352 0.0521239 -0 
0.03001518 0.07134423 -0 
-0.02945844 0.05481294 0 
0.0301643 -0.07028187 -0 
-0.06123597 0.05956381 0 
0.03489074 -0.06976016 -0 
-0.0627542 -0.001774004 0 
0.09718832 0.02743889 -0 
0.007740837 -0.08621992 -0 
0.05582898 -0.02198746 -0 
-0.05161891 -0.06266992 0 
0.04553215 0.02722966 1.442901e-05 
-0.0946196 -0.09558573 0 
0.04297006 -0.08567084 -0 
-0.09570906 0.01019622 0 
0.07447508 -0.03761994 -0 
-0.05858934 0.001151943 0 
-0.05537367 0.09236639 0 
0.0669727 0.09383196 -0 
0.01613933 0.03454674 -0 
0.02768238 0.08781444 -0 
0.05303203 -0.03617482 -0 
0.01822805 -0.02175946 -0 
-0.07708427 0.05419533 0 
0.06951406 0.051269 -0 
-0.004059121 0.08928251 0 
-0.01096254 0.006616401 0 
0.09049162 0.08795533 -0 
0.05379926 -0.09202586 -0 
-0.09954706 -0.05164378 0 
0.07097578 0.006056174 -0 
0.02066485 0.02974986 -0 
0.08902451 -0.01352096 -0 
-0.02945227 -0.07888931 0 
-0.03821982 -0.09824412 0 
-0.08774297 -0.08227186 0 
-0.0582494 -0.005625482 0 
0.0602373 0.04206517 0.0008549061 
0.004333658 0.0309742 -0 
0.05411054 0.01860447 -0 
0.0566237 -0.06217746 -0 
0.006240589 0.09866715 -0 
-0.05538825 0.07616585 0 
-0.06893945 0.09548202 0 
0.04558524 -0.0654488 -0 
-0.03622965 0.01565817 0 
0.07547596 0.06971098 -0 
-0.06877871 0.002197396 0 
0.008485008 0.07579437 -0 
-0.04256469 0.01973261 0 
0.09932834 0.06284659 -0 
0.02865973 0.06525961 -0 
0.08078824 -0.0344446 -0 
0.06450761 0.05624184 -0 
-0.01806464 0.04036523 0 
-0.02628468 -0.05789121 0 
0.03753923 0.09172547 -0 
0.009384079 0.05338559 -0 
-0.04443959 -0.04056736 0 
-0.03262195 -0.02115232 0 
0.005035685 -0.0831804 -0 
0.04740442 0.05756506 1.71907e-06 
0.03579613 0.08230808 -0 
-0.008454106 0.08218081 0 
0.08176522 -0.0951537 -0 
0.05982487 0.04607542 0.0005859123 
-0.09376818 -0.07654595 0 
-0.09235878 -0.09828061 0 
0.07778328 -0.02931086 -0 
-0.01642204 0.04145858 0 
-0.001161772 -0.01477763 0 
0.09780639 -0.05039673 -0 
0.04288759 -0.0832954 -0 
0.0556895 0.04109737 0.001398011 
-0.06013204 0.06777032 0 
0.08266979 0.02086405 -0 
-0.06977918 -0.003924039 0 
-0.03499436 -0.07040371 0 
-0.04700602 0.00633318 0 
0.0987957 0.03138118 -0 
0.09300226 -0.0085684 -0 
-0.0005590271 0.0640887 0 
0.005921809 -0.06985085 -0 
0.01813916 -0.09620324 -0 
0.06267295 -0.01339741 -0 
0.08298366 -0.04260141 -0 
0.049241 -0.0643808 -0 
0.08078119 -0.05767152 -0 
0.01128113 -0.03491963 -0 
-0.05965965 -0.02871197 0 
0.08832683 0.0960837 -0 
-0.06582467 0.05044277 0 
0.02001472 -0.09720689 -0 
-0.07317828 0.07447651 0 
-0.009140528 -0.01937336 0 
0.00290023 -0.02755793 -0 
-0.02516473 -0.02714961 0 
0.09840197 -0.009784067 -0 
-0.003349001 0.09023243 0 
0.09349239 0.05001372 -0 
0.02268608 0.07087093 -0 
0.08674927 0.001600582 -0 
-0.06887788 0.09478288 0 
-0.0146406 0.04877989 0 
-0.07443637 0.03624595 0 
-0.01302712 -0.0634294 0 
-0.05518746 0.07856708 0 
-0.05241733 0.03910024 0 
0.03746288 -0.03090095 -0 
0.08813781 0.09832833 -0 
-0.003712652 0.06390009 0 
0.04411702 -0.08518389 -0 
0.0800649 0.062295 -0 
-0.01072116 -0.02680541 0 
-0.04701981 -0.002335551 0 
0.09968704 0.027556 -0 
-0.05080488 0.06531068 0 
0.009966346 -0.04074388 -0 
0.09392472 0.02436859 -0 
0.02605214 0.09902705 -0 
0.03580697 0.07912136 -0 
-0.03336429 0.08006313 0 
0.06230697 0.07063693 -0 
-0.02588725 -0.09383214 0 
-0.01321191 -0.02052312 0 
-0.01807489 -0.008408373 0 
-0.05640263 -0.0706153 0 
0.03544172 0.08414988 -0 
-0.08945717 -0.05055886 0 
-0.01509755 0.08321998 0 
0.01165566 -0.01941484 -0 
-0.002842465 -0.06314859 0 
0.09641892 -0.06708833 -0 
0.03646781 0.04453274 -0 
-0.0905552 -0.0366744 0 
-0.08093841 -0.03741003 0 
0.001157429 0.04697579 -0 
-0.08551219 -0.01846367 0 
0.01331895 0.06530789 -0 
0.06067405 0.01423845 -0 
0.03356701 0.003411901 -0 
-0.03734066 0.03696695 0 
-0.02562959 0.06162187 0 
0.07541402 -0.07571707 -0 
0.02032937 0.03596154 -0 
-0.05334609 -0.03683919 0 
0.05719623 -0.0244458 -0 
-0.04798364 -0.02275557 0 
0.0979813 0.05161786 -0 
0.03939886 -0.04091399 -0 
-0.08009616 0.004890133 0 
0.06069031 -0.05097638 -0 
0.0235415 0.01973969 -0 
0.0212946 0.02873621 -0 
-0.05922684 0.08516784 0 
-0.04115457 0.08868024 0 
0.0686864 0.008130298 -0 
0.04695638 -0.07667218 -0 
0.0555479 -0.03593598 -0 
0.02412243 0.03974345 -0 
0.0350339 0.04921003 -0 
0.04200527 0.006188853 -0 
-0.07535164 0.06545189 0 
-0.02748405 -0.04371888 0 
0.08820203 0.07940909 -0 
0.005344371 0.001888124 -0.0002829645 
0.0299313 -0.03265815 -0.0003021386 
-0.004697683 0.009313683 0 
0.08854956 0.04981588 -0 
-0.07843186 0.0503572 0 
-0.01004796 -0.09770361 0 
0.07292044 0.06290781 -0 
-0.03538059 0.05525254 0 
-0.02659462 -0.09157383 0 
0.09850036 0.08016645 -0 
-0.05376712 -0.03904528 0 
-0.08940597 -0.05670329 0 
-0.0223905 0.09462771 0 
-0.01707392 0.08429839 0 
0.05853955 0.07147048 -0 
-0.02111196 -0.06855328 0 
-0.06703895 0.007964727 0 
0.05841468 -0.0001975857 -0 
0.0570032 -0.0616723 -0 
-0.05685905 -0.09321008 0 
0.02129806 -0.04178628 -0 
0.09543354 -0.03450146 -0 
-0.0479301 -0.06621045 0 
-0.03180254 0.03568805 0 
0.02131628 0.04764781 -0 
-0.07884631 0.08675576 0 
0.01872965 0.05728995 -0 
-0.0370953 0.05898793 0 
0.05454563 -0.08600523 -0 
-0.0646998 0.05168553 0 
-0.01692452 0.003907538 0 
-0.06344859 0.05685709 0 
-0.06382141 0.04446186 0 
-0.06964079 -0.04042757 0 
-0.0139739 -0.05103533 0 
-0.02395494 -0.04274675 0 
-0.038617 0.07992787 0 
-0.03665145 0.02132071 0 
0.093213 0.09446252 -0 
0.02807121 0.0650724 -0 
-0.0376329 0.08663192 0 
-0.004159831 -0.005370555 0 
-0.0376858 -0.05564249 0 
-0.02662115 0.06007617 0 
0.06990184 0.05282855 -0 
-0.05371262 0.06687269 0 
-0.07343441 0.03550497 0 
0.02964097 0.01333066 -0 
0.05967135 -0.08364809 -0 
0.04334448 0.05213314 1.233138e-05 
-0.02903263 0.008100654 0 
-0.008065483 0.09146054 0 
-0.02960653 -0.07702692 0 
0.0636082 -0.04479036 -0 
0.0903751 0.04140905 -0 
0.04636483 0.09320001 -0 
-0.06653025 0.008115237 0 
0.06219747 0.00379762 -0 
0.0396075 0.09127426 -0 
0.06125555 0.07624765 -0 
-0.05451833 0.0382451 0 
0.07289724 -0.07214448 -0 
-0.01309141 0.005687448 0 
0.01091576 -0.01122464 -0 
0.09125823 0.07348626 -0 
-0.09592436 -0.0416665 0 
0.04847658 0.06704429 -0 
0.01656681 0.05865642 -0 
-0.006134327 0.05278992 0 
0.06834862 -0.05309619 -0 
0.05867119 -0.02994957 -0 
0.03812257 0.09449582 -0 
-0.06365296 0.01951748 0 
-0.04160103 0.0705083 0 
0.03186059 0.01954078 -0 
0.001862235 0.0977113 -0 
0.004469817 -0.04244251 -0 
0.009932604 0.04450191 -0 
0.08221772 0.09873472 -0 
-0.004212411 0.07708691 0 
-0.09091765 -0.08931617 0 
0.05921265 0.09944365 -0 
-0.09412302 0.07499683 0 
-0.08374985 0.0797807 0 
-0.04732392 0.006426658 0 
0.08819051 -0.07824832 -0 
-0.008080032 -0.06954083 0 
-0.06502176 0.01148112 0 
0.05188077 0.05693871 6.622502e-06 
-0.01183484 0.03263599 0 
0.06285302 0.02621815 6.679923e-06 
0.07532714 0.09349301 -0 
0.04344443 0.01404051 -0 
0.09847085 0.03911411 -0 
-0.08440147 0.08229487 0 
-0.05312881 0.07701371 0 
-0.01856086 0.05400019 0 
-0.02247856 -0.07987581 0 
-0.03763837 -0.06588447 0 
0.002839003 0.02972768 -0 
-0.0941082 0.01940653 0 
-0.04677247 -0.04627728 0 
-0.04192133 0.07315677 0 
0.08337253 0.05153513 -0 
-0.09695445 0.07362057 0 
-0.02187789 -0.07915455 0 
-0.02520522 -0.02796023 0 
0.0689401 -0.09177902 -0 
-0.08216822 0.08351321 0 
0.04795719 0.02485387 1.118442e-05 
0.04296018 0.003801828 -0 
-0.001782239 0.01968684 0 
0.02727668 -0.03772612 -0 
-0.01982936 -0.09420845 0 
-0.03394431 0.0536477 0 
0.09695056 -0.07824536 -0 
0.08572844 -0.08464064 -0 
0.06001071 0.009928264 -0 
0.07849288 0.009503316 -0 
-0.08944459 0.07349924 0 
0.08471156 -0.07778303 -0 
-0.07235911 -0.009404087 0 
0.02796213 -0.00453429 -0 
0.08349782 -0.009504998 -0 
0.08878732 0.02685001 -0 
-0.009914453 0.04836516 0 
0.03877052 0.01524705 -0 
-0.01253699 -0.01487924 0 
0.03487863 0.08960735 -0 
-0.0110062 -0.02675701 0 
0.09516401 0.032707 -0 
-0.008737043 0.06542324 0 
0.009364288 -0.09299228 -0 
0.03384911 0.02897562 -0 
0.05551307 0.08434519 -0 
0.000961563 0.07550336 0 
-0.02234821 -0.03523601 0 
0.03099501 -0.06480417 -0 
-0.09074244 -0.07545916 0 
0.04930487 0.01532293 -0 
-0.08353282 -0.005640836 0 
0.06424521 0.07258785 -0 
0.09510688 -0.02543708 -0 
-0.08532063 0.00352714 0 
-0.01446971 0.03507377 0 
0.01940101 0.008428152 -0 
-0.06393501 0.05850226 0 
0.03448391 -0.01250177 -0 
0.01618618 0.06511574 -0 
0.06079957 0.02659224 2.27628e-05 
0.01546483 -0.02277339 -0 
0.05777027 -0.03213257 -0 
-0.03632074 0.07916802 0 
0.04405411 0.09045317 -0 
-0.08594251 -0.09761008 0 
0.09388909 0.05595332 -0 
-0.0822164 -0.03616481 0 
0.07197635 -0.04156934 -0 
0.04990132 0.07059814 -0 
0.09346951 0.05648925 -0 
-0.04344977 0.07668906 0 
-0.0452226 -0.0382832 0 
0.01290353 0.02439992 -0 
0.0607367 0.01366252 -0 
-0.08158667 0.01482599 0 
0.0421673 0.03921875 0.0001022125 
0.09767604 -0.09062938 -0 
-6.798841e-05 -0.01101968 0 
0.001025649 -0.007483497 -0 
-0.07246775 0.03328915 0 
0.008856722 0.0190474 -0 
0.0618623 0.04944953 0.0001247203 
0.09063911 0.02017748 -0 
0.01262647 -0.07519926 -0 
0.05201724 -0.07738225 -0 
-0.07005169 -0.0736807 0 
-0.06918465 0.06252126 0 
-0.07172835 0.06423609 0 
-0.08155777 0.02625934 0 
0.05260474 -0.001803076 -0 
0.09156737 0.04675256 -0 
-0.08090552 0.005099751 0 
-0.04123875 -0.09930764 0 
-0.04007662 -0.09591135 0 
-0.01309879 -0.02865957 0 
0.05460642 -0.02749646 -0 
-0.08547811 -0.01065159 0 
0.02052375 0.08279607 -0 
-0.08375909 0.0914214 0 
-0.005939804 0.07937282 0 
-0.011781 0.05125673 0 
0.007332922 0.01504663 -0 
0.08330513 0.01887008 -0 
-0.06627346 0.004889812 0 
-0.06771562 0.01459187 0 
-0.03297651 -0.03273653 0 
-0.03955053 -0.06782979 0 
0.0404706 0.01548016 -0 
0.02701221 -0.04049938 -0 
0.001391532 -0.09054136 -0 
-0.08111333 0.03726467 0 
0.09034704 0.02031819 -0 
-0.08830713 -0.07168544 0 
0.09976336 0.02286961 -0 
-0.04923875 0.03083017 0 
-0.07132523 -0.07562746 0 
0.01268638 0.01125856 -0 
0.04865156 -0.05410914 -0 
-0.07074648 -0.04983797 0 
-0.008313435 0.07227429 0 
0.04442635 -0.03901354 -0 
0.03165078 0.03054456 -0 
-0.07438025 -0.02725607 0 
0.003576866 0.03183366 -0 
0.06309254 -0.05416232 -0 
0.09846482 -0.09655553 -0 
0.03305191 -0.06825835 -0 
-0.02410734 -0.07793719 0 
0.006703794 0.06786446 -0 
-0.01731802 -0.04298266 0 
0.003697634 -0.006055632 -0 
-0.02375592 -0.01637712 0 
-0.06804869 -0.0420864 0 
-0.02467219 0.07867587 0 
-0.04210294 -0.05959048 0 
-0.03911975 0.08709076 0 
0.02437111 0.03397822 -0 
0.02422186 0.09161687 -0 
-0.07590789 -0.09950483 0 
-0.02258724 0.08581828 0 
-0.09989293 -0.02217919 0 
0.03481143 0.01707618 -0 
0.06264557 -0.02151295 -0 
0.0176033 0.05863133 -0 
0.077739 -0.02298439 -0 
0.06587468 0.06036628 -0 
0.02433491 0.08576556 -0 
0.007778136 -0.08002391 -0 
-0.005361268 -0.07195593 0 
-0.08118449 0.08368021 0 
0.06417029 0.04332059 0.0002593973 
-0.007094748 0.0296563 0 
0.09981089 -0.03147441 -0 
0.02714838 0.0952336 -0 
-0.06431036 -0.02299215 0 
0.03477859 -0.04191463 -4.793275e-05 
0.02645986 -0.06491638 -0 
-0.05143416 -0.04026103 0 
0.08667579 0.09964512 -0 
0.09860446 -0.01920204 -0 
0.03401893 0.07351794 -0 
-0.05167078 -0.08074006 0 
-0.0264236 0.0816182 0 
-0.06296927 -0.07168503 0 
0.01772008 0.07393043 -0 
0.06608126 0.01075566 -0 
0.04307228 -0.009325615 -0 
0.04627554 0.08208898 -0 
0.005317117 -0.0406309 -0 
-0.02491468 0.05934129 0 
0.004515185 0.003241861 -0.0003065411 
0.005752818 0.0003649264 -4.974492e-05 
-0.06468333 -0.07556681 0 
-0.03018912 0.01356743 0 
0.01473728 0.01539054 -0 
0.09601858 0.003015981 -0 
-0.06535004 0.08710903 0 
-0.07146239 0.03848527 0 
-0.09619486 0.08224685 0 
-0.07188386 -0.04271211 0 
0.05627921 -0.06686636 -0 
0.002001991 -0.08481479 -0 
0.06648893 0.0749837 -0 
0.01965686 0.04663116 -0 
-0.02811687 0.01860292 0 
0.03936779 0.06322706 -0 
-0.06410354 0.05668091 0 
-0.04404726 0.06258623 0 
-0.09046419 -0.05207789 0 
0.024808 0.07918248 -0 
-0.08208992 -0.0553573 0 
-0.06681134 0.02056458 0 
-0.02346387 -0.01258459 0 
0.0919114 -0.02407361 -0 
-0.06870847 0.0533934 0 
-0.06874303 -0.03652522 0 
0.04102634 0.03193699 2.811775e-06 
0.007280507 0.06630661 -0 
-0.007879319 -0.03542862 0 
-0.04530818 0.07492386 0 
0.009582875 -0.006310392 -0 
-0.0632416 0.04575314 0 
-0.03032306 -0.04776292 -5.46968e-05 
-0.083368 0.09565668 0 
0.03756744 0.03459113 -0 
-0.09668555 -0.07084205 0 
0.009865656 0.07194419 -0 
0.05296411 0.08009753 -0 
0.02284377 -0.08156285 -0 
-0.03743536 -0.02056878 0 
0.05115975 0.02041166 -0 
-0.07046165 0.07270241 0 
0.0486321 0.006016297 -0 
0.08168934 -0.09498045 -0 
0.03783649 -0.05506388 -0 
-0.07423367 -0.05978555 0 
0.0912212 -0.07031576 -0 
-0.05025395 0.06918191 0 
0.02150222 -0.05101074 -0 
-0.05516445 -0.01792782 0 
0.0902812 0.06932881 -0 
0.07831997 -0.05045673 -0 
-0.01405623 -0.05947182 0 
-0.08014427 -0.05167492 0 
0.08804397 -0.04785098 -0 
0.09411933 -0.01923235 -0 
0.05695659 -0.05813138 -0 
-0.01371389 0.01495425 0 
-0.07896494 -0.0136651 0 
0.03370702 -0.05732082 -0 
0.08871566 0.09914182 -0 
-0.01697149 0.04680669 0 
0.07562719 0.01774479 -0 
0.03438243 0.03570515 -0 
0.04546776 0.05976307 -0 
0.0251541 -0.06200043 -0 
0.0751503 -0.01592723 -0 
-0.008922193 -0.06956727 0 
-0.08532725 0.09055146 0 
-0.0952958 0.05089746 0 
0.09380645 0.06050849 -0 
-0.04619 0.01671845 0 
0.06526288 -0.05482426 -0 
0.003102497 0.005318823 -0.0001270926 
0.009310879 0.04827935 -0 
0.03672797 0.05215735 -0 
-0.03112087 0.00749509 0 
-0.04224778 -0.06520324 0 
0.08273876 -0.0875185 -0 
0.05346123 0.05639219 8.667263e-06 
-0.01985293 0.01871541 0 
0.03436743 0.02115327 -0 
0.02789544 0.08877082 -0 
0.02091313 0.004237213 -0 
0.008956116 -0.01426556 -0 
-0.08153845 -0.02624828 0 
-0.03843651 0.02299403 0 
-0.09151081 0.06754844 0 
-0.004043287 -0.08403723 0 
0.06839069 0.06427962 -0 
-0.06516264 0.03664012 0 
-0.08166176 -0.08427267 0 
0.09846581 0.04217334 -0 
0.05089195 -0.01655364 -0 
0.06232139 -0.05547279 -0 
0.00831997 0.08476546 -0 
-0.004474499 0.01814259 -0.0002977874 
-0.02988312 0.07079297 0 
0.0944038 -0.04032052 -0 
-0.05615203 0.0008412155 0 
-0.09996836 -0.003730941 0 
-0.08687575 0.03818419 0 
-0.05090044 -0.07276332 0 
0.04049442 -0.005105943 -0 
0.0009169308 -0.09580149 0 
-0.006300786 -0.04627969 0 
-0.04589932 -0.009727607 0 
-8.38236e-05 0.07440208 0 
-0.08219006 -0.09689403 0 
0.08125153 0.05005772 -0 
0.08835675 0.0250277 -0 
-0.01385725 -0.007159382 0 
-0.08716737 0.01190589 0 
0.02062261 -0.05509056 -0 
0.01236076 -0.04985134 -0 
-0.0206367 0.07654437 0 
0.02519006 -0.09972596 -0 
-0.01483953 0.04083436 0 
0.04104582 0.07986893 -0 
0.05169508 -0.07230372 -0 
0.08642842 -0.0009515143 -0 
-0.05031256 0.02832546 0 
0.01312362 0.09105381 -0 
0.01515909 -0.09907416 -0 
-0.07191903 0.02719057 0 
-0.05619612 0.003274908 0 
-0.0781265 0.07305431 0 
0.0988782 0.01877337 -0 
0.01237625 -0.008427537 -0 
-0.04655515 -0.01664116 0 
-0.0202827 0.09087353 0 
-0.03927862 0.09057464 0 
-0.03773315 0.006120614 0 
0.02403344 0.07646762 -0 
-0.02990938 0.09209665 0 
0.07925671 0.06303909 -0 
0.0612637 -0.07005914 -0 
-0.04327207 -0.08240456 0 
-0.06506304 0.05435665 0 
-0.03336284 0.01488287 0 
0.01868296 -0.01739987 -1.944081e-05 
0.06209927 -0.01337928 -0 
-0.03104262 -0.07835957 0 
-0.03019036 -0.05426555 0 
-0.05348216 -0.01752245 0 
-0.017018 -0.0860082 0 
0.05429166 0.03880073 0.001419751 
0.06149942 0.06688829 -0 
-0.05169136 0.06841572 0 
-0.03139188 0.007517356 0 
-0.03079425 0.09875777 0 
0.05128423 0.06180964 -0 
0.04178346 0.009327551 -0 
0.00157447 0.05971339 -0 
-0.08258753 -0.05744573 0 
-0.02623843 0.02922916 0 
0.06020623 0.09015275 -0 
0.03521582 0.04880814 -0 
0.05063678 0.09742805 -0 
0.07601328 -0.05013713 -0 
-0.04322513 -0.05864954 0 
0.05779682 0.06280046 -0 
0.05708767 -0.05680966 -0 
-0.05920514 -0.09743053 0 
-0.03420321 0.04430234 0 
0.01096587 0.004637138 -0 
0.02230867 -0.002617968 -0 
0.09835391 0.04235591 -0 
-0.01535449 0.02928521 -0.0003041335 
0.04624716 0.05069778 9.059187e-05 
0.06264541 0.09473822 -0 
0.08231208 0.02789977 -0 
-0.07233123 0.05408062 0 
0.06578843 0.0571581 -0 
-0.09516324 -0.0004378989 0 
0.02178692 0.01500257 -0 
-0.07948612 -0.01142057 0 
0.01186347 -0.09695767 -0 
-0.09251879 0.08514927 0 
-0.02857723 -0.03337773 0 
-0.003082792 0.04630929 0 
-0.04135778 -0.02260687 -1.693162e-05 
-0.07592553 -0.09959673 0 
-0.08899628 0.032345 0 
0.06812152 0.07531094 -0 
-0.07387446 -0.06635163 0 
-0.005694137 -0.03512999 0 
0.01318072 -0.04771639 -0 
0.07984959 -0.02231426 -0 
-0.06960423 0.04124608 0 
-0.07847591 0.09017943 0 
0.08692962 0.05486789 -0 
-0.04295344 0.0311754 0 
0.08518699 -0.08967952 -0 
0.03617039 -0.008421254 -0 
-0.04772957 0.05272837 0 
-0.05971753 -0.07430367 0 
-0.002794337 -0.01776036 0 
-0.08868255 -0.04017173 0 
0.09004025 -0.02297764 -0 
-0.0301276 -0.0614408 0 
-0.09686908 -0.03585235 0 
-0.05686007 -0.00364571 0 
0.03887237 0.06923066 -0 
0.0946563 -0.08126321 -0 
0.0479098 0.06494408 -0 
0.05920988 -0.005893584 -0 
0.02370803 0.0846855 -0 
-0.09107764 -0.06349952 0 
-0.06074349 0.09270895 0 
0.04692073 0.07395124 -0 
-0.08094955 0.02828771 0 
0.07696398 0.0653929 -0 
0.09834661 0.08380198 -0 
-0.06697855 0.05278526 0 
0.08127312 -0.005997653 -0 
-0.03823481 0.01893019 0 
0.07914104 0.03153144 -0 
0.07166815 -0.06749107 -0 
-0.02815814 -0.01297014 0 
0.03774839 0.08814821 -0 
0.08365558 0.02247973 -0 
0.002040306 -0.09577729 -0 
-0.01470046 0.008419516 0 
-0.09179277 0.08185527 0 
-0.09453553 0.06442897 0 
0.01619079 0.05005826 -0 
0.05421542 0.0749237 -0 
-0.02767523 0.02993966 0 
-0.05209509 0.07826947 0 
0.01904271 0.0900207 -0 
0.02838635 -0.005461216 -0 
0.0239956 -0.0468292 -0 
0.06106225 -0.01849369 -0 
0.09493656 -0.04232563 -0 
0.004351062 -0.07589465 -0 
0.003824856 0.05834773 -0 
0.08964404 -0.04832773 -0 
0.04155184 -0.008795943 -0 
-0.0352033 -0.009235294 0 
0.06023989 0.0143359 -0 
-0.08187681 -0.02202977 0 
0.05424093 -0.09363551 -0 
0.02659558 0.05483687 -0 
-0.04715247 -0.097468 0 
-0.03634087 -0.02531322 0 
0.05653957 0.02787916 0.000118427 
0.008114356 -0.05264947 -0 
-0.06569504 -0.03758322 0 
-0.02686227 0.0799384 0 
-0.06713842 -0.05131299 0 
0.04306093 0.04157088 0.0001820884 
-0.09233888 -0.03023454 0 
-0.02815198 -0.08934512 0 
0.05326581 -0.05642741 -0 
0.009886277 0.06619622 -0 
-0.04506683 -0.01163343 0 
0.07729696 -0.05546852 -0 
0.04386758 0.08473147 -0 
-0.09128974 -0.08907649 0 
0.008487253 -0.01867669 -0 
-0.05668029 -0.01973017 0 
-0.04165018 0.06232936 0 
-0.03535356 0.07912465 0 
-0.07457723 -0.03211498 0 
0.09344488 0.01323769 -0 
-0.04814496 -0.01020082 -5.124052e-05 
0.04816519 -0.09399101 -0 
0.0002875263 0.04668665 0 
-0.00189392 0.04811124 0 
0.08318277 -0.02805613 -0 
0.03974529 0.04029358 1.867653e-05 
0.06230839 0.08496121 -0 
-0.003638544 0.07542916 0 
0.05659138 0.0264862 5.755942e-05 
-0.03309105 -0.008772796 0 
-0.09613558 0.01904248 0 
-0.06496612 0.04139793 0 
-0.0503569 0.0907501 0 
-0.006002008 0.03022035 0 
0.09248477 0.008346912 -0 
0.005704235 -0.0007769965 -1.571575e-06 
-0.04406453 -0.06930272 0 
0.008140222 0.08736666 -0 
-0.04259352 -0.09823243 0 
-0.004326119 -0.05275891 0 
-0.05194369 -0.09572156 0 
-0.08854504 0.09341379 0 
-0.02630408 0.01136552 0 
-0.01253286 0.01569544 0 
0.09342109 -0.05280722 -0 
-0.007657071 -0.00293422 0 
-0.02232578 -0.09654746 0 
-0.05777762 -0.04140981 0 
0.07319862 -0.03127002 -0 
-0.04449676 -0.02436434 -1.590036e-06 
0.07338099 0.08340916 -0 
0.07030653 -0.07841531 -0 
0.07733363 0.02301683 -0 
-0.09339506 0.09906729 0 
0.03407466 -0.02665995 -0 
-0.007237265 0.007232545 0 
-0.02666047 -0.0237402 0 
0.08276279 0.0755138 -0 
0.03578027 -0.00605259 -0 
0.07710076 0.08549143 -0 
0.09407119 0.02560673 -0 
0.01033803 -0.03403246 -0 
-0.09830861 -0.06234896 0 
0.07055895 -0.02516724 -0 
-0.07761765 0.08703697 0 
0.0356112 -0.006905568 -0 
0.03952684 0.05019392 6.082344e-07 
-0.09409467 0.08846216 0 
0.07317924 -0.08715586 -0 
0.05157243 0.09945966 -0 
0.0118919 -0.09915644 -0 
-0.04691763 -0.05964454 0 
0.01427602 -0.06204485 -0 
0.08043408 0.04536723 -0 
0.04438713 -0.01038571 -0 
0.05930312 0.002469999 -0 
-0.01662435 0.0896767 0 
-0.08783633 0.01667483 0 
0.04207338 0.04911902 2.147488e-05 
-0.03542844 0.0355933 0 
-0.02179793 0.008371845 0 
0.01411885 -0.01963878 -0 
-0.07874918 -0.06294433 0 
0.09805237 -0.0759352 -0 
-0.08144531 0.02871498 0 
-0.0277458 -0.01744071 0 
-0.07642429 0.09590968 0 
0.09996452 0.03424838 -0 
0.03376279 -0.05728883 -0 
0.07817019 0.09068358 -0 
0.002688362 0.06667985 -0 
0.02837988 -0.002908694 -0 
0.04608886 0.08706582 -0 
0.08378892 0.06687929 -0 
0.0532054 -0.02746763 -0 
-0.09939536 -0.05826879 0 
-0.02718153 -0.0102532 0 
0.02352207 0.03642635 -0 
-0.06342666 0.08395739 0 
-0.0612446 -0.05280975 0 
0.009921247 -0.05837982 -0 
-0.02927422 0.06907613 0 
0.09568602 0.02447708 -0 
-0.002995885 -0.03044827 0 
0.06458675 0.05264129 0 
-0.004585996 -0.05123254 0 
0.01034126 -0.03646675 -0 
0.06474219 0.004958769 -0 
0.08598892 -0.05180787 -0 
0.01200397 -0.07268132 -0 
-0.06212159 -0.02207825 0 
-0.05739637 -0.006787497 0 
-0.0903798 0.0550248 0 
0.03300288 0.08058053 -0 
-0.08827752 -0.00446886 0 
-0.0407294 0.01147115 0 
-0.07104807 -0.04733447 0 
-0.08323488 0.03641537 0 
0.0260245 -0.06511281 -0 
0.08960643 0.01444202 -0 
-0.08114844 -0.06966478 0 
-0.07646526 0.0818796 0 
-0.01525586 0.03663193 0 
0.01496466 0.08439957 -0 
-0.01893636 0.0734261 0 
-0.0879471 0.02460461 0 
0.08645251 0.04323934 -0 
-0.03624576 -0.02367483 0 
-0.02038866 -0.04459627 0 
0.05626762 0.01929072 -0 
0.06298768 0.07776005 -0 
0.009949662 -0.09207416 -0 
0.0509779 0.05025683 0.000301703 
-0.05192435 -0.02567371 0 
0.05801582 0.06523994 -0 
0.05982704 0.07701434 -0 
0.0580145 0.0318306 0.0004307943 
0.02297916 -0.05120281 -0 
-0.0249104 -0.06069854 0 
0.08536667 -0.09193018 -0 
0.09745924 0.01465992 -0 
0.07223197 0.04941753 -0 
0.06276859 0.05917615 -0 
