ply
format ascii 1.0
comment VCGLIB generated
element vertex 1787
property float x
property float y
property float z
element face 0
property list uchar int vertex_indices
end_header
-0 -0.01769019 -0.01341649 
-0 -0.09821369 -0.07411987 
-0 -0.04860108 -0.06908235 
-0 -0.03975248 0.06635137 
0 0.00863577 -0.07201949 
-0.0001555517 0.07152537 -0.01810789 
-0 -0.0371354 -0.01313649 
0 0.06843614 -0.0666478 
0 0.02680239 0.06347606 
0 0.04130815 0.02352047 
0 0.0074064 0.008104723 
-0 -0.06327911 0.04038902 
0 0.04399722 0.005985064 
0 0.06446238 0.07039087 
-0 -0.05668712 -0.04038452 
0 0.07141642 0.08110021 
-0 -0.08944029 -0.005471218 
0 0.06831169 -0.002087531 
-0 -0.02696194 -0.03908226 
-0 -0.05965924 0.02649699 
0 0.05364389 0.04387583 
0 0.05054897 -0.009564014 
-0 -0.06255289 0.01512611 
0 0.0966414 -0.07731201 
-0 -0.08289085 0.0118307 
-0 -0.02756268 -0.01277076 
0 0.07034539 0.06344438 
0 0.06753796 0.08561817 
0 0.03282249 -0.007293822 
-0 -0.09432442 -0.04180958 
-0 -0.03121635 -0.009137359 
0 0.02161154 0.05198253 
-0 -0.04852348 0.04464206 
-0 -0.04802977 -0.07757315 
-0 -0.05334461 0.05137096 
-0 -0.03997584 0.08304937 
-0 -0.02877243 0.02621069 
0 0.06227946 -0.01771007 
0 0.03535103 0.03721999 
0 0.0001142352 -0.02694827 
-0 -0.09969713 0.09501745 
0 0.09519944 -0.04664999 
-0 -0.04777111 0.01128117 
-0 -0.08676606 0.00991095 
-0 -0.0161857 0.06655921 
-0 -0.007705542 -0.02331495 
0 0.05317321 -0.01295848 
0 0.08181068 -0.07622617 
0 0.05233451 -0.09876725 
0 0.01548765 0.03090162 
0 0.05645517 0.01893155 
-0 -0.05578709 -0.009583263 
0 0.03439951 -0.009779517 
0 0.09394 -0.08658767 
0 0.05427384 -0.01716316 
0 0.07453042 -0.02731458 
0 0.09697236 0.09204991 
0 0.01144164 -0.03631231 
0 0.01545136 0.09040541 
0 0.02831727 -0.06276301 
-0 -0.020078 -0.001758438 
-0 -0.01321634 0.06208687 
0 0.05723132 0.01152168 
0 0.006304874 -0.08372637 
-0 -0.08269944 -0.06663726 
-0 -0.06356772 -0.02225358 
0 0.0355489 -0.05852011 
-0 -0.009181572 0.0815318 
-0 -0.002619633 -0.006288369 
-0 -0.06405611 -0.07010596 
0 0.07006818 0.05160491 
-0 -0.06647637 -0.0268234 
0 0.0397754 -0.09125292 
-0 -0.05284052 0.09199472 
0 0.07595204 0.02873495 
-0 -0.04250649 0.07828447 
0 0.0734466 -0.04657827 
0 0.05447491 0.07141902 
0 0.00395458 0.06134545 
-0 -0.04416066 -0.07178743 
-0 -0.05609662 -0.05312957 
-0 -0.0839617 0.01846597 
0 0.01475885 0.01911855 
0 0.04942675 0.05881026 
0 0.01601203 0.05016398 
-0 -0.001499631 0.03546328 
-0 -0.08528478 0.0006043924 
-0 -0.06566533 0.07314305 
0 0.04460246 -0.01699987 
-0 -0.05002934 0.09052962 
0 0.05326759 -0.01521068 
0 0.00905294 0.04252481 
0 0.01672061 -0.07026339 
-0 -0.0225327 0.02309031 
0 0.07111847 0.0959025 
-0 -0.01713919 -0.07232771 
-0 -0.0596217 -0.02903224 
-0 -0.0910458 0.02703337 
-0 -0.09419128 -0.04973213 
-0.0001994831 -0.004232425 -0.01003988 
-0 -0.09067206 -0.09110965 
0 0.02833183 0.04026068 
-0 -0.0781177 0.008604423 
0 0.0468251 -0.07907461 
-0 -0.06291379 -0.04446955 
0 0.03591133 0.0937946 
-0 -0.04652465 0.04745892 
-0.0002183083 -0.01424812 -0.01770113 
-0 -0.00230066 0.07796822 
-0 -0.02761446 -0.09888143 
-0 -0.07767366 0.02630622 
0 0.06662806 -0.01732905 
0 0.07599634 -0.07281218 
-0 -0.06674976 -0.001298594 
0 0.01285359 0.02205982 
-0 -0.02392628 -0.05085782 
-0 -0.05983837 -0.09933928 
0 0.06825177 -0.05039773 
-0 -0.08205131 0.05288293 
0 0.03137169 0.0508441 
0 0.02464244 -0.03549748 
-0 -0.06798975 -0.06611274 
0 0.08446025 0.09382384 
-0 -0.02105795 -0.03345802 
-0 -0.09004363 -0.009131958 
-0 -0.01095624 0.07802288 
0 0.09620629 -0.02034642 
-0 -0.007989682 0.009407724 
0 0.002785725 -0.03034135 
0 0.04772579 -0.08228717 
-0 -0.07574931 0.02877416 
-0 -0.09010328 -0.05235878 
-0 -0.04173961 0.04399354 
0 0.06168251 0.0293403 
-0 -0.008681501 0.02369807 
-0 -0.02074205 0.04104305 
0 0.06638749 0.07739537 
-0 -0.08981012 0.05142462 
-0 -0.03251247 -0.005887338 
-0 -0.03579441 0.01756377 
-0 -0.06526659 -0.08745136 
-0 -0.06766196 0.09687861 
0 0.07833603 0.02510416 
-0 -0.04453107 -0.04990972 
0 0.00851409 -0.0875387 
0 0.080199 -0.03743401 
-0 -0.04442059 -0.02973884 
-0 -0.02537288 -0.05217519 
0 0.05211283 0.08055796 
-0 -0.0732236 0.007765965 
-0 -0.06480885 -0.06704907 
0 0.09813228 0.03780299 
0 0.003751242 -0.05696978 
-0 -0.03620075 0.07434224 
-0 -0.0601119 -0.04012211 
-0 -0.06569394 -0.01486924 
-0 -0.007611124 0.05264898 
-0 -0.03592757 -0.02227187 
0 0.05023331 -0.09260119 
-0 -0.08329048 -0.05547324 
-0 -0.06460014 0.05563807 
0 0.01346488 0.08941184 
-0 -0.07518893 0.03309395 
0 0.05466312 -0.05696094 
-0 -0.08725972 -0.04407387 
-0 -0.09911687 -0.0774413 
-0 -0.01104949 -0.0920527 
0 0.09681989 0.03919033 
-0 -0.06092798 -0.08991412 
0 0.02429173 -0.03450469 
-0 -0.009147119 0.0009551862 
-0 -0.09943727 0.0926326 
-0 -0.03546308 0.07205608 
-0 -0.09195615 0.04990263 
-0 -0.04198698 -0.01813321 
-0 -0.007828656 -0.02662986 
0 0.05211265 0.02944348 
0 -0.0008120145 -0.03421101 
-0 -0.08512942 -0.05203394 
0 0.08453701 -0.03050203 
0 0.006426729 -0.01463577 
-0 -0.03364214 0.07294296 
-0 -0.03334697 -0.005042905 
-0 -0.04730441 0.01555964 
-0 -0.09905416 -0.09198307 
0 0.0603958 0.06171828 
-0.0002552215 0.0193852 0.006462277 
0 0.03015782 0.04251533 
0 0.04118702 -0.0758049 
0 0.01938219 0.01420002 
-0.0001680536 0.03794715 0.02364979 
-0 -0.001775111 -0.005508532 
-0 -0.08847176 -0.04609953 
-5.063758e-06 -0.0453858 -0.0321928 
0 0.01881495 0.09553038 
-0 -0.02256447 -0.04592721 
-0 -0.07578648 -0.0927158 
0 0.02181125 -0.09062228 
0 0.0772292 0.06178526 
-0 -0.02422599 -0.05953484 
-0 -0.09182564 -0.05603813 
-0 -0.05130348 -0.007914757 
0 0.06025499 -0.01671916 
0 0.09522663 0.0629168 
-0 -0.07579544 -0.007037675 
-0.0001301253 0.03487161 0.01991894 
-0 -0.07954867 0.0934397 
0 0.08152694 0.0481832 
0 0.03061582 0.03415628 
0 0.09092429 -0.09893294 
0 0.04793896 -0.007042083 
0 0.09572726 -0.09687737 
0 0.09240119 0.09662567 
-0 -0.08265387 0.002323385 
-0.0002477179 -0.02851823 -0.02778721 
0 0.03997036 -0.07445316 
0 0.0172719 0.09293596 
-0 -0.08541068 -0.05490477 
-0 -0.05981357 -0.0978484 
-0 -0.08568721 0.03209659 
-0 -0.06112218 0.09329022 
-0 -0.06940953 0.08520743 
-0 -0.05583229 -0.03079855 
0 0.01587224 -0.05312515 
-0 -0.07063361 -0.004519007 
0 0.01903084 0.09803965 
-0 -0.04416122 0.09492221 
-0 -0.02133176 -0.07782888 
-0 -0.08383182 -0.03512958 
0 0.05481564 0.003122863 
-0 -0.07879501 -0.01104118 
-0 -0.0447258 -0.08094702 
-7.873423e-05 0.01903852 0.007001443 
-0 -0.05755968 0.09547994 
0 0.03680157 0.06800561 
-0 -0.03577694 -0.01587221 
0 0.03013987 0.06655432 
0 0.008353306 0.006241802 
-0 -0.06331261 -0.07664757 
0 0.0984203 0.09474625 
-0 -0.004300405 0.04303147 
-0 -0.07428043 -0.07349632 
-0 -0.04687092 0.06607466 
0 0.09668688 0.04986355 
-0 -0.0152513 0.05950156 
0 0.05126748 -0.05302247 
-0 -0.08840445 -0.08947369 
0 0.04544057 -0.006494889 
0 0.03958152 -0.09680433 
0 0.0185543 0.008718297 
-0 -0.08398733 -0.01879652 
-0 -0.09520182 0.01444574 
0 0.03029865 0.06974839 
0 0.0564195 0.0931143 
-0 -0.07836139 -0.08144889 
-0 -0.0462844 0.04582839 
-0 -0.07531395 0.03682921 
-0 -0.07793678 -0.0965535 
-0 -0.06828417 -0.0698756 
-0 -0.008071504 0.03882489 
-0 -0.03794332 -0.04741354 
-0 -0.08564168 0.06922028 
0 0.0791728 -0.08657658 
-0 -0.005760371 0.02284168 
-0 -0.06604607 0.06026696 
0 0.08827215 0.08996096 
0 0.08279771 -0.0598153 
0 0.07117258 0.08736839 
-0 -0.03878196 0.09174991 
0 0.01990244 -0.09965702 
0 0.09710446 0.05189691 
0 0.08302064 -0.07392479 
-0 -0.02258809 -0.00876449 
-0.0001529126 0.07123657 -0.03037893 
-0 -0.02033862 -0.09402501 
0 0.04573827 -0.02106273 
0 0.02423885 -0.04226835 
0 0.01211594 -0.01347635 
-0 -0.06903644 -0.01437282 
-0 -0.0819228 -0.03562394 
-0 -0.03152332 0.05309764 
-0 -0.04334071 0.03330388 
0 0.006126088 -0.07788619 
0 0.02802577 -0.02266227 
-0 -0.0332257 -0.06098847 
0 0.05751987 0.06417429 
-0 -0.01618983 -0.08082381 
0 0.0959141 -0.05743637 
0 0.04669054 0.04386936 
0 0.01372113 -0.08242411 
-0 -0.07625998 0.0446024 
-0 -0.07678272 -0.05046515 
-0 -0.03686435 -0.02345769 
0 0.01691727 0.07321298 
0 0.08660501 -0.01331183 
-0 -0.0182252 -0.09394834 
0 0.05194965 0.07869453 
-0 -0.06687096 0.007863528 
0 0.04780306 0.06654672 
-0.0002059069 0.03528383 0.0224671 
-0 -0.007835904 -0.05205492 
-0 -0.0262646 -0.06210291 
0 0.06416671 0.09638652 
-0 -0.0350015 0.01615946 
0 0.03259011 0.08196889 
0 0.08122079 0.008161008 
0 0.03881052 0.02921363 
-0 -0.02267984 -0.09528549 
0 0.007929714 -0.06866416 
-0 -0.008420259 -0.06987866 
0 0.06156519 0.004636919 
-0 -0.08097117 0.09502834 
0 0.003836998 0.00757615 
-0 -0.02961103 0.01254848 
-0 -0.02212295 0.03414394 
-0 -0.05013713 -0.01737463 
-0 -0.05035713 -0.09190047 
-0 -0.09984888 0.05037898 
0 0.02905128 0.03082643 
0 0.04805401 0.03980926 
0 0.08227129 0.08663887 
0 0.08332124 -0.0528319 
-0 -0.01318717 0.07374693 
-0 -0.01237985 -0.06299897 
-0 -0.05561325 -0.03650684 
-0 -0.09471493 0.04541814 
0 0.03396557 -0.01101455 
0 0.05391595 0.03934623 
-0 -0.01739307 0.0457609 
0 0.07197257 0.08150952 
-0 -0.03758108 -0.0263656 
0 0.03507084 0.05606128 
0 0.06935458 0.08317916 
-0 -0.02007061 0.0999486 
0 0.08811912 0.09516062 
-0 -0.06101364 -0.01954848 
-2.471035e-05 0.07243643 -0.02188233 
0 0.06959396 0.09369683 
0 0.09970739 0.03817014 
-0 -0.04514327 -0.07355412 
0 0.02040676 0.03740074 
0 0.09830153 -0.06314239 
-0 -0.09623097 0.0100572 
0 0.08763431 -0.06124522 
0 0.04615605 -0.09728669 
-0 -0.03830029 0.02523334 
0 0.04458944 0.0731618 
-0 -0.04618465 0.003359332 
0 0.09076487 0.02792421 
0 0.07638732 -0.02482301 
-0 -0.05705843 0.06311566 
0 0.003143251 0.001399613 
0 0.02859716 -0.0461772 
-0 -0.03993261 0.07482949 
0 0.0432191 0.04786803 
-0 -0.01948398 0.09390846 
-0 -0.02299725 -0.07153915 
-0 -0.0545482 -0.07439309 
0 0.08187131 0.07386211 
0 0.09456247 0.01776489 
0 0.06128804 0.08382899 
-0 -0.05896965 0.06258013 
0 0.01377192 0.03648534 
0 0.005495639 0.03256015 
-0 -0.05231495 -0.02963871 
0 0.02747244 0.08840758 
0 0.06160539 -0.09205149 
0 0.08307581 0.03351143 
0 0.006395197 0.02294441 
0 0.02158056 0.0548519 
0 0.09704919 0.07637055 
0 0.03873399 -0.02031375 
-0 -0.09812059 0.067691 
-0 -0.09107162 0.03325218 
0 0.005344882 -0.00828933 
0 0.09229471 0.03070874 
0 0.02285563 0.06273261 
0 0.08458947 -0.06776136 
-0 -0.06549842 0.0129538 
-0 -0.07515617 -0.09517002 
0 0.02266956 0.07215752 
0 0.07553582 -0.07275511 
-0 -0.01980763 0.07230799 
-0 -0.03929111 -0.06316086 
0 0.03585954 -0.09997684 
-0 -0.0570659 0.08702743 
-0 -0.03408693 -0.03277541 
-0 -0.02822955 0.06889838 
-0 -0.042206 -0.07325576 
0 0.02381714 -0.02903245 
-0 -0.01914516 0.09327222 
-0 -0.01579205 0.08470374 
-1.434264e-05 0.01512424 0.0001705558 
0 0.03547794 0.01057264 
0 0.002741431 -0.06221247 
-0 -0.06776175 -0.09278598 
0 0.09803667 0.02010669 
0 0.0802549 0.04763361 
-0 -0.03167645 -0.03442835 
0 0.0792977 0.01253999 
-0 -0.01796936 -0.06902326 
0 0.003218922 0.0591174 
-0 -0.03984296 -0.0004476868 
-0 -0.07976808 -0.0836289 
0 0.0374222 0.04734261 
-0 -0.09661476 0.06941181 
0 0.08609318 -0.08461174 
0 0.07632247 0.07026348 
-0 -0.02518719 0.01228559 
-0 -0.07275915 -0.07527523 
-0 -0.05670556 0.07372427 
0 0.0610434 -0.05547141 
-0 -0.006020418 0.03737904 
0 0.06612428 -0.08087876 
-0 -0.06580854 -0.08778169 
-0 -0.04607327 -0.0199825 
0 0.08770555 -0.03840038 
0 0.04448095 -0.07865185 
-0 -0.08049901 -0.07918773 
0 0.04889762 0.01167386 
0 0.07954039 -0.0265367 
0 0.0301821 -0.07089535 
0 0.01007917 0.06480668 
0 0.06217547 0.00338711 
-0 -0.06448344 -0.04918613 
-0 -0.09645609 0.05017178 
0 0.002885392 -0.09585451 
-0 -0.05915073 -0.0390899 
-0 -0.08192335 -0.03121225 
0 0.07635876 0.03070561 
0 -0.0003868064 -0.07648961 
0 0.06238083 0.01950109 
0 0.06226864 0.05343659 
0 0.04562096 0.05135243 
-0 -0.07260612 -0.0952674 
0 0.003113907 0.01981534 
0 0.08288901 0.01414913 
0 0.01804863 0.05491617 
-0 -0.03203565 -0.09923599 
-0 -0.07549392 0.03514989 
0 0.04649109 0.0002900254 
-0 -0.06600647 0.03974582 
-0 -0.02182977 0.02128735 
-0 -0.03095158 -0.07682285 
-0 -0.03753728 0.07514396 
-0 -0.006045527 0.0137147 
0 0.009451004 -0.09682576 
-0 -0.06954356 -0.0590418 
-0 -0.03030962 0.05435627 
-0 -0.07343747 -0.06332522 
-0 -0.002371111 -0.05842152 
-0 -0.04064799 -0.09410504 
-0 -0.03470063 -0.01517315 
0 0.04834002 0.07261866 
0 0.09145098 -0.03657076 
0 0.0591226 0.09381339 
0 0.03142564 0.01342837 
0 0.0404051 -0.07795074 
0 0.0416724 0.002811743 
0 0.07704859 0.03639108 
0 0.03133337 -0.03193847 
-0 -0.0645384 -0.005823913 
-0 -0.01039689 -0.09506841 
-0 -0.0253165 -0.005312572 
0 0.07174552 -0.03521067 
-0 -0.05194248 0.06604166 
-0 -0.07314163 -0.09064033 
0 0.04482857 0.03370744 
0 0.01616126 0.09478435 
-1.613519e-06 0.06991439 0.01273931 
0 0.0009237189 -0.02576311 
0 0.05667944 -0.08787169 
-0 -0.02919594 -0.09692991 
-0 -0.09794779 0.05262777 
-0 -0.09274328 -0.03922474 
-0 -0.09368437 0.05603018 
0 0.03272437 -0.09516934 
0 0.03727728 0.0002977981 
-0 -0.03029539 0.06202175 
-0 -0.05975151 -0.04032343 
-0 -0.09828623 0.08999883 
0 0.04450411 0.006921035 
0 0.02991266 -0.01637415 
-0 -0.03979509 0.08792455 
-0 -0.07677422 -0.01287571 
0 0.04110453 0.07897805 
-0 -0.03474641 0.06267742 
-0 -0.03512507 0.04537353 
-0 -0.07666039 -0.02056262 
0 0.02097867 0.04932321 
0 0.0845862 0.06993493 
0 0.03276686 -0.02755503 
-0 -0.03357905 0.08072078 
0 0.04567492 -0.01611817 
0 0.007651326 0.0122326 
-0 -0.08196738 -0.02080854 
-0 -0.0903767 0.01545255 
-0 -0.00881954 0.02235579 
-0 -0.06274846 0.08558465 
0 0.05896693 -0.04310343 
0 0.0743155 0.003855255 
-0 -0.06223604 0.09598349 
0 0.0850782 -0.07782274 
0 0.05700218 0.01224419 
0 0.007110977 -0.01464177 
-0 -0.0784856 0.0349485 
0 0.06676212 0.01217398 
-0 -0.0751683 -0.04045668 
0 0.01106827 -0.06562657 
0 0.0174142 0.06840225 
0 0.0005299572 -0.02347132 
0 0.07166767 -0.04877235 
-0 -0.07238074 -0.07133537 
0 0.03339067 0.01589393 
0 0.05689943 -0.0258341 
-0 -0.05379866 0.02632517 
-0 -0.07476309 0.02083468 
-0 -0.06068105 0.08894244 
-0 -0.04088007 0.0344869 
-0 -0.01085319 0.02396386 
-0 -0.04296343 -0.05406062 
-0 -0.0126653 0.09500907 
0 0.01793263 0.08438776 
0 0.05456647 0.06585172 
0 0.009832271 -0.09946221 
0 0.03975599 0.02063441 
-0 -0.0979792 0.02369693 
-0 -0.02284355 -0.008282235 
0 0.003236475 -0.07127335 
-0.0001105449 -0.01472746 -0.0201654 
0 0.0660566 0.02049319 
0 0.09931503 0.04313141 
0 0.01689047 -0.004640029 
0 0.05656767 -0.03843911 
0 0.03297783 -0.06760275 
-0 -0.02406662 0.009758546 
-0 -0.08631633 -0.03186768 
-0 -0.009335514 0.07449207 
0 0.08730619 -0.05408068 
0 0.0695774 0.007231996 
0 0.05236049 -0.06518216 
0 0.04064986 -0.028818 
0 0.09686205 0.05274399 
-0 -0.03344299 0.09950913 
-0 -0.009371673 -0.02524069 
-0 -0.06392916 0.04827569 
0 0.0771725 -0.09190815 
0 0.08135337 0.06440599 
0 0.01905409 -0.08758214 
-0 -0.07207844 0.07496013 
-0 -0.01267119 0.08278503 
-0 -0.07987868 0.04863562 
0 0.05171703 0.05270768 
-0 -0.06661686 -0.02644852 
0 0.03464599 0.03002828 
0 0.003213297 0.04766032 
-0 -0.02016785 0.00611981 
-0 -0.07171601 0.03261042 
-0 -0.04603801 0.07842353 
-0 -0.02044863 -0.09161501 
-0 -0.02295503 0.05346085 
0 0.05434034 -0.01160995 
0 0.0670473 -0.08069476 
0 0.07326294 0.03677791 
-0 -0.03491079 -0.04959128 
0 0.08472498 0.06207547 
0 0.07716952 -0.05984329 
-0 -0.03197176 0.09670439 
0 0.03418638 0.06126425 
-0 -0.08249098 0.07481118 
-0 -0.07857227 0.08577189 
-0 -0.01945521 0.06786896 
-0 -0.05167308 -0.07753943 
0 0.07987177 -0.0495851 
0 0.008711608 0.04566716 
-0 -0.01561701 -0.07382574 
-0 -0.02257927 0.01804516 
-0.0002645094 -0.05179691 -0.03684834 
0 0.08924405 0.09573465 
-0 -0.01714597 0.007804876 
0 0.06492554 0.06660299 
-0 -0.09839675 -0.09455572 
-0 -0.08604465 0.01660167 
0 0.08098689 0.044701 
-0 -0.04153479 0.05249813 
-0 -0.08302538 -0.0603324 
-0 -0.08363476 0.0428641 
-0 -0.07154666 -0.04353205 
0 0.07184097 0.02678404 
0 0.08344273 -0.06988201 
0 0.09810601 0.033643 
-0 -0.03171361 -0.001390985 
-0 -0.03468779 0.04370259 
-0 -0.01780578 -0.01181505 
-0 -0.08810605 -0.05268433 
0 0.01101897 0.02833276 
-0 -0.01434894 -0.006084916 
-0 -0.04520672 -0.06818821 
-3.649987e-05 0.02117305 0.009651144 
0 0.001215255 -0.07881835 
0 0.08446647 0.09078507 
0 0.09909937 -0.04200663 
0 0.07992435 0.01404586 
0 0.05557359 0.06645742 
0 0.0217235 -0.002612456 
0 0.02369886 0.0457247 
-0 -0.06169466 0.02039205 
0 0.04342126 -0.06262832 
0 0.09366523 0.006178329 
0 0.01941513 -0.04874439 
0 0.04328274 -0.01218415 
-0 -0.04161764 -0.09239116 
0 0.01029395 0.05218782 
0 0.04938213 0.04454207 
0 0.03802491 0.06945262 
-0 -0.08383381 0.05506307 
0 0.04516581 0.01617603 
-0 -0.005849794 0.05240794 
-0 -0.02294376 -0.0203476 
-0 -0.09749386 -0.03915946 
-0 -0.01638546 0.07332968 
-0 -0.04191649 -0.09549069 
0 0.05533021 0.09353672 
0 0.04719018 -0.02629408 
-0 -0.02370655 0.05130501 
-0 -0.02517603 0.03728061 
-0 -0.09079664 -0.07450197 
0 0.08944224 0.05743093 
-0 -0.0997842 0.01677794 
0 0.09207267 0.01499933 
0 0.03341744 -0.05470026 
-0 -0.008479373 -0.01959543 
0 0.0147025 -0.04083594 
-0 -0.05757098 0.05068893 
0 0.01894398 -0.07216617 
0 0.03266091 0.09789635 
-0 -0.0722433 0.007003558 
-0 -0.05755436 0.09893037 
0 0.06513796 0.07381614 
-0 -0.08114814 -0.01899197 
0 0.07262062 -0.07966093 
0 0.01975215 0.0571941 
-0 -0.0786336 -0.09699635 
-0 -0.05014507 -0.09597348 
0 0.01156929 -0.09206993 
0 0.04303597 0.009465088 
0 0.07008342 0.01084212 
0 0.07537328 -0.0414841 
0 6.425552e-05 0.001527415 
0 0.0522882 -0.01127729 
0 -0.0005120343 0.0560933 
-0 -0.03167616 -0.008383642 
-0 -0.0842886 -0.009581039 
0 0.07763484 0.03311346 
-0 -0.06679185 -0.01274935 
-0 -0.07039359 -0.09892742 
-0 -0.01420086 0.08427306 
0 0.05711729 -0.05717776 
-0 -0.00945803 -0.08240762 
-0 -0.09894541 0.03250298 
0 0.01045707 -0.00431721 
-0 -0.03307578 0.01121526 
-0 -0.05262145 -0.01995827 
0 0.06858057 -0.09163873 
-0 -0.01946163 -0.004727909 
-0 -0.02719156 -0.02037175 
-0 -0.04116155 0.02158675 
0 0.01254106 0.0839957 
-0 -0.02064716 -0.06937961 
0 0.08790097 -0.003902187 
-0 -0.07243323 -0.04007895 
0 0.02690489 -0.08875038 
-0 -0.01681795 0.05594037 
0 0.06616363 -0.06511882 
-0 -0.01536545 -0.03493056 
0 0.004523283 -0.08162448 
0 0.04083728 -0.09333344 
0 0.03563751 0.01937045 
-0 -0.08747502 0.008775095 
0 0.03069972 0.08708191 
-0 -0.05830244 -0.0008738679 
-0 -0.0251207 -0.02945609 
-0 -0.07403069 0.003727101 
0 0.006593217 -0.0155359 
-0 -0.07417126 -0.07337705 
0 0.0904985 -0.0106874 
0 0.08786687 0.06193805 
-0 -0.07255615 0.05718116 
-0 -0.02515998 -0.03173009 
0 0.006892235 -0.02333519 
-0 -0.08863443 0.09121507 
-0 -0.01513848 0.09936844 
-0 -0.09741785 0.02880274 
0 0.08413655 0.02558355 
0 0.09212037 -0.08458726 
0 0.06753375 -0.02356981 
0 0.03519732 -0.03073118 
-0 -0.03732508 -0.07226544 
0 0.01029694 -0.03620192 
-0 -0.06786629 -0.06464814 
-0 -0.05541915 -0.04874435 
0 0.09427507 0.008794742 
-6.653841e-05 0.07174362 -0.03148982 
0 0.04599814 -0.07344326 
0 0.02142534 -0.08730784 
-0 -0.02853301 -0.08852421 
0 0.0177449 -0.03506181 
0 0.03692493 -0.02080201 
-0 -0.01092995 -0.07642737 
0 0.0178546 -0.0515181 
0 0.005891575 -0.04201267 
0 0.09263989 0.001195863 
-0 -0.03327054 -0.03685987 
-0 -0.006078816 -0.03443866 
-0 -0.01927248 -0.06326984 
-0 -0.01636097 -0.05012047 
0 0.009668711 -0.02816887 
-0 -0.02427383 -0.03400931 
-0 -0.05335788 0.05783835 
-0 -0.0999137 0.04860818 
0 0.08649954 -0.01449287 
0 0.02727104 0.01023339 
-0 -0.06777229 0.08398917 
0 0.05482899 -0.07745386 
-0 -0.07739128 0.09864651 
-0 -0.05584094 -0.04868139 
0 0.02335835 0.05000609 
-0 -0.03354229 -0.01957471 
-0 -0.04318466 -0.03762728 
0 0.005423139 0.07115 
0 0.05186791 0.04965559 
-0 -0.04084341 0.01608258 
0 0.02819506 0.06408203 
0 0.0593973 -0.08870135 
-0 -0.03166727 -0.01862955 
0 0.0798677 -0.04319704 
-0 -0.06230557 -0.05899447 
0 0.07622375 -0.08133785 
0 0.03728534 0.06090443 
0 0.03269232 -0.08450331 
0 0.005842748 -0.04508878 
0 0.0597688 -0.02944666 
0 0.08181258 -0.009688515 
0 0.01886121 0.09413908 
0 0.03431893 -0.006608598 
0 0.02637947 -0.07862778 
-0 -0.09102643 0.05838022 
0 0.08696571 0.09978421 
0 0.03833678 -0.0954842 
0 3.786087e-05 -0.05808106 
0 0.04623287 -0.07351679 
-0 -0.03551656 -0.02842459 
-0 -0.0801267 0.06629412 
-0 -0.02867294 0.07561352 
-0 -0.04356346 -0.09028651 
0 0.01888692 0.02967403 
-0 -0.06510972 0.08652122 
0 0.002676385 -0.01780207 
0 0.08697724 -0.06952348 
-0 -0.06687797 -0.07044078 
-0 -0.07075317 -0.001776276 
0 0.02776156 -0.01258439 
-0 -0.07606626 -0.02767996 
0 0.0467162 0.06134021 
0 0.02251866 0.0344214 
0 0.06389521 0.08058216 
0 0.05745243 0.007397026 
0 0.005917984 0.0901789 
0 0.01453442 -0.08799742 
-0 -0.08447205 -0.06566789 
0 0.02761574 -0.001649159 
0 0.01650691 -0.03134055 
0 0.09548277 -0.09035176 
-0 -0.09634717 0.04720595 
-0 -0.04587957 -0.0123693 
-0 -0.06086512 -0.03284472 
0 0.09087034 0.02825622 
0 0.06158452 0.05242491 
-0 -0.06803175 0.01899089 
0 0.08563332 -0.01512595 
-0.0001087252 0.07216698 0.01269491 
0 0.09332886 -0.06172086 
0 0.04318149 0.08857417 
-0 -0.0610097 0.04081972 
0 0.06219969 0.03347261 
-0 -0.02811499 0.09265412 
-0 -0.08259147 -0.06570122 
-0 -0.05744859 0.06562659 
-0 -0.08920565 -0.06579358 
-0 -0.03355102 -0.0611209 
0 0.004484835 0.0943958 
-0.0001711823 -0.04031435 -0.03130948 
0 0.0572547 -0.007462991 
-0 -0.02974074 -0.07222012 
0 0.04888728 0.04081152 
0 0.007896754 -0.08539015 
-0 -0.04714611 0.004008782 
0 0.003024151 -0.03398242 
0 0.04120879 -0.0108937 
-0 -0.04397691 0.05202701 
0 0.06869212 0.04312405 
0 0.0974087 0.04069693 
-0 -0.04994564 -0.09190345 
0 0.020236 -0.05533169 
0 0.0156497 0.02367304 
-0 -0.03057216 0.07679145 
0 0.01570537 0.02221045 
-0 -0.002060111 -0.07566892 
-0 -0.06406056 -0.005759352 
-0 -0.08030269 -0.0850421 
-0.0001241864 0.06600437 -0.03995421 
-0 -0.03899418 0.02594137 
-0 -0.03714135 -0.01260605 
-0 -0.0131355 -0.009825871 
0 0.01315446 -0.05450771 
0 0.07805359 0.07834595 
-0 -0.005212954 0.008830136 
-0 -0.0744478 0.04941761 
-0 -0.09481314 -0.03058635 
0 0.02117798 -0.06680939 
-0 -0.009951238 -0.09434174 
0 0.01130751 -0.09332319 
-0 -0.0286427 -0.07128076 
0 0.05624667 -0.06199432 
0 0.0734243 0.07490814 
0 0.07950523 -0.02683031 
0 0.0959743 -0.01302149 
0 0.02557012 0.04953406 
-0 -0.01805759 -0.0590295 
0 0.05893839 0.06413151 
0 0.0521239 -0.02474253 
-0.0001781687 0.07066642 -0.02964577 
0 0.05520082 0.03108068 
-0 -0.07028187 -0.0301643 
0 0.05872384 0.06154381 
-0 -0.06976016 -0.03489074 
-0 -0.002152204 0.061592 
0 0.02756467 -0.09789421 
-0 -0.08621992 -0.007740837 
-0 -0.02259417 -0.05763146 
-0 -0.06379382 0.05020108 
0 0.02722966 -0.04553215 
-0 -0.09558573 0.0946196 
-0 -0.08567084 -0.04297006 
0 0.01019622 0.09570906 
-0 -0.03761994 -0.07447508 
0 0.001151943 0.05858934 
0 0.09236639 0.05537367 
0 0.09383196 -0.0669727 
0 0.03385407 -0.01693826 
0 0.08781444 -0.02768238 
-0 -0.03617482 -0.05303203 
-0 -0.02175946 -0.01822805 
0 0.05334906 0.07795832 
0 0.05127795 -0.06830806 
0 0.08928251 0.004059121 
0 0.006616401 0.01096254 
0 0.08636794 -0.09026267 
-0 -0.09202586 -0.05379926 
-0 -0.05164378 0.09954706 
0 0.006056174 -0.07097578 
0 0.02962271 -0.02173514 
-0 -0.01352096 -0.08902451 
-0 -0.07888931 0.02945227 
-0 -0.09824412 0.03821982 
-0 -0.08227186 0.08774297 
-0 -0.005116691 0.05694453 
0 0.0418432 -0.05894436 
0 0.03131003 -0.004615005 
0 0.01826001 -0.05466264 
-0 -0.06058371 -0.05682224 
0 0.09866715 -0.006240589 
0 0.0752326 0.05636385 
0 0.09548202 0.06893945 
-0 -0.0654488 -0.04558524 
0 0.01565817 0.03622965 
0 0.06894933 -0.07484332 
0 0.002197396 0.06877871 
0 0.07579437 -0.008485008 
0 0.01973261 0.04256469 
0 0.06284659 -0.09734833 
0 0.06520631 -0.02780984 
-0 -0.03326324 -0.08099664 
0 0.05628439 -0.06431347 
0 0.04036523 0.01806464 
-0 -0.05789121 0.02628468 
0 0.09172547 -0.03753923 
0 0.05398192 -0.008314669 
-0 -0.04056736 0.04443959 
-0 -0.02084306 0.03100227 
-0 -0.0831804 -0.005035685 
0 0.05645448 -0.04738594 
0 0.08230808 -0.03579613 
0 0.08218081 0.008454106 
-0 -0.0951537 -0.08176522 
0 0.04545528 -0.05890295 
-0 -0.07654595 0.09376818 
-0 -0.09828061 0.09235878 
-0 -0.02931086 -0.07778328 
0 0.04145858 0.01642204 
-0 -0.01477763 0.001161772 
-0 -0.05039673 -0.09780639 
-0 -0.08249159 -0.04375019 
0 0.04135213 -0.05417421 
0 0.06805304 0.06067872 
0 0.02086405 -0.08266979 
-0 -0.003924039 0.06977918 
-0 -0.07074489 0.03454629 
0 0.005862157 0.04593688 
0 0.0318973 -0.09948388 
-0 -0.007854261 -0.09334485 
0 0.06253967 0.0007227017 
-0 -0.06985085 -0.005921809 
-0 -0.09620324 -0.01813916 
-0 -0.01339741 -0.06267295 
-0 -0.04377576 -0.08418544 
-0 -0.0643808 -0.049241 
-0 -0.05767152 -0.08078119 
-0 -0.03491963 -0.01128113 
-0 -0.02746935 0.05965862 
0 0.0960837 -0.08832683 
0 0.04897483 0.06628474 
-0 -0.09720689 -0.02001472 
0 0.07447651 0.07317828 
-0 -0.01960289 0.008349643 
-0 -0.02755793 -0.00290023 
-0 -0.02756214 0.02433539 
-0 -0.009292969 -0.0995089 
0 0.09023243 0.003349001 
0 0.04944711 -0.09256028 
-2.907161e-06 0.07087093 -0.02268608 
0 0.001600582 -0.08674927 
0 0.09478288 0.06887788 
0 0.0502846 0.01635647 
0 0.03624595 0.07443637 
-0 -0.0634294 0.01302712 
0 0.07895008 0.056819 
0 0.03910024 0.05241733 
-0 -0.03090095 -0.03746288 
0 0.09832833 -0.08813781 
0 0.06315744 0.004494091 
-0 -0.08518389 -0.04411702 
0 0.062295 -0.07808489 
-0 -0.02680541 0.01072116 
-0 -0.002335551 0.04701981 
0 0.0252623 0.096863 
0 0.06500065 0.05144919 
-0 -0.04074388 -0.009966346 
0 0.02436859 -0.09392472 
0 0.09902705 -0.02605214 
0 0.07829474 -0.03573019 
0 0.07937184 0.03451813 
0 0.07063693 -0.06230697 
-0 -0.09383214 0.02588725 
-0 -0.02052312 0.01321191 
-0 -0.008408373 0.01807489 
-0 -0.0706153 0.05640263 
0 0.0829582 -0.03466113 
-0 -0.05055886 0.08945717 
0 0.08321998 0.01509755 
-0 -0.02063018 -0.01347414 
-0 -0.06314859 0.002842465 
-0 -0.06708833 -0.09641892 
0 0.04453274 -0.03448689 
-0 -0.03713059 0.0900586 
-0 -0.03741003 0.08093841 
0 0.04834757 0.0003817804 
-0 -0.01846367 0.08551219 
0 0.06588905 -0.01229013 
0 0.01457294 -0.0620415 
0 0.003411901 -0.03356701 
0 0.03696695 0.03734066 
0 0.06074473 0.02597849 
-0 -0.07571707 -0.07541402 
0 0.03596154 -0.02032937 
-0 -0.03771028 0.05226981 
-0 -0.0244458 -0.05719623 
-0 -0.02275557 0.04798364 
0 0.05157916 -0.09689714 
-0 -0.04091399 -0.03939886 
0 0.003011028 0.07815716 
-0 -0.0507893 -0.06218892 
0 0.01973969 -0.0235415 
0 0.03019039 -0.02131782 
0 0.08516784 0.05922684 
0 0.08811968 0.04115525 
0 0.008130298 -0.0686864 
-0 -0.07667218 -0.04695638 
-0 -0.03593598 -0.0555479 
0 0.03974345 -0.02412243 
0 0.05011429 -0.03374873 
0 0.00561984 -0.04331577 
0 0.06435724 0.07535289 
-0 -0.04371888 0.02748405 
0 0.08011497 -0.08741312 
-0.0002567504 0.002576629 -0.006242495 
-0.0004654796 -0.0319113 -0.02994615 
0 0.009313683 0.004697683 
0 0.04981588 -0.08656956 
0 0.05014334 0.0800602 
-0 -0.09770361 0.01004796 
0 0.06371256 -0.07147225 
0 0.05452495 0.03545054 
-0 -0.09157383 0.02659462 
0 0.08016645 -0.09850036 
-0 -0.03904528 0.05376712 
-0 -0.05670329 0.08940597 
0 0.09462771 0.0223905 
0 0.08429839 0.01707392 
0 0.07215345 -0.05773303 
-0 -0.06855328 0.02111196 
0 0.007964727 0.06703895 
0 -0.0001975857 -0.05841468 
-0 -0.0616723 -0.0570032 
-0 -0.09321008 0.05685905 
-0 -0.04178628 -0.02129806 
-0 -0.03450146 -0.09543354 
-0 -0.0649412 0.04780362 
0 0.03568805 0.03180254 
0 0.04799072 -0.02044909 
0 0.08675576 0.07884631 
0 0.05720759 -0.01795805 
0 0.05852663 0.03720593 
-0 -0.08600523 -0.05454563 
0 0.05134191 0.06554713 
0 0.003907538 0.01692452 
0 0.0575086 0.06500783 
0 0.04301645 0.06426386 
-0 -0.04042757 0.06964079 
-0 -0.05103533 0.0139739 
-0 -0.04274675 0.02395494 
0 0.07992787 0.038617 
0 0.02130326 0.03518198 
0 0.09446252 -0.093213 
0 0.06443028 -0.02799695 
0 0.08663192 0.0376329 
-0 -0.006560987 0.002549657 
-0 -0.05564249 0.0376858 
0 0.06028421 0.02694103 
0 0.05282855 -0.06792183 
0 0.06757462 0.05515727 
0 0.03550497 0.07343441 
0 0.01392303 -0.03010063 
-0 -0.08364809 -0.05967135 
0 0.05213314 -0.04136448 
0 0.007781019 0.02790265 
0 0.09146054 0.008065483 
-0 -0.07702692 0.02960653 
-0 -0.04479036 -0.0636082 
0 0.04140905 -0.0903751 
0 0.09320001 -0.04636483 
0 0.007921987 0.06554084 
0 0.003619091 -0.06352838 
0 0.09127426 -0.0396075 
0 0.07624765 -0.06125555 
0 0.0382451 0.05451833 
-0 -0.07214448 -0.07289724 
0 0.005687448 0.01309141 
-0 -0.01122464 -0.01091576 
0 0.07348626 -0.09125823 
-0 -0.0416665 0.09592436 
0 0.06700587 -0.04780771 
0 0.05868119 -0.01482721 
0 0.05365873 0.007799814 
-0 -0.05309619 -0.06834862 
-0 -0.02994957 -0.05867119 
0 0.09449582 -0.03812257 
0 0.01951748 0.06365296 
0 0.07130403 0.04336973 
0 0.01962441 -0.03258937 
0 0.0977113 -0.001862235 
-0 -0.04244251 -0.004469817 
0 0.04354352 -0.008963084 
0 0.09873472 -0.08221772 
0 0.07748041 0.005343698 
-0 -0.08931617 0.09091765 
0 0.09944365 -0.05921265 
0 0.07499683 0.09412302 
0 0.0797807 0.08374985 
0 0.006426658 0.04732392 
-0 -0.07824832 -0.08819051 
-0 -0.06954083 0.008080032 
0 0.01155643 0.06443135 
-3.173681e-05 0.05703023 -0.05040348 
0 0.03263599 0.01183484 
0 0.02625573 -0.06431843 
0 0.09349301 -0.07532714 
0 0.01293094 -0.0453649 
0 0.03911411 -0.09847085 
0 0.08229487 0.08440147 
0 0.07635991 0.05325071 
0 0.05420385 0.01901566 
-0 -0.07987581 0.02247856 
-0 -0.06588447 0.03763837 
0 0.02959668 -0.003935812 
0 0.01935736 0.09267353 
-0 -0.04627728 0.04677247 
0 0.07315677 0.04192133 
0 0.05074966 -0.08311787 
0 0.07362057 0.09695445 
-0 -0.07911211 0.02083444 
-0 -0.02796023 0.02520522 
-0 -0.09177902 -0.0689401 
0 0.08351321 0.08216822 
0 0.02531009 -0.04805901 
0 0.003801828 -0.04296018 
0 0.0188946 -0.0001151607 
-0 -0.03772612 -0.02727668 
-0 -0.09420845 0.01982936 
0 0.05374631 0.03475166 
-0 -0.07824536 -0.09695056 
-0 -0.08464064 -0.08572844 
0 0.009928264 -0.06001071 
0 0.009503316 -0.07849288 
0 0.07349924 0.08944459 
-0 -0.07679127 -0.08514675 
-0 -0.009404087 0.07235911 
-0 -0.00453429 -0.02796213 
-0 -0.009504998 -0.08349782 
0 0.02804468 -0.08890433 
0 0.04736171 0.01074116 
0 0.01524705 -0.03877052 
-0 -0.01487924 0.01253699 
0 0.08960735 -0.03487863 
-0 -0.02675701 0.0110062 
0 0.03354855 -0.09519803 
0 0.06616296 0.00965035 
-0 -0.09299228 -0.009364288 
0 0.02897562 -0.03384911 
0 0.08508094 -0.05371962 
0 0.07550336 -0.000961563 
-0 -0.03523601 0.02234821 
-0 -0.06480417 -0.03099501 
-0 -0.07545916 0.09074244 
0 0.01532293 -0.04930487 
-0 -0.0055755 0.0822433 
0 0.07258785 -0.06424521 
-0 -0.02543708 -0.09510688 
0 0.00352714 0.08532063 
0 0.03507377 0.01446971 
0 0.008428152 -0.01940101 
0 0.05997501 0.06582949 
-0 -0.01250177 -0.03448391 
0 0.06446959 -0.01607265 
0 0.02501501 -0.06251669 
-0 -0.02277339 -0.01546483 
-0 -0.03202727 -0.0583107 
0 0.07916802 0.03632074 
0 0.09045317 -0.04405411 
-0 -0.09761008 0.08594251 
0 0.05595332 -0.09190909 
-0 -0.03620323 0.08066695 
-0 -0.04187 -0.07325234 
0 0.07059814 -0.04990132 
0 0.05702549 -0.09154275 
0 0.07668906 0.04344977 
-0 -0.0382832 0.0452226 
0 0.02471949 -0.01453227 
0 0.01366252 -0.0607367 
0 0.01482599 0.08158667 
0 0.03881603 -0.04196855 
-0 -0.09062938 -0.09767604 
-0 -0.01101968 6.798841e-05 
-0 -0.007483497 -0.001025649 
0 0.03328915 0.07246775 
0 0.0190474 -0.008856722 
0 0.04893034 -0.06144485 
0 0.02025188 -0.0920046 
-0 -0.07519926 -0.01262647 
-0 -0.07738225 -0.05201724 
-0 -0.0736807 0.07005169 
0 0.06324364 0.07101939 
0 0.06280474 0.07215708 
0 0.02489888 0.07972457 
-0 -0.001803076 -0.05260474 
0 0.04704663 -0.08980492 
0 0.005099751 0.08090552 
-0 -0.09930764 0.04123875 
-0 -0.09591135 0.04007662 
-0 -0.02865957 0.01309879 
-0 -0.02688435 -0.05582357 
-0 -0.01065159 0.08547811 
0 0.08279607 -0.02052375 
0 0.0914214 0.08375909 
0 0.07937282 0.005939804 
0 0.05138499 0.01299927 
0 0.01642987 -0.007528457 
0 0.01966486 -0.08336321 
0 0.004889812 0.06627346 
0 0.01321326 0.06607774 
-0 -0.03273653 0.03297651 
-0 -0.06782979 0.03955053 
0 0.0153567 -0.04194516 
-0 -0.03889322 -0.02710683 
-0 -0.09054136 -0.001391532 
0 0.03726467 0.08111333 
0 0.02031819 -0.09034704 
-0 -0.07168544 0.08830713 
0 0.02286961 -0.09976336 
0 0.03141675 0.04910158 
-0 -0.07562746 0.07132523 
0 0.01125856 -0.01268638 
-0 -0.05410914 -0.04865156 
-0 -0.05028745 0.06897403 
-0.0002228307 0.07227429 0.008313435 
-0 -0.03901354 -0.04442635 
0 0.02952234 -0.03282144 
-0 -0.02725607 0.07438025 
0 0.03206644 -0.004718103 
-0 -0.05416232 -0.06309254 
-0 -0.09655553 -0.09846482 
-0 -0.0667159 -0.03311057 
-0 -0.07793719 0.02410734 
0 0.06763726 -0.005403539 
-0 -0.04298266 0.01731802 
-0 -0.006055632 -0.003697634 
-0 -0.01584808 0.02330104 
-0 -0.04086232 0.06756108 
0 0.07867587 0.02467219 
-0 -0.05959048 0.04210294 
0 0.08709076 0.03911975 
0 0.03397822 -0.02437111 
0 0.09161687 -0.02422186 
-0 -0.09950483 0.07590789 
0 0.08581828 0.02258724 
-0 -0.02217919 0.09989293 
0 0.01707618 -0.03481143 
-0 -0.02106157 -0.06390461 
0 0.0596247 -0.01583863 
-0 -0.02298439 -0.077739 
0 0.0599042 -0.06438573 
0 0.08576556 -0.02433491 
-0 -0.07906513 -0.007952215 
-0 -0.07195593 0.005361268 
0 0.08368021 0.08118449 
0 0.04331742 -0.06416225 
0 0.0296563 0.007094748 
-0 -0.03147441 -0.09981089 
0 0.0952336 -0.02714838 
-0 -0.02299215 0.06431036 
-4.793275e-05 -0.04191463 -0.03477859 
-0 -0.06491638 -0.02645986 
-0 -0.03965484 0.05110119 
0 0.09964512 -0.08667579 
-0 -0.01920204 -0.09860446 
0 0.07351794 -0.03401893 
-0 -0.08074006 0.05167078 
0 0.0816182 0.0264236 
-0 -0.07168503 0.06296927 
-0.0001810338 0.07283852 -0.01715856 
0 0.01050004 -0.06647234 
-0 -0.009325615 -0.04307228 
0 0.08208898 -0.04627554 
-0 -0.0406309 -0.005317117 
0 0.05917869 0.02567775 
-0.0003805477 0.003405595 -0.004787184 
-4.974492e-05 0.0003649264 -0.005752818 
-0 -0.07556681 0.06468333 
0 0.01434712 0.02949269 
0 0.01527582 -0.01629273 
0 0.003015981 -0.09601858 
0 0.08710903 0.06535004 
0 0.03848527 0.07146239 
0 0.08224685 0.09619486 
-0 -0.04271211 0.07188386 
-0 -0.06686636 -0.05627921 
-0 -0.08481479 -0.002001991 
0 0.0749837 -0.06648893 
0 0.04767014 -0.01777301 
0 0.01721905 0.02652381 
0 0.06360222 -0.03823885 
0 0.05816354 0.06583937 
0 0.06384926 0.04581767 
-0 -0.05244308 0.08851611 
0 0.07918248 -0.024808 
-0 -0.0553573 0.08208992 
0 0.02056458 0.06681134 
-0 -0.01258459 0.02346387 
-0 -0.02407361 -0.0919114 
0 0.05300193 0.06923541 
-0 -0.03652522 0.06874303 
0 0.03193699 -0.04102634 
0 0.0646753 -0.006961371 
-0 -0.03542862 0.007879319 
0 0.07492386 0.04530818 
-0.0001024426 -0.005622216 -0.01020317 
0 0.0448871 0.06357454 
-0 -0.04776292 0.03032306 
0 0.09565668 0.083368 
0 0.03459113 -0.03756744 
-0 -0.0714876 0.09549467 
-7.568893e-05 0.07091884 -0.009243813 
0 0.08009753 -0.05296411 
-0 -0.08156285 -0.02284377 
-0 -0.01999064 0.03721214 
0 0.0190964 -0.05285535 
0 0.07253776 0.07072241 
0 0.006016297 -0.0486321 
-0 -0.09498045 -0.08168934 
-0 -0.05506388 -0.03783649 
-0 -0.05978555 0.07423367 
-0 -0.07031576 -0.0912212 
0 0.07005595 0.05136904 
-0 -0.05101074 -0.02150222 
-0 -0.01792782 0.05516445 
0 0.0701148 -0.08931302 
-0 -0.04861697 -0.07835824 
-0 -0.05947182 0.01405623 
-0 -0.05054872 0.07934418 
-0 -0.04785098 -0.08804397 
-0 -0.01923235 -0.09411933 
-0 -0.05813138 -0.05695659 
0 0.01569431 0.01361069 
-0 -0.01441205 0.0774239 
-0 -0.05732082 -0.03370702 
0 0.09914182 -0.08871566 
0 0.0466672 0.01710369 
0 0.01713428 -0.07730521 
0 0.03570515 -0.03438243 
0 0.05869637 -0.04518725 
-0 -0.06200043 -0.0251541 
-0 -0.01574485 -0.07605553 
-0 -0.06956727 0.008922193 
0 0.09055146 0.08532725 
0 0.05089746 0.09727618 
0 0.06064854 -0.09193894 
0 0.01671845 0.04619 
-0 -0.05482426 -0.06526288 
-0.0004113556 0.006798503 -0.00347132 
0 0.04669923 -0.009146651 
0 0.05238102 -0.03641021 
0 0.00706722 0.02927709 
-0 -0.06520324 0.04224778 
-0 -0.0875185 -0.08273876 
-3.949074e-06 0.05639219 -0.05148123 
0 0.01767448 0.01871541 
0 0.02115327 -0.03436743 
0 0.08877082 -0.02789544 
0 0.004828867 -0.02218035 
-0 -0.01426556 -0.008956116 
-0 -0.02539187 0.08105398 
0 0.02457451 0.03821447 
0 0.06774881 0.09227938 
-0 -0.08403723 0.004043287 
0 0.06428231 -0.06831432 
0 0.03744023 0.06713711 
-0 -0.08427267 0.08166176 
0 0.04063914 -0.09842066 
-0 -0.01655364 -0.05089195 
-0 -0.05552742 -0.06339328 
0 0.08476546 -0.00831997 
-0.0002977874 0.01814259 0.004474499 
0 0.07079297 0.02988312 
-0 -0.03895862 -0.09467741 
0 0.0008412155 0.05615203 
-0 -0.003730941 0.09996836 
0 0.03818419 0.08687575 
-0 -0.07316877 0.05000868 
-0 -0.005205525 -0.04074895 
-0 -0.09580149 -0.0009169308 
-0 -0.04627969 0.006300786 
-0 -0.00954636 0.04473534 
0 0.07440208 8.38236e-05 
-0 -0.09689403 0.08219006 
0 0.04913125 -0.08063528 
0 0.02649513 -0.08863231 
-0 -0.007159382 0.01385725 
0 0.01191936 0.08615248 
-0 -0.05509056 -0.02062261 
-0 -0.04985134 -0.01236076 
0 0.07654437 0.0206367 
-0 -0.09972596 -0.02519006 
0 0.04256253 0.01658004 
0 0.07986893 -0.04104582 
-0 -0.07230372 -0.05169508 
0 -0.0009515143 -0.08642842 
0 0.02853056 0.04872011 
0 0.09105381 -0.01312362 
-0 -0.09907416 -0.01515909 
0 0.02835503 0.07146146 
0 0.004711118 0.0558912 
0 0.07305431 0.0781265 
0 0.01567157 0.09798138 
-0 -0.008427537 -0.01237625 
-0 -0.01664116 0.04655515 
0 0.09087353 0.0202827 
0 0.09076362 0.04078298 
0 0.006120614 0.03773315 
0 0.07646762 -0.02403344 
0 0.09209665 0.02990938 
0 0.06331728 -0.0779398 
-0 -0.07005914 -0.0612637 
-0 -0.08240456 0.04327207 
0 0.05364997 0.0662386 
0 0.01554119 0.03333099 
-0.0001238366 -0.01752891 -0.01937987 
-0 -0.01337928 -0.06209927 
-0 -0.07835957 0.03104262 
-0 -0.05426555 0.03019036 
-0 -0.01752245 0.05348216 
-0 -0.0860082 0.017018 
0 0.03882236 -0.05430894 
0 0.06721358 -0.06007071 
0 0.06841572 0.05169136 
0 0.007517356 0.03139188 
0 0.09875777 0.03079425 
0 0.06061887 -0.05106135 
0 0.009327551 -0.04178346 
0 0.05971339 0.0004055301 
-0 -0.05744573 0.08258753 
0 0.02922916 0.02623843 
0 0.09015275 -0.06020623 
0 0.04993246 -0.03352867 
0 0.09742805 -0.05063678 
-0 -0.05036174 -0.07786014 
-0 -0.05930066 0.04234046 
0 0.06299517 -0.05624119 
-0 -0.05680966 -0.05708767 
-0 -0.09743053 0.05920514 
0 0.04277213 0.03440134 
0 0.004637138 -0.01096587 
-0 -0.002617968 -0.02230867 
0 0.04070981 -0.0982381 
-7.828136e-05 0.02878197 0.01344321 
0 0.05069607 -0.04426801 
0 0.09473822 -0.06264541 
0 0.02857892 -0.08347885 
0 0.05402639 0.07388262 
0 0.0571581 -0.06380772 
0 -0.0004378989 0.09516324 
0 0.01583658 -0.02193841 
-0 -0.01142057 0.07948612 
-0 -0.09695767 -0.01186347 
0 0.08514927 0.09251879 
-0 -0.03337773 0.02857723 
0 0.04619644 0.004724403 
-0 -0.02200822 0.04119265 
-0 -0.09959673 0.07592553 
0 0.03146774 0.087791 
0 0.07531094 -0.06812152 
-0 -0.0679491 0.07226237 
-0 -0.03512999 0.005694137 
-0 -0.04684456 -0.01397972 
-0 -0.02266267 -0.08172026 
0 0.04188123 0.07093215 
0 0.09017943 0.07847591 
0 0.05564497 -0.08536191 
0 0.03079596 0.0410764 
-0 -0.08967952 -0.08518699 
-0 -0.008421254 -0.03617039 
0 0.05366958 0.0494562 
-0 -0.07430367 0.05971753 
-0 -0.01776036 0.002794337 
-0 -0.04003045 0.08826028 
-0 -0.02303638 -0.09030464 
-0 -0.0614408 0.0301276 
-0 -0.03585235 0.09686908 
-0 -0.004069778 0.05575995 
-7.959916e-06 0.07003863 -0.03780603 
-0 -0.08126321 -0.0946563 
0 0.06496151 -0.04651758 
-0 -0.005893584 -0.05920988 
0 0.0846855 -0.02370803 
-0 -0.06349952 0.09107764 
0 0.09270895 0.06074349 
0 0.07395124 -0.04692073 
0 0.02828771 0.08094955 
0 0.06561065 -0.07602025 
0 0.08380198 -0.09834661 
0 0.05311655 0.0686483 
-0 -0.006902529 -0.08322465 
0 0.02041281 0.03811662 
0 0.03174996 -0.07997947 
-0 -0.06749107 -0.07166815 
-0 -0.01297014 0.02815814 
0 0.08814821 -0.03774839 
0 0.02197731 -0.08445042 
-0 -0.09577729 -0.002040306 
0 0.008419516 0.01470046 
0 0.08185527 0.09179277 
0 0.06483252 0.09644336 
0 0.05005826 -0.01421047 
0 0.0749237 -0.05421542 
0 0.02899742 0.02597928 
0 0.07826947 0.05209509 
0 0.08827142 -0.01889029 
-0 -0.005788027 -0.02922396 
-0 -0.0468292 -0.0239956 
-0 -0.01749825 -0.06138056 
-0 -0.04232563 -0.09493656 
-0 -0.07589465 -0.004351062 
0 0.05722216 -0.0030383 
-0 -0.04832773 -0.08964404 
-0 -0.00788884 -0.0416669 
-0 -0.009785319 0.03432871 
0 0.0143359 -0.06023989 
-0 -0.02109319 0.08113457 
-0 -0.09363551 -0.05424093 
0 0.05483687 -0.02461465 
-0 -0.097468 0.04715247 
-0 -0.02531322 0.03634087 
0 0.02860944 -0.05768804 
-0 -0.05264947 -0.008114356 
-0 -0.03758322 0.06569504 
0 0.0799384 0.02686227 
-0 -0.05131299 0.06713842 
0 0.04207856 -0.04206558 
-0 -0.03023454 0.09233888 
-0 -0.08934512 0.02815198 
-0 -0.05642741 -0.05326581 
0 0.06519099 -0.009051707 
-0 -0.01163343 0.04506683 
-0 -0.05546852 -0.07729696 
0 0.08473147 -0.04386758 
-0 -0.08907649 0.09128974 
-0 -0.01867669 -0.008487253 
-0 -0.01973017 0.05668029 
0 0.06127317 0.04252736 
0 0.07912465 0.03535356 
-0 -0.03211498 0.07457723 
0 0.01323769 -0.09344488 
-0 -0.01020082 0.04814496 
-0 -0.09399101 -0.04816519 
0 0.04723747 0.00154082 
0 0.04720731 0.002566237 
-0 -0.02805613 -0.08318277 
0 0.03944487 -0.03891442 
0 0.08496121 -0.06230839 
0 0.07542916 0.003638544 
0 0.0264862 -0.05659138 
-0 -0.008772796 0.03309105 
0 0.01894691 0.0942896 
0 0.04078811 0.06516033 
0 0.09194089 0.05168581 
0 0.03022035 0.006002008 
0 0.008346912 -0.09248477 
-1.571575e-06 -0.0007769965 -0.005704235 
-0 -0.06930272 0.04406453 
0 0.08736666 -0.008140222 
-0 -0.09823243 0.04259352 
-0 -0.05411503 0.002686095 
-0 -0.09572156 0.05194369 
0 0.09341379 0.08854504 
0 0.01136552 0.02630408 
0 0.01649369 0.01168884 
-0 -0.05280722 -0.09342109 
-0 -0.00224393 0.00762129 
-0 -0.09654746 0.02232578 
-0 -0.04123238 0.05661343 
-0 -0.03127002 -0.07319862 
-0 -0.02436434 0.04449676 
0 0.08340916 -0.07338099 
-0 -0.07841531 -0.07030653 
0 0.02365637 -0.07757846 
0 0.09906729 0.09339506 
-0 -0.02665995 -0.03407466 
0 0.007237265 0.00693572 
-0 -0.0237402 0.02666047 
0 0.0755138 -0.08276279 
-0 -0.006906314 -0.03773604 
0 0.08549143 -0.07710076 
0 0.02560673 -0.09407119 
-0 -0.03403246 -0.01033803 
-0 -0.06234896 0.09830861 
-0 -0.02501408 -0.07212392 
0 0.08703697 0.07761765 
-0 -0.006905568 -0.0356112 
0 0.04912676 -0.03891508 
0 0.08846216 0.09409467 
-0 -0.08715586 -0.07317924 
0 0.09945966 -0.05157243 
-0 -0.09915644 -0.0118919 
-0 -0.05964454 0.04691763 
-0 -0.06204485 -0.01427602 
0 0.0462988 -0.07926689 
-0 -0.01055258 -0.04602946 
0 0.001377115 -0.060896 
0 0.0896767 0.01662435 
0 0.01667483 0.08783633 
0 0.04911902 -0.04009338 
0 0.0355933 0.03542844 
0 0.007365919 0.02025285 
-0 -0.02037156 -0.01567878 
-0 -0.06294433 0.07874918 
-0 -0.0759352 -0.09805237 
0 0.02871498 0.08144531 
-0 -0.01744071 0.0277458 
0 0.09590968 0.07642429 
0 0.03424838 -0.09996452 
-0 -0.05728883 -0.03376279 
0 0.09068358 -0.07817019 
0 0.06639821 -0.002627151 
-0 -0.002636884 -0.02844119 
0 0.08706582 -0.04608886 
0 0.0665102 -0.08361571 
-0 -0.0274634 -0.05445077 
-0 -0.05826879 0.09939536 
-0 -0.01070172 0.02539012 
0 0.0351958 -0.02495965 
0 0.08290673 0.06415538 
-0 -0.05365834 0.06006126 
-0 -0.05744625 -0.009957424 
0 0.06851491 0.02947212 
0 0.02412327 -0.09631492 
-0 -0.03047415 0.001234735 
0 0.05264129 -0.06260663 
-0 -0.05123254 0.004585996 
-0 -0.03646675 -0.01034126 
0 0.006544803 -0.06475096 
-0 -0.05180787 -0.08598892 
-0 -0.07268132 -0.01200397 
-0 -0.02207825 0.06212159 
-0 -0.006787497 0.05739637 
0 0.05474384 0.0906685 
0 0.08058053 -0.03300288 
-0 -0.00446886 0.08827752 
0 0.01133575 0.03919415 
-0 -0.04733447 0.07104807 
0 0.03641537 0.08323488 
-0 -0.06511281 -0.0260245 
0 0.01444202 -0.08960643 
-0 -0.06966478 0.08114844 
0 0.0818796 0.07646526 
0 0.03663193 0.01525586 
0 0.08439957 -0.01496466 
0 0.0734261 0.01893636 
0 0.02279651 0.08599154 
0 0.04424049 -0.08513735 
-0 -0.02367483 0.03624576 
-0 -0.04459627 0.02038866 
0 0.01929072 -0.05626762 
0 0.07776005 -0.06298768 
-0 -0.09207416 -0.009949662 
0 0.04875033 -0.05074822 
-0 -0.02530293 0.05086559 
0 0.06483956 -0.0575325 
0 0.07701434 -0.05982704 
0 0.03144173 -0.05923912 
-0 -0.05120281 -0.02297916 
-0 -0.06069854 0.0249104 
-0 -0.09193018 -0.08536667 
0 0.01409915 -0.09821109 
0 0.04937249 -0.07137448 
0 0.06000341 -0.06154874 
-0 -0.05001073 0.005677247 
0 0.00137393 -0.03715438 
-0 -0.007422239 -0.0958598 
-0 -0.08470014 0.0966154 
-0 -0.06365825 -0.078573 
-0 -0.05676815 -0.01250018 
-0 -0.03771687 -0.07965694 
0 0.05745723 0.04197708 
0 0.05830295 0.0263279 
-9.702046e-05 0.03218032 0.01697667 
-0 -0.09066473 -0.03086505 
-0 -0.05974844 0.03664512 
0 0.08866718 -0.004221165 
0 0.08408778 -0.003221637 
0 0.002247071 -0.09878249 
-0 -0.009336271 -0.07728909 
-0 -0.08755954 0.07709325 
-0 -0.03238684 -0.08766355 
-0 -0.02679499 0.05568796 
-0 -0.08792885 0.0229573 
0 0.002656435 0.05020022 
0 0.07207014 -0.04035233 
-0 -0.022482 0.01574224 
0 0.08032598 -0.09616932 
0 0.04871357 -0.05112882 
0 0.04526223 -0.006596714 
-0 -0.02671898 0.03997626 
0 0.08022562 0.007219934 
0 0.04334666 -0.05286424 
0 0.02494739 0.04149188 
0 0.04554686 0.08091614 
-0 -0.03465421 0.05658099 
-0 -0.07683184 -0.0431314 
0 0.09572361 -0.02804556 
-0 -0.09648523 -0.04489282 
-0 -0.06200035 -0.07416028 
0 0.0785113 -0.07502176 
0 0.07363653 0.05272404 
-0 -0.001764647 -0.01669778 
-0 -0.04923195 -0.07913761 
-0 -0.04428143 -0.01602672 
-0 -0.06076965 0.01528107 
-0 -0.006115432 0.004514412 
0 0.04588851 -0.06234027 
0 0.08713662 0.03738556 
0 0.06587468 0.0276909 
-0 -0.06059049 0.08304749 
0 0.0437573 -0.03748465 
0 0.07526359 -0.02794098 
-0 -0.06846772 0.07172318 
0 0.003024763 -0.09609181 
0 0.008865166 0.02894004 
-0 -0.01194077 -0.06649183 
-0 -0.09703358 -0.07808918 
0 0.03616897 -0.02350733 
0 0.09421397 0.07958321 
-0 -0.01029806 0.005638014 
-0 -0.07081525 0.08789764 
-0 -0.09552763 0.07089971 
-0 -0.06672481 0.01497335 
0 0.08716099 0.02180846 
-1.519593e-05 0.07180001 0.02269792 
-0 -0.04885706 0.002492769 
0 0.007165846 0.03487478 
-0.0003219184 -0.02885609 -0.02624341 
0 0.08635689 0.06903441 
0 0.0181441 0.07511 
-0 -0.005298088 -0.01862673 
-0 -0.05005581 0.02537923 
0 0.02397074 -0.07414535 
0 0.02802176 -0.04627343 
-0 -0.08703559 0.02837393 
0 0.0299538 0.0005933477 
-0 -0.07684799 -0.02278289 
-0 -0.01938271 -0.09382977 
-0 -0.04712785 -0.07064641 
-0 -0.0542983 0.03132524 
0 0.09357143 0.04547086 
-0 -0.04549786 -0.0425619 
-7.712317e-07 -0.01212907 -0.0200088 
-0 -0.01461711 0.009748278 
-0 -0.0768139 -0.01689246 
-0 -0.05429298 0.04467943 
0 0.09829682 -0.0636269 
-0 -0.02200645 0.0008063002 
0 0.08909105 0.01298174 
-0 -0.004851625 0.0828106 
-0 -0.03661367 -0.0627081 
-0 -0.06535306 0.04482806 
0 0.08620361 -0.02332728 
-0 -0.03479356 0.06979952 
0 0.02404784 -0.03928539 
-0 -0.06799714 -0.05008051 
-0 -0.05886674 -0.03798906 
-0 -0.05076584 0.02756743 
0 0.08400969 -0.09041467 
0 0.07935393 -0.03164836 
0 0.08526193 0.06365714 
-0 -0.03972512 0.05654552 
0 0.06032828 0.06675677 
-0 -0.07486073 -0.009615725 
-0 -0.06679815 -0.06758198 
0 0.07677393 -0.03857195 
0 0.09163399 0.07746427 
-0 -0.04392571 -0.02560847 
0 0.08314499 -0.03563775 
0 0.04461651 -0.03220934 
-0 -0.08441637 -0.002800016 
0 0.09591106 0.0160262 
-0 -0.05583297 -0.02682966 
0 0.09354915 0.03881998 
-0 -0.09764375 0.04048946 
-0 -0.0646041 0.09942929 
-0 -0.06461803 0.07029689 
-0 -0.07643222 -0.08804173 
-0 -0.04534997 -0.06692424 
0 0.02031287 0.02372946 
0 0.05985761 -0.06292926 
0 0.03712858 -0.05038812 
-0 -0.01561496 0.01185764 
-0 -0.08001253 0.007818511 
-0 -0.02229296 -0.07828102 
0 0.01211414 -0.0715102 
-0 -0.0491106 -0.01091285 
0 0.05940343 -0.02137994 
-0 -0.01243756 -0.09617852 
-0 -0.03077745 0.05852351 
-0 -0.006353944 0.02431092 
0 0.09892764 -0.04530504 
0 0.03838914 0.08600547 
0 0.08295114 -0.07839854 
0 0.01598563 -0.05163437 
0 0.06181219 0.01918178 
0 0.04134943 0.06462211 
-0 -0.09173989 0.002534853 
-0 -0.07734087 0.04301004 
0 0.002778136 -0.07637492 
0 0.06239504 0.09143168 
0 0.0005201452 -0.08350065 
-0 -0.02113629 0.08979262 
0 0.02381997 0.05832521 
0 0.01054093 -0.02460902 
-0 -0.07055819 0.02941944 
