ply
format ascii 1.0
comment VCGLIB generated
element vertex 2070
property float x
property float y
property float z
element face 0
property list uchar int vertex_indices
end_header
-1.897024 -0 2.670241 
-3.444131 -0.001732826 -3.423739 
1.936769 -0 2.455961 
-1.432137 0 -3.468691 
-3.086008 -0 0.3729559 
-2.638557 0 -4.778897 
0.402576 0 -0.02176836 
-2.421714 -0 3.482834 
-1.826636 0 -0.7188447 
4.633238 -0 2.806336 
0.02329684 -0 4.306412 
-0.2788244 0 -3.83715 
-2.394319 -0 2.441146 
2.013777 0 -0.3395028 
-3.48416 -0 3.061552 
-1.213578 -0 4.672256 
1.121327 -0 3.907618 
3.10834 -0 0.1365439 
0.709798 -0 0.8861616 
3.288409 0 -2.419567 
2.426716 0 -2.139028 
-4.818303 0 -2.200826 
2.287315 0 -4.342038 
-4.661449 -0 0.3595459 
-2.065024 -0 0.3535062 
0.3310996 0 -3.436097 
2.215884 -0 2.338109 
-4.315218 -0 2.228606 
-0.3737385 0 -2.308815 
-2.350429 -0 2.620247 
4.153494 -0 4.793424 
4.25545 -0 1.185499 
0.5064086 -0 1.541626 
-3.386173 -0.001433866 -3.462867 
0.9967579 -0 1.359826 
-3.438117 -0 1.621955 
1.988351 -0 2.867296 
-2.509143 0 -3.68112 
-0.7757554 -0 4.940985 
3.348745 -1.564405e-06 2.879199 
3.314691 0 -2.215575 
-4.579092 -0 4.565732 
4.373468 0 -1.271761 
-3.219847 -0.003985157 0.5221162 
3.098385 0 -1.91506 
-4.142845 -0 3.886876 
2.212345 0 -4.716737 
-2.545956 0 -3.034978 
-2.592806 -0 3.399998 
-4.19175 0 -1.354186 
-0.4459201 -0 3.058888 
1.934494 -0 3.376746 
3.17587 0 -4.940439 
1.681957 -0.002064252 0.8541038 
1.228976 -0 4.704686 
-1.679731 0 -2.761587 
1.454727 0 -1.971392 
2.932588 0 -4.993442 
-4.635256 -0 1.153518 
4.159514 -0 0.5782315 
3.695355 -0 0.4686875 
-1.719313 -0 4.248926 
-4.457705 0 -1.072034 
1.005268 -0 1.917286 
-0.05160744 0 -0.117476 
-2.676273 0 -3.430312 
4.078819 0 -2.183134 
0.04585116 -0 0.1272823 
-3.225072 0 -3.803472 
1.357131 -0 3.753673 
0.478189 0 -4.801129 
-2.518735 -0 0.7321821 
-4.617822 -0 4.092707 
4.081516 0 -3.431825 
-1.733843 -0 3.010899 
-1.713893 0 -4.573507 
-1.117476 0 -2.282988 
-0.1542034 -0 4.355505 
-1.984291 0 -4.980921 
4.041296 -0 2.287293 
-2.33766 -0 3.865303 
2.113251 -0 2.577525 
2.95462 0 -2.701039 
-3.908436 0 -2.393621 
2.864412 0 -4.178579 
-2.007537 -0 1.034971 
1.915995 -0 2.881575 
4.789239 0 -2.275679 
-4.424026 0 -1.633802 
2.689211 0 -0.4218163 
-2.774123 -0 1.426511 
0.224692 0 -3.270139 
4.05516 -0 4.438172 
-2.774305 -0 1.541626 
4.078609 0 -2.315617 
-3.827544 -0 4.476258 
1.083526 0 -4.842157 
-2.788702 -0 2.632025 
-2.414073 -0 2.174087 
-2.300571 0 -3.422134 
4.373608 -0 4.056408 
-4.634288 0 -2.520499 
-0.7330913 0 -2.861646 
-0.319306 -0 1.45471 
-3.624343 -0 3.531342 
3.465945 0 -3.774809 
-4.211503 0 -3.126055 
0.03480436 0 -0.3392932 
-3.455577 -0 1.447432 
-2.294545 0 -1.132761 
-1.475254 0 -0.4545002 
-1.929877 -0 0.4570795 
-1.304559 -0 4.946964 
-3.839498 -0 3.883783 
-4.049537 -0 3.495627 
0.09816226 -0 3.202881 
-0.4723759 -0 3.76568 
-1.838158 0 -3.95128 
1.245287 -0 2.948122 
4.231719 -0 3.411036 
3.008043 0 -2.6043 
1.825536 0 -4.737545 
-2.674509 -0 4.726766 
-0.5436968 -0 1.872314 
4.24714 0 -1.72439 
1.822646 0 -2.759688 
0.1727013 -0 1.246786 
3.05271 -0 3.060891 
4.864854 0 -2.967694 
-1.658727 0 -3.511141 
1.662845 -0 1.881274 
1.095278 -0 3.486162 
-2.259456 0 -4.334925 
-3.694591 -0 1.073469 
3.378609 -0 4.723404 
0.5187427 -0 4.436379 
2.214883 0 -1.81839 
1.19523 -0 0.7995131 
4.312285 -0 4.740766 
-3.574375 0 -3.880159 
-0.5971539 -0 4.726033 
3.045548 0 -2.786991 
-4.808284 0 -3.909738 
4.947331 -0 3.36988 
2.752376 -0 0.1474666 
-3.16955 -0 1.069786 
-3.744817 -0 4.550928 
4.332416 -0 3.738676 
1.662295 0 -1.575762 
2.845716 0 -3.948005 
1.109955 0 -4.20647 
-1.883852 0 -1.25116 
3.364957 -0 2.684566 
2.536319 0 -2.429353 
3.69628 -0 2.171821 
-2.8266 -0 2.314513 
-0.8236053 0 -4.953374 
-3.947495 0 -3.016577 
-1.283285 -0 1.536617 
-2.077613 -0 0.762693 
-2.119736 0 -0.9022127 
-4.521841 -0 3.532361 
-3.342978 -0.001035188 0.3164801 
-3.040533 -0 0.3419645 
0.7821218 -0 2.752651 
4.72231 0 -1.064537 
3.433544 0 -3.823536 
-2.688839 0 -1.807599 
2.436529 0 -2.763051 
4.468851 0 -0.2505219 
-4.731028 0 -3.831202 
2.755512 0 -3.373507 
1.401253 0 -0.4326795 
-2.846814 0 -1.799037 
4.841912 -0 4.840587 
-4.107253 0 -1.81196 
1.1117 -0 2.626123 
4.20626 -0 1.584041 
2.107487 0 -1.857412 
-0.7158894 -0 1.420315 
0.4471921 -0 4.524976 
1.629892 0 -3.57918 
4.74443 -0 2.45268 
-3.516702 0 -1.241096 
-0.9464372 0 -3.51003 
0.2126943 -0 4.57048 
-3.526516 0 -3.107732 
4.945568 -0 1.480207 
0.4369954 0 -0.9146196 
-2.810153 -0.002876209 0.9657978 
-4.083191 0 0.03203694 
-4.546842 -0 0.4451413 
4.136125 0 -3.594343 
-1.998606 0 -4.028208 
-1.553084 0 -4.643579 
0.1883247 0 -3.665377 
4.044536 0 -4.552752 
0.639389 -0 2.42593 
-1.120738 0 -3.789727 
-1.526701 0 -3.557518 
-2.167742 0 -4.459905 
-2.928826 -0.006103873 0.8712338 
-1.76849 -0 1.264009 
-1.776404 0 -4.785385 
-4.869935 0 -4.469135 
-0.5946776 -0 4.170082 
-3.064157 -0 1.488136 
-3.279936 0 -3.781402 
-1.260106 -0 4.048866 
4.00092 -0 1.756863 
1.988631 0 -0.7404019 
-3.241346 0 -2.458839 
-2.526953 -0 0.3735304 
4.866997 0 -1.119836 
-4.237189 -0 4.871066 
0.2385945 -0 0.3852083 
-4.863083 -0 1.479311 
2.241492 -0 4.775698 
1.435699 0 -3.79773 
3.018266 -0 3.291541 
3.949259 -0 1.277594 
0.5914165 -0 1.788369 
-0.8821299 -0 2.542569 
-0.7245918 -0 3.968944 
-1.508716 0 -2.402025 
4.628943 -0 1.456297 
3.219791 0 -3.258848 
4.800265 -0 4.101058 
-2.383378 -0 4.441986 
-2.154562 -0 3.744972 
0.5859566 0 -4.313066 
-2.739149 -0 3.868134 
4.877795 0 -2.647291 
4.523328 -0 2.886063 
0.1181276 0 -1.895063 
2.834757 0 -4.259374 
1.030652 -0 3.11878 
3.681263 -0 4.846376 
-2.195073 0 -3.990756 
-4.492121 0 -2.50234 
-2.803041 -0 2.488083 
-1.167603 0 -0.05298935 
-1.745568 -0 2.842517 
2.194296 0 -4.228554 
-2.76884 0 0.01849235 
-2.197735 0 -0.2726536 
0.7002135 -0 1.237007 
3.900729 0 -4.755881 
0.4852714 0 -4.551877 
-1.164345 -0 0.9448222 
3.303065 0 -3.928229 
-4.592064 0 -1.918201 
-2.258501 0 -0.03363058 
3.859367 0 -3.5432 
-3.143921 -0 2.250709 
1.856805 0 -4.237617 
2.77733 -0 1.065322 
-0.8618491 0 -4.930431 
4.196702 -0 1.040824 
2.04315 -0 4.811118 
3.541235 0 -0.2757557 
3.244719 0 -2.488074 
3.194293 -0 2.140735 
2.078074 -0 3.720776 
-1.583671 -0 0.8191979 
0.8698292 -0 2.846681 
3.250122 -0 4.257495 
-2.161548 -0 3.264157 
4.22913 -0 0.5256338 
1.970376 -0 0.1138171 
0.3523036 0 -4.109853 
2.343726 0 -1.906512 
4.045043 0 -1.598975 
0.4386436 -0.0003960633 3.200631 
0.9081785 -0 4.201871 
4.066729 0 -1.284106 
0.9697455 -0.0001746098 -3.040358 
-0.3040215 -0 2.399451 
0.5972583 -0 3.910823 
-2.295453 -0 3.80548 
-0.6894652 -0 4.561322 
2.116359 0 -0.2354055 
-4.45929 0 -3.792186 
-4.2894 0 -3.066397 
-2.563103 -0 4.180972 
-1.270215 0 -2.859665 
-2.65949 -0 3.041703 
1.919987 0 -2.337882 
3.142543 -0 1.275454 
-0.3134177 -0 2.459834 
4.347952 -0 0.5603175 
1.474736 -0 2.2867 
4.606394 0 -3.87722 
-1.73872 -0 2.266993 
-1.843878 -0 4.109789 
-0.6143028 0 -1.78084 
-2.041011 -0 3.901692 
-3.862092 -0 4.407356 
-2.991423 -0 3.879956 
3.333683 0 -2.32284 
-2.065573 0 -3.122629 
-3.790462 0 -0.4349864 
1.696725 0 -1.451413 
-0.2058567 -0 4.528726 
1.99525 0 -2.572404 
0.6338702 -0 0.4374741 
-0.6895902 0 -0.9084318 
-0.741693 0 -3.370209 
4.985735 0 -0.9133454 
-4.563881 -0 2.388982 
-3.51877 0 -0.002019187 
-3.107807 0 -3.667016 
-2.286314 0 -3.833254 
-4.191051 -0 2.276799 
2.325791 0 -0.7181559 
-2.697005 0 -3.532515 
3.41819 0 -4.736352 
-4.203773 0 -0.9015235 
4.87403 -0 0.2935927 
4.712279 -0 4.552339 
-0.3352204 -0.005189719 -0.8638211 
-4.249849 -0 4.05419 
-3.768388 -0 3.841718 
0.2415804 0 -4.460289 
-1.069921 -0 3.673451 
1.828407 0 -2.91515 
-1.184408 0 -0.2073498 
-1.998967 0 -4.503129 
0.1579242 -0 4.488007 
1.479678 -0 4.60015 
-0.7628925 0 -3.548582 
0.591517 -0 4.182581 
-4.208838 -0 2.373038 
-2.155578 -0 2.428011 
1.09644 0 -0.9504349 
-3.817737 0 -1.99882 
-2.872382 -0 0.670817 
-1.63422 0 -4.683614 
1.938611 0 -1.233513 
-4.872377 0 -2.169463 
1.556494 -0 0.9622765 
-0.5529159 -0 1.004678 
4.921119 -0 4.896764 
0.1818624 -0 4.827646 
-3.607363 0 -3.381045 
3.668759 -0 0.7547486 
-4.767723 -0 4.788783 
1.283358 -0 1.994423 
-0.05182166 0 -1.852404 
-4.378376 -0 1.466395 
2.018092 -0 1.481263 
0.4624344 -0 1.405673 
3.011074 -0 4.813019 
3.72698 -0 2.634058 
4.378031 0 -3.316857 
-1.165807 0 -0.8699551 
-4.932433 -0 3.721095 
0.2358306 -0 4.743675 
1.835939 0 -2.799788 
1.570742 -0 1.827929 
-4.18819 -0 0.1246654 
0.7664074 -0 2.482565 
-1.740064 -0 3.760216 
-4.28787 -0 4.490654 
1.653865 -0 2.853747 
-4.866274 0 -3.363577 
1.566052 0 -3.636647 
3.305917 -0 0.9708266 
0.04123336 -0 2.38277 
-4.377132 -0 0.3825432 
0.5075062 0 -1.126812 
-2.474644 -0 0.5018917 
0.8423194 -0 4.372952 
3.402823 -0 3.78411 
0.2868766 -0 0.8544492 
0.4784242 0 -3.31765 
-0.7676967 0 -4.330208 
4.378011 0 -0.417265 
-2.414803 -0 4.811627 
-1.719346 0 -3.638181 
-4.746854 0 -1.084548 
-1.293365 -2.141412e-05 2.140924 
-2.799658 0 -0.2839822 
2.457713 -0 1.090248 
-1.484719 -0 4.010507 
-2.541736 -0 0.4927545 
0.8436881 0 -1.883896 
1.710534 -0 3.827656 
1.810452 0 -3.645493 
0.3299155 -0.0001681306 -0.3337203 
1.606513 -0 1.196741 
2.427631 -0.004053673 1.678906 
3.37557 -0 1.464629 
-1.221824 0 -2.5449 
-1.708093 -0 0.9585322 
0.06992198 -0 3.956715 
-3.682146 -0 0.7720566 
3.013182 -0 3.825369 
1.314104 0 -3.81661 
-3.940758 0 -1.135899 
-2.46863 -0 2.890189 
-3.94685 -0 3.624411 
0.4400745 -0 2.447737 
-0.4515953 0 -3.122117 
-1.258091 -0 4.200118 
-3.115751 0 -3.900331 
1.177481 0 -4.115148 
2.309121 0 -3.564572 
2.400672 0 -4.872383 
-4.888678 -0 3.082615 
0.05320768 -0 0.8762498 
1.437761 -0.004633868 0.5513275 
-2.164134 -0.001622762 -2.466104 
-4.264491 -0 4.140263 
1.043495 0 -2.881208 
3.560447 0 -3.433729 
-3.592607 -0.000976128 0.2988461 
-4.303 0 -3.638892 
3.01246 0 -2.484513 
0.624073 -0 3.947213 
4.79391 -0 4.546781 
3.025138 0 -2.339224 
2.887047 -0.00143388 2.389117 
-1.98107 0 -4.674122 
0.5974333 0 -3.743483 
2.075756 -0 0.4245271 
-1.663976 -0.0006583239 1.820135 
-0.6105297 0 -0.919796 
2.951176 -0 3.198494 
-4.707159 -0 4.504164 
-0.9574176 -0 4.617337 
-1.048493 -0 3.482712 
-1.801998 0 -1.897371 
0.582782 -0 2.401572 
2.910225 -0 1.085307 
-0.3492114 -0 3.095912 
2.394682 -0 0.6985359 
0.5340348 0 -0.3508258 
-0.07367772 -0 0.8364521 
-3.912567 -0 4.229617 
-3.741124 0 -0.5398437 
-2.908147 -0 0.07986611 
0.2896204 -0 0.4968457 
4.062517 0 -4.391162 
4.89413 -0 2.655226 
-2.085458 0 -3.842352 
-0.05030303 0 -0.8700645 
-1.647806 0 -3.617839 
4.632429 -0 4.579828 
-4.698056 -0 0.5687144 
1.684677 -0 0.5741293 
-4.56526 0 -0.8515867 
-4.509326 0 -4.207908 
-2.596084 0 -3.263597 
-3.396081 -0 1.249834 
2.6141 -0 0.1535822 
-1.574497 0 -3.781954 
-0.4250492 0 -2.507702 
-0.349894 0 -2.555708 
-3.528996 -0 2.11148 
-0.9307829 0 -4.580043 
3.294006 0 -1.152082 
0.1837793 -0.0007212182 -0.3654728 
1.030804 0 -0.4874292 
2.516143 -0.001177044 1.873251 
4.082918 0 -1.22441 
1.773271 0 -4.846961 
4.931476 -0 1.140183 
-1.726353 0 -3.85652 
1.888289 0 -2.974806 
1.245285 0 -0.9052109 
3.947079 -0 2.54913 
-0.8941667 0 -4.649722 
-1.095849 -0 4.592327 
-2.759866 -0 4.988521 
-3.402578 -0.001310148 0.3992974 
4.465276 0 -0.3952898 
0.9223368 0 -2.531424 
-1.962609 0 -1.931455 
3.179895 -0 3.811751 
-1.515687 -0 0.4613471 
2.781252 -0 1.986473 
-4.093346 -0 1.775357 
0.8182986 -0 2.704709 
0.2162966 -0.001057854 2.974793 
-1.927397 -0 3.687074 
-3.239072 0 -0.7861981 
0.8785657 -0 4.330941 
-4.74466 -0 4.370522 
-0.01350873 -0 2.504781 
-1.099022 -0.00363825 2.14483 
3.424246 0 -4.871677 
0.7749276 -0 2.281675 
-0.8620709 -0 0.3466522 
-4.151211 0 -1.312942 
-3.250154 -0 1.039049 
2.239974 0 -1.781459 
2.967148 -0 4.720256 
-1.914667 -0 4.552435 
-1.788319 0 -4.94699 
1.590076 0 -1.70145 
-3.250097 -0 0.8672691 
1.829137 -0 1.329716 
-0.03255644 -0 2.197574 
-3.307657 -0 3.509826 
-1.98599 0 -3.538798 
-2.835367 -0 3.11797 
-4.540997 0 -3.053001 
-2.344991 0 -4.761034 
1.375897 0 -4.467096 
-3.137792 -0 4.939883 
0.5348777 -0 3.806252 
3.314895 0 -3.797053 
-3.483124 0 -0.704096 
2.46478 -0 0.1470417 
-4.313373 -0 1.357161 
-4.757647 -0 3.847617 
-1.430977 -0 4.49968 
1.576889 0 -4.196297 
-1.11911 0 -0.9977213 
-1.476097 0 -0.3490423 
4.794451 -0 0.5737262 
2.105649 -0 0.1038546 
2.844028 -0.0006459316 2.416398 
2.345474 -0.0001746899 1.623443 
3.319659 -0 2.613512 
2.410301 -0.005496076 1.731302 
-0.2792945 0 -1.310316 
-0.1947223 0 0.04606854 
-3.899561 -0 3.220404 
-4.380291 0 -3.006622 
-1.588729 -0 0.9187753 
-3.630365 -0 0.2940431 
-4.003 0 -4.514579 
1.130336 0 -3.979196 
2.448952 -0 2.579848 
-2.927755 -0 4.112174 
-1.897364 -0 3.636811 
0.002685919 0 -2.179623 
0.6572576 -0 3.728799 
4.645088 -0 0.2237327 
1.664738 -0 3.805231 
1.647144 0 -4.494599 
1.495495 -0 1.136802 
3.134427 0 -3.63672 
-0.6076805 0 -0.6987057 
-4.92768 0 -4.127162 
1.857525 0 0.02631067 
4.337451 -0 1.357157 
-3.88869 0 -4.308813 
-0.503253 0 -0.7337976 
-3.523962 0 -4.849729 
3.868345 0 -4.418387 
-0.7788967 -0 3.840312 
-2.19755 0 -2.880834 
-3.589555 0 -1.46842 
1.995265 0 -3.141126 
1.552213 0 -4.234408 
3.07797 -0 2.837498 
3.039553 -0 0.08685209 
1.240664 -0 2.993841 
-1.286089 -0 3.403026 
-0.4951147 -0 2.920913 
1.222246 -0 4.664826 
-1.631456 -0 3.18676 
-2.789464 0 -3.418806 
4.389472 -0 2.286553 
4.563673 0 -3.080065 
2.392034 -0.001461772 1.670559 
-0.5878096 0 -1.635286 
-0.04641241 0 -4.21807 
-2.260476 0 -4.031524 
1.263551 0 -4.881434 
-1.886513 0 -3.681102 
-4.683193 -0 3.079452 
3.448364 0 -1.2737 
-3.055142 -0.0001290748 0.8401408 
4.03566 0 -2.824092 
0.5467339 0 -3.581802 
4.658428 0 -4.820284 
2.323488 0 -3.724025 
-0.1590497 0 -2.580148 
-3.894219 -0 2.083698 
0.203246 0 -4.561331 
1.344278 -0 1.462763 
-4.140755 -0 2.439714 
-4.575913 0 -4.824153 
-2.904161 -0 2.652379 
4.242602 0 -2.016387 
4.798222 -0 0.7786739 
1.727081 -0 4.017967 
-0.9415491 0 -2.699532 
-2.234452 0 -4.694432 
-3.83513 0 -4.657038 
-2.571917 -0 1.549767 
-0.1833176 0 -1.225357 
1.98997 0 -2.501149 
-2.977345 0 -2.045159 
-4.923611 0 -4.645174 
-3.621696 -0 4.708594 
-4.141351 -0 1.589561 
-3.738322 0 -3.18552 
-3.062322 -0 1.685676 
-3.789102 -0 3.90066 
2.499462 -0 1.503499 
4.785483 -0 3.153842 
4.763572 0 -4.891014 
-2.386732 -0 2.998054 
1.745991 0 -1.578723 
0.392983 0 -3.688901 
-3.146677 -0 2.474556 
-4.719588 -0 4.565178 
3.248294 -0 0.3264492 
-0.1017572 0 -2.020937 
3.088883 -0 1.173774 
1.91109 0 -0.9657682 
2.15064 -0 3.395791 
0.04757457 -0 1.600323 
4.948213 0 -4.996413 
-1.591073 -0 4.510462 
1.942971 0 -4.923913 
4.445972 0 -4.726486 
2.762218 -0 4.483974 
-0.3698186 0 -3.553582 
-3.519415 0 -0.1833913 
0.1836539 0 -3.886044 
4.397235 -0 4.495711 
-1.904719 0 -3.217932 
-4.534224 0 -1.232394 
0.114744 -0 3.198472 
-4.666923 0 -0.7582145 
4.917298 -0 0.9595493 
-3.993998 0 -2.171502 
-3.186695 0 -2.774367 
0.9606004 0 -2.908863 
-3.513628 0 -4.130589 
4.980018 -0 1.906688 
1.805049 -0 3.370699 
4.534003 -0 1.959949 
-2.503305 0 -0.7674451 
1.315274 -0 3.534739 
-1.926407 -7.940163e-05 -2.323346 
-3.310326 -0 1.310281 
-0.785529 -0 3.189553 
-0.6129282 -0 3.499554 
2.684178 0 -0.2219205 
3.33313 -0 0.8501949 
-3.162598 0 -3.924913 
-3.471605 -0 1.340038 
-2.826711 0 0.00862533 
-1.250325 0 -1.927222 
-4.954301 -0 2.405702 
-1.715406 -0 2.668365 
4.915471 -0 3.539543 
-1.869012 -0 2.039188 
-4.487141 0 -4.867763 
-1.700433 0 -3.658774 
2.798998 -0 4.006146 
2.723727 -0 4.267283 
-3.909113 -0 4.519996 
1.991999 0 -0.3103909 
3.499974 -0 0.6271431 
3.716104 0 -0.3070145 
-1.960488 0 -4.240635 
0.8192301 0 -2.502236 
-4.329559 0 -3.272881 
-2.135743 -0 1.824196 
-2.840857 -0 2.910314 
0.2990567 0 -1.765707 
-3.643041 -0 0.7952483 
0.3761083 0 -0.852245 
1.746253 -0 0.4484054 
-4.113805 0 -1.169394 
2.840332 -0 3.633824 
0.09615799 -0 1.422425 
0.9212931 -0 2.149946 
-1.769135 -0 2.00796 
3.774079 0 -2.336632 
-1.550094 0 -4.815894 
0.9162489 -0 3.267911 
3.430974 -0 4.547522 
-0.07728666 0 -1.133285 
-1.549413 -0 4.801062 
-2.901739 -0 4.386449 
-0.003288048 0 -2.230122 
-0.0940554 0 -1.019859 
-2.287184 -0 3.445227 
-2.711026 -0 4.923864 
-4.874569 0 -0.04214184 
3.413266 0 -4.445088 
-4.208951 -0 3.423699 
4.710136 -0 0.1682207 
3.984015 0 -3.194975 
1.000861 0 -2.192713 
-1.944233 0 -4.658743 
0.6641533 -3.523247e-06 3.040323 
2.987653 -0 0.9270563 
4.979996 -0 4.612996 
1.414469 0 -4.908921 
4.429286 -0 2.107147 
-4.821157 0 -4.872421 
2.966493 -0 3.057308 
0.1893073 -0 0.1570069 
-1.429142 0 -3.472232 
-2.724203 -0 0.5329668 
3.020813 0 -0.6342829 
-4.378248 -0 3.211879 
2.162219 0 -2.413302 
-1.621777 -0 4.28232 
1.125404 0 -4.626677 
2.440614 -0 3.71728 
-3.84744 -0 1.398829 
-0.7359501 -0 2.557911 
3.179023 -0.0005249594 2.553693 
2.711286 0 -0.2533533 
1.646679 0 -2.748502 
-2.452405 -0 4.269475 
-4.207301 -0 3.741031 
-1.656917 0 -2.534697 
-2.303221 0 -1.698574 
-2.87084 -0.004239308 0.7907483 
1.638504 -0 4.715917 
1.360569 -0 4.233899 
-3.924882 0 -0.7640403 
2.642348 -0 1.395709 
2.297821 0 -0.4137703 
-4.56913 -0 1.665822 
-2.890393 0 -0.4561116 
1.290897 -0 2.42404 
-1.209119 0 -4.616795 
1.063644 0 -3.706343 
0.3549586 0 -4.100718 
3.714505 -0 0.7814648 
-2.851793 0 -4.988975 
-3.354774 -0 3.679221 
0.9472708 -0 3.690792 
1.517892 0 -1.26181 
2.521378 -0 0.07684825 
-2.078407 -0 0.2060591 
-0.539027 -0 3.589022 
-4.787271 -0 3.67969 
-2.624914 -0 4.38027 
-4.492998 0 -2.371704 
1.935634 0 -3.478512 
-4.021659 -0 1.824568 
4.990546 -0 2.626103 
-2.021479 0 -2.771415 
-1.992316 -0 3.324916 
4.52122 -0 4.415176 
-3.96886 -0 3.584 
0.9710997 -0 4.307154 
-0.7812984 0 -4.306823 
-2.851787 0 -2.537748 
3.608829 -0 1.952802 
4.383728 0 -2.231136 
-0.8464179 0 -0.6506562 
0.1984587 -0 2.455823 
-2.470058 -0 2.053453 
-1.543885 -0.0005243671 1.657709 
-1.895029 -0 0.5814604 
0.4772053 0 -2.43676 
1.518827 0 -2.52462 
-2.694679 0 -3.685084 
2.858689 0 -4.128842 
-3.581226 0 -0.568519 
-4.591734 0 -3.650064 
-0.04283205 -0 3.069592 
-0.8268802 0 -1.410387 
4.835814 -0 0.721804 
0.6088428 -0 1.835547 
0.02203023 -0 3.291564 
-0.8901116 0 -2.480205 
-4.302745 -0 4.902339 
-2.389604 -0 2.069435 
1.122413 0 -3.918957 
0.3002659 -0 3.599782 
0.3632357 -0.004184622 -0.2784901 
-0.4730346 -0.0006292369 -1.04749 
-2.339471 0 -1.842251 
-2.419752 0 -1.186715 
1.157432 -0 0.951571 
2.849003 -0 3.569254 
-0.7557648 -0 4.739191 
2.615628 -0 3.317481 
-4.360454 -0 3.952445 
-4.619916 -0 2.607822 
-2.873601 -0 1.860009 
3.442619 0 -0.9665166 
2.265474 -0 3.532648 
3.371482 -0 0.6473557 
2.389604 0 -1.849045 
-1.276575 -0 3.352063 
-3.798478 0 -3.508874 
3.641553 0 -3.566538 
1.680449 -0 2.221798 
0.2452369 -0 1.102856 
-0.1477506 -0 4.184795 
-1.178832 0 -4.945146 
-0.1698912 0 -0.03524014 
-3.295787 0 -2.872472 
-1.049249 -0 3.538234 
1.429477 -0 1.350778 
-4.256012 -0 4.545857 
4.842606 -0 2.405387 
4.559188 0 -0.6324301 
0.4495077 -0 4.625221 
-1.664395 0 -4.777528 
-3.872523 -0 2.438946 
0.5102434 0 -1.444905 
-3.791959 0 -4.042874 
2.874697 -0 1.698246 
3.418598 -0 2.140175 
3.33614 -0 2.335959 
-4.219457 -0 2.953606 
-4.941313 0 -0.6240381 
-2.874899 -0 3.230605 
-3.967956 -0 4.490472 
-4.298104 0 -3.749274 
-1.643707 -0 4.75553 
3.614147 -0 4.780347 
-1.982634 0 -1.926794 
2.253679 -0 3.323492 
1.737625 0 -1.449389 
-3.373317 -0 3.231029 
-2.328682 -0 4.512033 
1.926373 0 -2.118032 
1.20167 0 -3.519971 
-4.115892 0 -1.971593 
4.576122 0 -0.7695066 
1.018911 -0 2.399602 
4.06631 0 -4.285585 
0.06665498 0 -3.066005 
-3.701328 -0 4.041699 
1.57736 -0 0.5141959 
2.018251 0 -3.168021 
-3.652516 0 -0.5346372 
-4.382662 0 -4.156094 
4.507503 0 -3.598079 
3.431564 -0 1.731202 
2.272235 -0 2.08399 
-3.897756 -0 3.06488 
4.592641 -0 2.498668 
2.426734 -0 3.285153 
-3.059309 -0 1.879457 
2.769843 0 -2.680838 
0.007922704 -0 1.10902 
4.013233 0 -0.459875 
-4.847311 0 -2.85465 
-4.038955 -0 0.8186091 
-3.184363 -0 1.186803 
2.721987 0 -3.409107 
-0.4280307 0 -4.936328 
-4.828047 -0 4.29046 
3.963049 0 -0.9017689 
-3.947065 -0 4.298114 
-1.950895 -0 0.9721953 
-3.355966 -0 3.80916 
-4.466523 0 -1.148724 
1.021527 -0 4.211364 
-2.302498 -0 3.850375 
2.32407 -0 3.47517 
-3.38509 -0 3.770641 
1.458908 0 -1.596713 
-3.988216 0 -1.049473 
4.739682 0 -3.005201 
-1.244772 0 -0.4871331 
-1.803862 -0 3.665518 
3.726445 0 -3.468622 
-2.402796 -0 1.961081 
-0.4859094 0 -2.924835 
4.636156 -0 2.564877 
-4.676662 -0 2.635599 
-1.933499 0 -0.9844249 
-1.981664 -0 4.791384 
-2.587671 -0 4.472889 
4.629831 -0 2.082778 
4.610025 -0 4.350131 
4.796863 -0 2.388507 
0.6111119 0 -3.872577 
-3.12297 -0 1.222672 
3.796827 0 -3.300992 
4.545585 -0 1.0078 
-1.95693 0 -4.147786 
-0.6550411 0 -4.455974 
4.220237 -0 1.03396 
0.0500982 0 -3.586182 
1.644598 -0 4.927961 
-0.8269428 -0 3.934155 
-4.894886 0 -4.369714 
-2.422775 -0 2.51008 
2.09934 0 -0.5363743 
-2.499487 -0 3.63406 
4.526123 0 -2.641771 
-0.8216302 -0 3.054129 
-4.617006 -0 4.276321 
1.93395 -0 1.809436 
-2.360809 -0 2.843791 
-4.543824 0 -1.927207 
1.416373 0 -2.933224 
4.948615 0 -4.34439 
-4.52424 -0 0.8653955 
-1.619694 0 -1.674341 
-0.2090778 -0 3.86501 
4.515284 -0 1.533303 
-3.099199 -0 0.998039 
-2.880468 0 -4.055024 
3.270961 -0 1.565873 
-0.6171209 -0 1.101578 
-3.570979 -0 2.267854 
3.262834 -0 2.45295 
4.639534 -0 4.659922 
0.8286843 -0 3.534302 
-1.4571 0 -1.420815 
1.240996 -0 0.1839533 
1.517448 -0 2.780138 
-3.158767 0 -4.890366 
-1.581784 -0 1.164198 
3.716617 -0 0.5564983 
-3.603036 0 -1.31049 
1.64586 -0 3.220409 
-0.7277989 0 -4.68188 
-4.815314 0 -2.747834 
3.395289 -0 1.161752 
-0.1360809 -0 2.195631 
-4.12568 -0 0.6099331 
0.9031999 -0 4.633997 
-4.066783 0 -4.740216 
-3.070168 -0 4.493771 
4.083282 0 -4.762983 
1.096959 0 -0.847983 
0.7309769 0 -3.009976 
2.410663 -0 0.1159287 
-1.560962 0 -0.4472396 
-0.642774 -0 1.463856 
3.956543 -0 1.014019 
2.400696 -0 4.365171 
2.230901 0 -2.7818 
-1.450657 -0 2.381314 
-2.853042 -0 2.909073 
3.329567 -0 1.032605 
4.432324 0 -2.759694 
-4.202181 0 -1.381699 
-3.476907 0 -1.822843 
-2.913887 0 -0.4005516 
-4.93882 -0 4.792903 
1.573521 0 -2.090618 
-4.554813 0 -2.063553 
-0.002410907 0 -3.618955 
-4.349603 0 -0.1724318 
1.62728 -0 2.694384 
-3.897453 0 -4.096547 
1.219739 0 -2.26472 
-4.98546 0 -2.804809 
-0.9287963 -0 4.231092 
-3.681636 -0 2.506026 
2.103676 -0 1.933162 
-4.876997 -0 0.2760799 
-1.861112 -0 2.461621 
2.639995 -0 0.4693865 
2.599669 0 -2.57173 
-0.2462607 -0 4.250338 
0.4512509 -0 0.2776055 
0.8148823 -0 4.879565 
0.8403794 0 -3.838912 
-3.697625 -0 0.163673 
-0.7035999 -0 1.684948 
-3.733009 -0 4.766426 
-4.158663 -0 4.805092 
-4.499553 0 -0.1067373 
3.994531 0 -2.342505 
3.6069 -0 3.124881 
0.433711 0 -3.523074 
3.77485 0 -3.04139 
-1.045855 0 -0.8038793 
-1.609476 -0 4.361959 
-0.2773788 -0 3.00719 
3.030994 0 -4.227646 
3.297807 0 -2.806651 
1.250405 -0 3.198717 
2.94624 -0 0.3209179 
1.009518 0 -0.16847 
3.102911 0 -0.4374566 
2.42402 -0 2.500698 
-3.352281 0 -4.35874 
-0.7500939 0 -2.605199 
3.114727 0 -0.8074967 
-1.841518 0 -1.974455 
4.451992 0 -0.2577457 
1.217256 0 -2.807469 
3.684464 0 -4.405218 
-2.659737 0 -4.278793 
2.635024 0 -2.924747 
-1.960069 0 -0.9187895 
3.309625 0 -3.62835 
-3.794314 -0 1.768424 
-3.062782 -0 0.532105 
0.9897742 0 -1.794429 
1.227942 -0 2.296717 
-3.807551 -0 0.4297948 
2.073373 -0 1.361663 
-2.41024 0 -1.25866 
4.900858 -0 4.160196 
-0.5978255 -0 1.009052 
-4.551446 -0 2.047243 
2.80279 -0 0.150793 
2.724994 -0 4.293212 
2.080608 -0 2.28764 
3.284562 -0 3.489069 
4.204861 -0 1.97794 
3.100139 0 -2.596795 
-0.0534988 0 -1.62649 
2.752112 -0 3.658808 
1.8893 0 -3.218276 
-3.624097 -0 3.974613 
-0.9311309 -0 3.963619 
-0.3000933 0 -1.04085 
-2.910977 -0 4.846828 
4.296383 -0 0.1454736 
-0.07324998 0 -4.913375 
-0.1262448 0 -1.266934 
-4.896535 -0 4.387364 
0.1802389 0 -2.477254 
4.059025 -0 2.239407 
1.734247 0 -0.03675747 
-1.984759 -0.001672809 -2.390763 
4.136184 -0 1.468138 
-4.858478 0 -2.04647 
-2.996464 -0 4.255292 
2.176364 0 -0.3640868 
-0.02619249 -0 0.7057186 
-3.887571 -0 2.166351 
3.121575 -0.0001144851 2.872416 
-3.739432 0 -4.901683 
-1.080101 0 -1.081504 
-3.534439 -0 1.684703 
0.9981304 0 -1.607024 
0.8559921 0 -0.4325292 
2.763085 -0 2.747582 
0.7819054 0 -1.546692 
3.027582 -0 4.610568 
-4.709464 -0 2.343384 
-3.13168 -0.000884321 -3.355863 
3.326294 0 -2.960592 
4.036368 0 -3.918431 
-4.491607 0 -1.242968 
2.40072 -0 2.871039 
1.18572 0 -2.592321 
4.330865 0 -2.665121 
2.413835 0 -3.035247 
1.220115 0 -1.428513 
-4.153476 0 -0.7000098 
-4.326225 -0 2.083333 
-2.326015 0 -4.591531 
3.814864 -0 1.274634 
2.612782 0 -0.9508725 
3.315324 0 -0.9768216 
2.174473 -0 0.04967093 
4.132783 -0 4.341499 
2.094295 0 -4.984737 
1.642718 -0 3.963145 
-3.376634 -0 3.865966 
4.321838 -0 1.410197 
-3.733115 0 -4.867398 
-1.035794 -0.0006586482 2.160525 
-3.575765 -0 3.991608 
-4.837093 0 -1.521787 
3.55616 -0 1.478827 
-3.662777 -0 0.3526438 
2.740853 0 -1.327521 
-4.905516 0 -3.903135 
4.985334 -0 4.69461 
-0.7969093 -0 4.393918 
-2.326775 -0 1.513276 
4.461671 -0 2.888129 
-1.376658 -0 2.846556 
3.828219 0 -1.302841 
3.976883 -0 3.839532 
-4.257521 0 -2.922426 
-4.902822 0 -3.556365 
4.848273 -0 3.678667 
4.551167 -0 4.134954 
-0.6330356 -0 4.617286 
3.953249 -0 2.007479 
3.910119 -0 4.61376 
-4.934847 0 -1.835714 
4.017351 -0 2.268733 
-2.181392 -0 4.308928 
-4.403028 0 -0.9326774 
0.570214 0 -4.206453 
1.288364 -0 2.783823 
-3.594526 0 -3.111532 
-3.835838 0 -0.6625677 
-1.131615 -0 1.386541 
4.048079 -0 0.3891667 
-0.6065025 0 -0.4837969 
-4.600568 -0 1.962407 
-1.07941 -0.0001359375 -1.496883 
0.895324 0 -3.578548 
4.143941 -0 4.437824 
-2.694009 -0 1.448881 
3.746337 0 -1.391967 
-2.563804 -0 0.579091 
3.748321 0 -4.795285 
0.2937001 -0 3.449474 
-0.840688 -0 1.785717 
1.018122 0 -2.335406 
-4.170817 0 -2.291215 
-2.140043 0 -1.635207 
-0.1375279 0 -1.222901 
3.555279 0 -0.2983862 
-2.784713 -0 3.015359 
-3.310593 -0 2.80403 
-3.264369 0 -1.72333 
-2.580815 -0 0.5304587 
-3.784498 0 -4.721676 
-3.609567 -0 0.8539017 
-2.098136 -0 2.668709 
-4.966352 0 -4.985489 
-0.8364226 0 -4.91389 
-3.38519 -0 1.501431 
-2.834866 0 -3.24799 
-1.359641 0 -4.412613 
3.446283 0 -3.699654 
2.878963 0 -3.72751 
0.2640334 -0 3.6989 
2.994024 -0 0.5155148 
-1.188444 -0 4.118677 
-0.514352 0 -3.665128 
-4.015973 -0 1.992878 
3.437837 0 -4.349021 
1.380353 0 -0.8084069 
-3.227663 -0 0.2009343 
1.156633 -0 1.786033 
2.37841 0 -2.49447 
-1.918519 -0 4.113848 
-2.796353 -0 1.274757 
-3.702788 0 -1.947535 
3.287745 -0 3.398605 
2.33926 0 -3.543642 
0.6283115 0 -2.778871 
3.846672 0 -0.1994302 
-1.01968 0 -1.928646 
3.763912 0 -4.451678 
2.444262 -0 4.121042 
2.18783 0 -4.12044 
1.415644 0 -0.8235442 
3.371698 0 -4.657232 
0.4662954 -0 0.7895114 
0.2485146 -0 4.123435 
-1.737192 0 -1.112774 
2.147164 -0 4.175872 
1.086263 -0 4.113897 
-0.4845839 0 -4.411631 
0.02051824 0 -2.557977 
3.028389 -0.0008978234 2.674429 
-4.041722 -0 3.431875 
-1.276629 0 -1.166438 
-3.250858 -0 4.161062 
-0.1982671 0 -4.467155 
-3.236301 0 -2.987469 
4.476651 0 -1.076143 
4.857559 -0 0.8434361 
2.081869 -0 3.270262 
-0.9061809 0 -3.69716 
2.794052 -0 1.374455 
-1.584366 0 -1.38806 
-0.2463112 -0 0.2354063 
-3.407579 -0 4.241961 
-0.7244776 -0 3.935071 
0.7723616 0 -4.927877 
0.1047359 -0 4.600368 
0.4182819 -0.002737002 -0.1317683 
2.384513 0 -3.031365 
2.026459 -0 4.386345 
2.6278 -0 4.158414 
-0.0706794 -0 3.156751 
4.28097 0 -3.608515 
1.346357 -0 0.140749 
0.9992521 -0 1.59479 
1.118111 0 -1.36872 
0.9312494 0 -2.948171 
-3.161386 -0 3.201792 
0.9228214 0 -4.25007 
3.930619 -0 2.418077 
-1.593369 0 -1.718835 
-3.799298 -0 0.2950186 
-4.265666 -0 2.001045 
1.601666 0 -4.988393 
-0.5316951 -0.0005440851 -0.9040256 
0.06345802 -0 1.922531 
-4.342949 -0 0.052071 
1.730843 0 -3.578756 
4.879742 -0 0.4209572 
2.460739 0 -0.5188832 
3.906461 -0 4.555633 
4.978011 -0 3.103554 
3.837726 -0 3.662693 
-1.320396 0 -4.054289 
1.593764 -0 3.430432 
-2.11311 -0 0.8763139 
-2.265189 -0 3.027692 
0.1490996 0 -2.367971 
-2.762312 -0 1.937571 
-0.04768971 0 -1.553167 
-2.43328 -0 3.849588 
3.944938 0 -4.140169 
-0.09827127 -0 3.188018 
-3.356723 0 -4.488904 
0.4451859 -0 0.9534436 
-2.446032 -0 4.678926 
-3.575398 -0 3.093214 
3.363493 -0 2.454871 
3.103218 0 -4.433808 
-1.089029 -0.003474685 -1.409216 
3.99506 -0 3.227782 
-2.043733 0 -4.635707 
-2.131805 -0 1.824394 
-3.861751 0 -2.798854 
3.723551 -0 0.2579575 
3.229149 0 -4.586606 
-3.85408 0 -1.633633 
-3.355834 -0 1.421813 
-1.319413 -0 3.620935 
1.628045 0 -1.079094 
1.996666 0 -4.874931 
1.8846 -0 1.796541 
-4.604204 -0 4.501603 
3.624952 0 -2.700823 
1.350218 -0 3.711787 
-2.684209 0 -2.264035 
-1.234831 -0.002646049 1.987339 
-4.609344 0 -0.9836961 
0.4641417 -0 2.601095 
3.757409 0 -0.8718049 
-0.2950955 0 -0.9526905 
2.761373 0 -0.5369306 
-4.54448 -0 4.969561 
-2.138351 0 -3.968558 
-0.3496099 -0 4.652291 
4.533986 0 -3.867156 
-1.428617 -0 0.6307386 
-2.39919 -0 2.392272 
2.511816 -0 4.891987 
3.287046 0 -3.22917 
4.015584 -0 0.5332586 
-4.065023 0 -3.088048 
-2.10244 0 -4.916154 
3.472437 -0 4.09266 
-2.784561 -0.0006881533 -2.912005 
-1.565506 0 -2.508012 
2.094416 -0 2.384858 
-0.1721972 -0.0005937185 -0.7298363 
-4.422622 0 -0.1488476 
-0.1812826 0 -1.384155 
-0.08155417 -0 4.146885 
0.55671 -0 4.439603 
-3.800331 0 -0.5249978 
-1.1529 -0 2.646746 
-1.002962 0 -1.698258 
4.285035 0 -0.09004385 
-2.829037 -0.002996482 0.9748273 
-1.976316 0 -4.935221 
-4.138367 0 -1.31526 
2.688043 -0 4.099901 
-0.8723608 0 -0.7535093 
0.887526 -0 2.820123 
-3.944554 -0 1.610295 
3.151321 -0 1.911912 
-1.802767 -0 0.3519194 
2.461641 -0 3.882046 
3.902693 0 -1.018815 
3.608647 -0 1.433485 
-0.8417177 0 -2.980521 
-4.216125 0 -4.53763 
4.787016 -0 1.61011 
-3.207072 0 -3.448076 
2.924469 0 -0.7506889 
-1.097785 0 -2.165576 
2.966672 0 -2.429643 
4.085717 -0 0.842792 
1.121583 -0 4.817925 
-1.653156 0 -3.04362 
-0.06131196 -0.001632177 -0.6185104 
1.851086 0 -4.558751 
-0.1394992 -0.005243102 2.685132 
0.05073087 0 -2.90195 
-1.660597 -0 3.817017 
-3.742551 -0 0.5400482 
-4.121389 -0 1.696199 
-2.586318 0 -3.880792 
3.908069 0 -0.007273518 
4.688165 -0 4.431561 
-2.904536 0 -3.511001 
-4.055413 -0 4.267464 
-0.8075036 0 -0.4389183 
-1.839154 -0 0.3449255 
-2.606725 0 -0.422362 
-2.774316 0 -2.083761 
4.134553 -0 2.762803 
-2.857747 0 -1.44915 
1.307979 0 -2.207618 
0.05690895 -0 1.234261 
2.476769 0 -1.368688 
-4.412523 0 -4.702125 
4.221204 -0 3.397176 
-0.09681351 0 -1.084577 
0.6477241 -0 0.2868505 
2.230433 0 -4.618731 
-4.542822 -0 4.420193 
-2.042308 -0.0001751185 1.246708 
1.323999 -0 2.279564 
0.3156502 -0 0.58633 
-0.6925117 -0 1.078837 
4.984908 -0 0.9986743 
2.313133 0 -0.03779012 
0.7031648 0 -0.8604124 
0.04640926 -0 1.983327 
-2.236027 -0 3.859166 
2.549758 0 -4.371479 
-0.3113407 -0 1.427918 
-0.6654422 -0 1.272623 
4.434779 0 -4.615304 
3.764096 -0 1.113695 
3.649155 -0 1.843533 
-2.064603 0 -4.176212 
2.005159 0 -2.382161 
-4.128447 0 -4.634278 
-4.396434 0 -3.076361 
-3.08088 -0 1.754846 
3.097106 0 0.04246961 
3.851344 0 -3.197617 
1.673989 -0 3.191115 
1.649733 0 -4.146266 
4.550827 -0 0.3622342 
-0.5468839 0 -4.920654 
-2.643388 -0 4.184108 
0.5383087 0 -4.147041 
2.495568 0 -0.2823856 
0.7985645 0 -2.108828 
4.918281 -0 0.2577534 
-0.01965498 -0 2.060975 
0.01447342 -0.00125424 -0.4082548 
4.312624 -0 0.2524516 
-2.956902 0 -3.632847 
2.460299 0 -1.28115 
1.695711 0 -3.681971 
-3.928995 0 -3.467833 
-0.855638 0 -3.138532 
3.477719 0 -1.21893 
-4.880322 -0 2.831709 
0.2934579 -0 4.199576 
-3.335999 0 -1.539325 
1.294526 0 -1.941689 
-4.268054 0 -3.888042 
3.859075 0 -2.42251 
3.901501 0 -2.880361 
2.622251 0 -2.133214 
-3.127076 -0 4.944314 
-0.1636712 -0 0.2041416 
-4.684517 0 -1.111937 
-0.5662388 -0 3.169494 
0.9395342 0 -4.814669 
2.201136 -0 4.36835 
-3.604974 -0 0.7145411 
-3.973718 -0 1.15942 
-4.55066 -0 3.159256 
0.402673 0 -1.099505 
4.051589 0 -2.821815 
1.315586 -0 3.665156 
3.926784 0 -3.733728 
2.516655 0 -4.228366 
-4.971151 0 -0.2369117 
-0.03916472 0 -2.459646 
1.454722 0 -3.765675 
3.114933 -0 0.3399337 
2.940183 -0 0.6500272 
4.708094 -0 0.7943914 
-4.450569 -0 4.986884 
4.453848 0 -3.869693 
3.739444 0 -2.440309 
3.871775 0 -4.130102 
1.552952 -0 4.305162 
1.401612 0 -3.730726 
-1.213571 0 -3.923403 
-1.406518 -0 2.535465 
-4.089066 -0 2.810829 
1.82194 0 -2.173574 
-3.06127 -0 0.09236328 
-2.957264 0 -1.803232 
-2.249431 -0.003764926 1.391494 
2.36352 0 -3.09406 
-4.947997 -0 1.537595 
-4.068197 0 -3.171031 
-0.05480842 -0 1.594898 
1.703706 -0 3.61592 
0.4738255 -0 1.006398 
0.8929631 0 -0.2842102 
0.7628077 -0 3.764749 
-4.329335 -0 0.147797 
-1.413468 0 -4.657281 
2.420314 0 -4.989005 
4.023353 0 -2.464138 
1.93953 -0 3.616411 
1.792884 0 -1.548761 
-1.421647 0 -3.72109 
-4.708677 -0 0.05548712 
3.649595 0 -2.029709 
-2.867205 0 -4.229822 
1.481201 0 -2.710093 
3.59445 0 -2.755205 
-1.210947 0 -0.8140095 
3.12146 0 -4.29289 
-0.7793105 -0 1.425169 
2.925059 0 -2.529158 
0.5247235 0 -1.991215 
-0.5688992 0 -0.5933616 
-2.44207 -0 3.09171 
-0.07789582 -0 1.642326 
0.004454025 -0 1.425028 
3.239664 -0 2.345231 
-0.1456957 -0 0.5181225 
-1.176214 -0 2.595318 
4.764522 0 -2.597895 
1.448581 0 -0.04340111 
0.6039522 0 -3.922786 
-2.032404 -5.205801e-05 1.336397 
3.367872 0 -1.591864 
1.90316 -0 1.33851 
-0.9739158 0 -2.586812 
0.2555355 0 -4.897548 
-0.9087174 -0 1.771242 
-1.272799 0 -4.96194 
-0.6706915 -0 1.003504 
3.998049 -0 1.952292 
3.682112 0 -3.82601 
4.30149 -0 0.5698559 
1.23065 -0 1.90842 
2.01707 -0 4.938058 
-1.410279 0 -1.593791 
-0.6869822 0 -1.941097 
-3.33459 -0 0.8667725 
-0.0398042 -0 1.554175 
3.910887 0 -2.928919 
0.5028923 0 -0.4812604 
3.512758 0 -0.4999126 
0.9150019 -0 4.491466 
-1.485415 -0 3.639781 
-0.1710687 0 -1.966499 
1.117178 -0 1.441552 
-1.767155 0 -4.227201 
3.859797 -0 4.604913 
1.472985 -0 3.175663 
0.5501468 -0 1.853649 
-2.252862 0 -2.35573 
2.744251 0 -4.867651 
4.96405 0 -4.262258 
-4.209438 0 -3.118916 
-2.254696 0 -1.433753 
0.4478035 0 -4.295048 
0.287786 -0 3.391655 
2.16016 0 -4.495072 
1.46269 -0 2.228748 
-1.910192 -0 4.129825 
3.609571 -0 0.1220487 
3.630396 -0 3.972488 
-3.267995 -0 2.473368 
-0.8159672 -0 1.683324 
-2.060006 -0 2.579062 
2.865722 0 -2.562958 
-0.3896388 0 -3.341246 
-0.238341 -0 4.666211 
0.06515216 0 -3.467649 
-1.109204 -0 1.902431 
-3.490788 -1.944405e-06 0.51622 
1.388753 0 -0.05376898 
1.949141 -0 0.8863465 
4.068289 0 -2.567451 
-3.17372 -0 2.400801 
2.011609 0 -3.054298 
-1.501793 -0.004290604 1.844424 
0.2439188 -0 3.218975 
-0.1529432 -0 3.719506 
2.924059 -0 0.728632 
-0.9672133 0 -1.576234 
2.79719 -0 4.607907 
1.068368 0 -0.7216694 
4.449024 0 -0.376041 
-4.405527 0 -3.036517 
0.4907391 -6.522359e-06 -0.2815747 
-1.575278 0 -0.3004995 
-2.890088 0 -3.844415 
4.719863 0 -1.023303 
4.356062 0 -4.707231 
-0.5272268 -0 0.8030684 
-4.586065 0 -0.2388642 
2.173661 0 -2.410154 
2.79548 -0 4.445173 
-0.08254985 -0 4.866321 
-0.6569893 -0 3.134379 
4.186301 0 -3.258195 
-2.423084 0 -2.776374 
-4.493902 -0 0.7633217 
-3.412791 0 -2.608998 
-1.417705 -0 3.265418 
-4.190266 0 -4.013 
-3.744729 0 -1.798818 
4.654099 0 -1.694887 
0.2623238 -0 0.8317054 
1.684953 -0 1.631349 
-0.7207664 -0 4.434248 
-4.24249 0 -0.5800852 
-0.5181367 0 -1.187421 
0.9820868 -0 1.052431 
0.5531873 -0 2.553936 
-1.85505 0 -4.951493 
4.024203 0 -3.673998 
0.01809772 -0 0.5018039 
4.370511 0 -3.999498 
-2.93268 -0 4.075229 
-1.601241 0 -1.774049 
1.11045 0 -1.989226 
-3.838055 0 -2.826506 
-3.489189 0 -4.595189 
1.58542 0 -3.641719 
-1.081689 -0 1.49542 
0.6373534 0 -3.577165 
-2.675461 -0 2.769409 
2.043143 -0 2.586381 
0.07199146 -0 3.51075 
-3.750977 0 -2.059675 
-1.928632 0 -3.016746 
-2.405214 0 -3.444238 
-0.1556269 0 -3.855907 
-0.5268172 -0 3.960352 
-4.956389 0 -2.644701 
-3.146589 -0 2.111023 
-4.657009 0 -1.232708 
-2.869422 0 -0.1557638 
-0.1010311 -0 4.027752 
2.022103 0 -2.269096 
2.388114 0 -1.441202 
2.120363 -0 1.364853 
-0.7240539 -0.0002350841 -1.166076 
-3.706295 -0 2.892956 
-1.28887 0 -0.7151979 
2.502388 -0 0.2893162 
3.04504 -0 4.816762 
2.457919 0 -0.23502 
2.475935 -0 1.833326 
3.862929 -0 2.071747 
-0.2927449 0 -4.447922 
4.686953 0 -0.511109 
-2.233249 0 -0.9527048 
0.4580345 0 -2.346171 
-0.2180236 0 -4.078382 
4.694581 -0 0.7230125 
-3.656306 -0 2.285452 
-2.406436 -0 3.6467 
-4.433856 -0 0.5382281 
-4.003947 0 -3.748876 
0.2311659 -0 4.605456 
-0.1020541 0 -3.922359 
0.814243 0 -0.2165998 
-3.833787 0 0.004862318 
-1.07641 -0 0.2257918 
3.391998 -0 1.942625 
-1.229061 -0 1.135298 
-2.926343 0 -1.890813 
0.4488404 -0 2.169137 
-1.825069 -0 1.167102 
0.772397 -0 1.650955 
2.089798 -0 4.181296 
2.868697 -0 3.350111 
2.825592 -0.005269352 2.330612 
0.2643847 0 -0.4708673 
0.1134332 0 -4.179266 
-3.585685 0 -1.341799 
3.340636 0 -3.834195 
-3.092283 -0 4.827699 
4.489595 0 -0.1185385 
-4.362078 -0 0.5556261 
-1.532801 -0 1.010809 
-3.464363 0 -0.9560978 
3.597655 -1.727416e-05 2.936095 
-4.383656 0 -4.895393 
-1.787499 -0 1.040822 
0.1327334 -0 4.841075 
4.84341 -0 3.881039 
-3.831473 -0 0.7713131 
-3.001139 0 -2.339224 
-3.695387 0 -1.162827 
4.622286 0 -0.8367054 
2.650928 -0 1.128484 
-3.654883 -0 3.801589 
3.459831 -0 3.591213 
4.052313 -0 3.646314 
-1.378906 0 -0.4333677 
1.936199 -0 4.258913 
-2.847512 -0 2.896338 
2.916163 0 -4.547862 
2.5475 0 -0.06129911 
-1.511142 0 -0.6306914 
4.389616 0 -3.31952 
-0.0669015 -0 4.664771 
3.885906 0 -3.110361 
3.390827 -0 4.883901 
-1.805923 -0 1.749726 
-2.046834 -0 4.111044 
-1.139705 0 -4.26944 
1.354291 0 -3.925097 
3.249808 -0 0.130041 
4.410386 -0 1.337548 
-3.292551 0 -1.625314 
-2.641434 0 -3.669021 
3.195565 0 -0.7741561 
2.75545 -0 4.806298 
-4.761004 0 -0.2013902 
1.29957 0 -4.340785 
3.326341 -0 0.1487736 
2.091642 -0 4.19053 
4.819363 0 -3.13954 
-1.389411 0 -2.16103 
0.211454 0 -3.81431 
-1.423489 -0 3.020796 
-3.462141 -0 0.6085773 
4.807724 0 -0.3443143 
-0.5786458 -0 2.184051 
-1.67342 0 -3.937797 
4.182778 -0 2.376778 
-2.496064 0 -1.310164 
1.566216 0 -2.640417 
-4.974452 0 -3.605461 
2.646737 -0 0.5799401 
3.674069 0 -0.2032131 
3.676394 0 -2.887057 
4.142264 -0 2.403971 
-0.03106604 0 -3.212058 
3.80099 -0 0.3512453 
-4.723287 -0 0.5882281 
2.636682 0 -4.00997 
4.741376 -0 4.003975 
-2.122092 0 -0.5513021 
4.833763 -0 1.603271 
4.237378 -0 3.735361 
-1.354085 0 -3.503746 
2.469649 0 -4.166624 
0.4149917 -0 1.390116 
-2.008543 0 -4.134121 
1.038481 -0 1.73792 
1.377004 -0 3.709014 
3.748194 0 -1.24977 
1.652124 0 -2.707375 
4.733558 0 -2.052597 
-1.444285 0 -2.419727 
1.697664 0 -4.596171 
-1.871192 -0 0.219134 
2.994609 -0.001815958 2.478181 
-1.040884 -0 1.90768 
0.01082656 -0 1.62446 
-2.017465 -0 0.4223775 
3.462682 0 -4.074072 
1.797915 -0 2.878901 
-0.4651258 0 -3.256824 
-0.5085114 -0 3.346233 
-1.059945 0 -4.775255 
-4.319893 0 -2.705366 
3.741156 0 -1.227269 
0.2507165 0 -2.786911 
1.295302 0 -1.515374 
3.02985 0 -3.538025 
-2.742713 -0 4.019814 
-0.8245806 0 -2.374119 
-0.8214951 -0.0006026635 2.234654 
-2.878746 0 -2.362517 
-2.046443 -0 2.691862 
4.163335 -0 1.06839 
0.517109 -0 1.59806 
1.673599 0 -3.16683 
-3.493142 -0 0.7622419 
-1.778995 -0 3.003654 
-4.301884 -0 3.236172 
3.91145 -0 0.3546906 
4.100214 0 -2.347446 
-1.27546 -0.002239186 2.08092 
0.5377979 -0 3.905562 
2.294708 -0 4.524571 
3.186819 0 -3.523622 
-1.01959 0 -4.807418 
-1.998022 -0 4.186126 
-0.8520921 0 -1.473376 
0.3515561 0 -4.893953 
0.3476943 0 -3.547855 
-4.949725 0 -4.341715 
0.628896 -0 3.384435 
2.488973 -0 2.422774 
-0.7123911 -0 1.549288 
-2.343843 0 -3.502577 
-2.533895 0 -3.810915 
-0.5141008 0 -1.294495 
-1.55107 -0 3.079958 
4.934161 -0 1.242999 
-2.371117 -0 1.689762 
3.95855 -0 3.924024 
3.593869 -0 0.09647216 
4.193391 -0 4.198429 
2.433806 -0 1.17964 
-4.731445 -0 1.081941 
-2.437068 -0 4.715216 
-3.029452 -0 2.829385 
1.753241 0 -4.594404 
-3.134907 -0.0008603814 0.5398107 
4.82473 0 -2.004887 
3.153895 -0 2.249467 
-2.682383 -0 1.622999 
1.749191 -0 1.405118 
0.5572478 -0 3.573604 
3.965407 -0 0.1330295 
0.3080301 -0 3.99743 
-0.214276 0 -3.02627 
-3.073567 0 -3.610768 
0.9277665 0 -2.139611 
1.271662 0 -1.802873 
-2.453701 0 -4.166354 
-4.637637 0 -4.118342 
-0.8667636 -0 1.826316 
-0.4712565 0 -2.313124 
-2.684373 0 -3.840683 
-4.174144 -0 3.025454 
-3.89988 -0 3.516634 
-0.2398043 0 -2.138611 
2.255311 0 -4.686613 
1.714064 0 -2.588754 
-4.024043 0 -3.045203 
-1.232265 0 -2.974211 
1.436034 0 -4.334789 
1.5976 -0 3.975754 
-3.796219 -0 2.263942 
0.8331864 -0 3.923832 
-4.03543 -0 1.785255 
-1.662313 0 -1.820386 
0.9956498 -0 1.855348 
4.668117 0 -2.650174 
2.024232 -0 2.060875 
2.940119 -0 0.1858852 
-3.302675 -0 3.575814 
0.5236899 0 -0.9598536 
3.709896 0 -0.5266004 
-4.124249 -0 3.867807 
-2.801363 0 -4.906482 
3.989353 -0 2.327106 
-1.076764 0 -2.042232 
-3.446314 0 -1.570953 
-2.720051 0 -2.015746 
-3.636198 0 -0.3104484 
-1.77775 -0 1.997511 
1.178235 0 -1.906175 
2.602617 0 -3.531094 
1.763535 -0 3.164123 
1.341696 0 -0.864334 
-3.94147 0 -0.05640528 
-3.941555 -0 1.025692 
-1.644181 -3.280642e-05 -1.948572 
0.6553955 0 -1.223825 
-4.913823 -0 2.117158 
0.4470056 0 -0.8627553 
2.288748 0 -3.444228 
0.3448478 0 -0.5756505 
4.212357 -0 2.497868 
1.317577 -0 4.902138 
-0.03079554 -0 0.06845666 
2.51846 0 -1.314694 
-2.936529 -0 0.3210386 
2.85065 -0.0001863118 -1.504112 
2.430208 0 -1.229587 
-3.022852 -0 0.05374985 
-0.1842194 -0 1.111036 
-2.603727 0 -1.596261 
2.640775 -0 0.6705934 
3.823299 -0 2.943137 
-4.088602 -0 2.167587 
2.922879 -0 3.906381 
0.5484935 0 -1.64195 
0.2968023 -0 4.795383 
3.752255 0 -0.3409773 
0.9893439 -0 2.044702 
4.381608 -0 1.566716 
-2.828172 -0 1.523259 
-4.828699 -0 0.1800688 
3.029649 0 -3.032876 
-1.970824 -0.001919158 -2.344519 
0.8852026 0 -1.257108 
-0.9006177 -0 2.801995 
-3.005032 0 0.01746573 
-3.179589 -0 4.760479 
4.392381 0 -4.736478 
-4.681694 -0 2.635595 
4.180061 -0 3.180179 
4.706434 0 -3.598018 
-2.787735 -0 3.273564 
1.850014 -0 2.618402 
0.8344315 -0 1.083091 
-4.046101 -0 3.15512 
-3.850328 0 -4.190724 
4.720117 0 -4.098766 
-1.212153 0 -0.1064688 
2.94671 -0 4.949409 
-2.058464 -0 2.680379 
-3.631512 -0 3.749572 
0.6275024 0 -3.548744 
-3.66428 0 -2.740232 
-1.495032 -0 4.362041 
1.063736 -0 2.593163 
2.449355 -0.0008432974 1.967455 
2.639132 0 -1.065444 
-1.403392 0 -4.170112 
3.279513 -0 2.992334 
3.803338 -0 0.4208448 
3.062813 -0 1.559345 
-1.044352 0 -3.452765 
3.215654 0 -1.378352 
-1.26551 0 -2.630961 
3.174229 -0 4.433541 
1.010251 0 -3.347008 
1.989442 0 -4.861702 
-4.05166 -0 2.081498 
-3.615622 -0 2.893601 
-4.92452 0 -1.447088 
2.347555 0 -0.2861728 
1.793674 0 -2.044988 
0.844126 -0 4.578755 
-0.0002538986 -0 2.514001 
-0.3194549 -0 4.437429 
-0.05659326 0 -1.870572 
-0.456714 0 -4.825393 
0.1886053 0 -1.45575 
-0.6164684 -0 2.171381 
-2.187734 0 -3.29228 
-4.314793 0 -0.2273817 
-4.177133 0 -0.001746015 
1.366609 -0 4.663774 
-1.618804 0 -3.304636 
-0.1783514 0 -2.978709 
-4.574329 -0 2.190314 
3.372373 -0 4.252824 
-3.146969 0 -2.004148 
-1.092203 -0 1.545578 
-2.627086 0 -3.02773 
1.998937 -0 4.167811 
-0.2126812 0 -3.126541 
-0.4980259 0 -4.163286 
1.556657 0 -4.092072 
2.598012 0 -3.72866 
-3.927567 -0 2.110557 
3.935574 -0 3.366458 
-0.03621094 0 -4.042586 
-2.337348 0 -2.067619 
-2.086803 0 -3.528521 
3.311149 0 -3.70946 
2.315725 0 -0.1583279 
1.785738 -0 0.1621624 
-0.3795381 0 -3.497075 
-3.610079 -0 3.701636 
3.732647 -0 1.365237 
-0.4645757 0 -4.247594 
-3.829094 0 -3.918274 
1.490725 -0 4.450421 
-3.276261 0 -4.874635 
-1.826715 0 -1.273479 
-3.646405 0 -2.254517 
0.02897386 -0 1.606445 
-1.685178 -0 0.3746061 
-4.75734 -0 4.733319 
-3.236921 0 -3.942995 
-4.513065 -0 0.08375619 
3.285214 0 -1.5331 
-1.79866 0 -2.777468 
0.836668 -0 3.345331 
2.38822 0 -1.173966 
-2.461198 -0 0.05298853 
-4.651502 0 -4.793049 
-4.319636 0 -3.111635 
-2.598146 0 -0.09541069 
-0.6510588 0 -3.443988 
-2.096909 -0 0.8747752 
4.483385 0 -3.438222 
1.570679 -0 0.1553229 
2.446255 0 -3.362412 
3.654849 0 -4.84482 
2.624288 0 -3.278496 
-2.145359 -0.003023951 -2.370017 
-2.579687 -0 2.79305 
-0.2456109 0 -0.0720643 
-1.6234 -0 0.9443705 
1.435379 -0 3.7714 
-3.518562 0 -0.9575228 
3.711905 -0 4.381085 
-4.078909 -0 4.289172 
1.458129 0 -0.9816919 
-4.083047 0 -3.871132 
0.5106126 -0 1.870123 
3.18316 -0 4.245223 
0.5120531 0 -3.794048 
-2.325662 -0 2.282655 
-4.163162 0 -1.346709 
3.731955 0 -0.1491234 
-3.954479 -0 3.687504 
-1.713072 -0 0.3957464 
-2.291893 -0 3.125579 
4.171544 0 -4.416527 
3.3389 -0 3.394053 
-4.364249 -0 0.8287514 
-3.190672 0 -3.837205 
-4.139862 -0 3.050876 
-3.422875 0 -1.133718 
-3.615183 -0 0.456989 
1.491579 0 -3.568829 
-1.686843 0 -4.277345 
1.409464 -0 2.750481 
3.440963 -0 1.613319 
-1.7228 -0 0.7008622 
2.727822 0 -0.466782 
-2.889001 -0 2.84644 
2.391676 0 -2.35995 
-3.041233 0 -0.056706 
-1.693126 -0 1.090021 
1.537846 -0 2.984867 
1.942717 -0 4.967305 
-1.354046 -0 4.31058 
-2.859934 -0 2.553039 
0.1272921 0 -1.254073 
-4.035668 0 -0.736702 
3.115564 0 -0.3528989 
-1.986066 0 -3.54273 
-3.935128 -0 1.559562 
-0.08370024 -0.001407451 -0.5114991 
3.297255 -0 3.211452 
-2.023256 0 -1.679675 
0.7287553 -0 2.461178 
-3.969501 -0 1.353594 
4.843842 0 -0.2765511 
1.836748 -0 1.703552 
-4.538884 -0 3.843934 
0.3634099 0 -1.046293 
-2.136558 -0 1.798889 
-2.663445 -0 2.87238 
3.000599 -0 3.821323 
-1.249579 0 -0.196239 
2.116442 -0 1.55629 
4.062143 0 -2.149269 
0.8794112 -0 3.843459 
1.53817 -0 1.753081 
0.9577306 0 -4.355508 
0.138822 0 -2.426203 
-4.872041 0 -0.4879557 
-4.298901 -0 3.007485 
-2.054404 0 -0.2714539 
-0.5464557 0 -0.2983361 
-0.03308112 -0 3.745787 
-1.489621 0 -2.635571 
-4.819335 -0 1.379302 
-0.8869252 -0 0.1393432 
3.854128 -0 3.976991 
-3.28982 -0 0.2422376 
1.544638 -0 4.664991 
-1.196173 0 -0.5731902 
3.522087 0 -4.156038 
-3.184122 -0.002840987 -3.292857 
-3.18882 0 -0.8942646 
1.951096 0 -0.9372627 
-3.947169 0 -1.296344 
-1.936788 -0 3.598524 
3.261831 0 -4.853262 
2.892944 0 -1.193675 
2.690499 -0.003019111 2.26041 
-0.6442423 0 -0.1183713 
0.43239 0 -1.743925 
4.653958 -0 4.977933 
3.604746 -0 1.879968 
-2.87832 0 -3.782078 
0.8001535 -0 4.409023 
4.965443 0 -2.598013 
4.559448 -0 1.437229 
0.880958 0 -2.928627 
-3.076896 0 -0.1090963 
3.917359 0 -0.9929347 
1.871129 0 -4.569962 
-4.02424 0 -1.371065 
-2.977016 -0 3.571896 
1.81119 -0 3.557276 
-3.975723 0 -3.581373 
0.9370863 -0 4.629203 
-2.162207 -0 0.7405105 
0.01382064 -0 1.465195 
1.495578 0 -0.1144292 
1.351888 -0 3.569167 
1.977807 -0 0.9072471 
-1.330405 0 -2.00743 
-0.3524367 0 -1.575927 
-1.398706 -0 4.41204 
-4.07798 0 -3.195254 
-2.762256 -0 3.750276 
0.5469628 -0 1.010297 
-2.167762 0 -0.1429749 
-2.722421 -0 2.427287 
2.883122 -0 0.4252402 
-4.072512 0 -3.60177 
3.03724 0 -2.497825 
-4.38917 0 -1.068435 
-3.885047 0 -3.987554 
4.783265 -0 3.703461 
-2.594319 -0 2.052923 
-3.477009 0 -4.766887 
2.977197 0 -2.613746 
0.2492221 -0 2.097337 
4.390766 0 -0.5026007 
-4.314817 -0 2.24355 
-0.913011 -0 3.100908 
-2.017025 -0 4.294684 
0.1793876 -0 4.462719 
-4.866163 0 -2.918095 
-0.389007 0 -0.3134957 
3.337139 -0 4.388819 
1.185472 -0 2.759479 
-2.287292 -0 0.875525 
3.834457 -0 4.931781 
2.272902 0 -0.9110995 
-0.5589285 -0 3.830075 
3.737546 0 -1.106796 
-2.202456 -0 4.33409 
-1.938579 -0 0.11282 
-0.8650928 -0 1.746843 
-3.58365 0 -1.282689 
1.474805 -0 2.496161 
2.550024 -0 1.436228 
-1.456983 0 -0.1463919 
-1.181661 0 -1.247936 
0.920404 -0 3.392957 
-1.31277 -0 3.501081 
1.3656 0 -2.229688 
-4.807522 -0 0.9360652 
-3.138964 -0 3.513923 
-0.1325054 -0 1.863151 
-0.2383296 -0 4.251347 
4.102201 0 -2.032047 
-0.880531 0 -0.3013991 
3.782079 0 -0.7414444 
-4.228859 -0 4.456378 
-3.961694 -0 3.818959 
3.580183 -0 2.067882 
-1.270663 0 -4.559296 
0.9460863 0 -3.635608 
-0.3485178 0 -3.849404 
0.304013 -0 2.215369 
-1.545857 -0 0.985557 
2.836652 -0 1.819206 
1.89649 0 -3.235596 
3.967185 0 -2.337532 
4.382785 -0 1.99003 
-4.303088 -0 2.660636 
1.011151 -0 3.229545 
-4.06924 -0 2.703956 
-1.867544 0 -0.8146706 
3.941259 0 -0.9335179 
2.384691 -0 2.260866 
1.460482 -0 4.7287 
-3.322069 -0 2.242244 
1.309635 0 -4.707894 
-4.948156 -0 0.1826432 
1.004398 -0 0.4050977 
-4.581658 0 -0.9631064 
