ply
format ascii 1.0
comment VCGLIB generated
element vertex 2034
property float x
property float y
property float z
element face 0
property list uchar int vertex_indices
end_header
1.369202 -0.3323387 0 
2.347677 -1.045771 0 
3.458282 2.974531 0 
1.726719 2.688896 0 
-3.959555 4.590428 0 
-0.5608631 -0.5881403 0.04380075 
4.252209 0.9771523 0 
-3.423586 -4.344802 0 
2.859525 2.533853 0 
-2.565367 -1.115626 0 
4.810837 -1.11035 0 
-4.992527 0.04578677 0 
-4.253192 4.418148 0 
2.568853 -0.6816835 0 
1.047376 -0.6753929 0 
0.6826928 1.006211 0.0002807295 
1.982507 4.679881 0 
2.789716 4.260507 0 
-2.140202 -0.519811 0 
0.9578565 3.233632 0 
4.070391 3.363512 0 
-2.557587 3.230327 0 
4.130094 0.264535 0 
-3.9233 4.685163 0 
-1.175834 4.363529 0 
0.5482336 1.152043 0.0001422792 
-1.56189 -3.006741 0 
3.210622 -3.708602 0.02296528 
4.379786 0.8893968 0 
-1.541788 -3.496389 0 
0.7071466 4.810155 0 
-0.4279763 -4.354144 0 
-4.917388 -2.129292 0 
-2.236771 -1.828969 0 
1.837605 -1.53269 0 
-4.786694 3.077876 0 
4.72084 -4.589033 0 
-3.531476 -2.101846 0 
2.567712 3.556394 0 
-3.532817 -4.623611 0 
-0.9957381 -2.0646 0 
2.152881 0.3839763 0 
-4.043812 -4.06281 0 
-2.666687 -4.33756 0 
4.207491 0.04561832 0 
-4.100711 0.2051136 0 
1.495177 3.881982 0 
-2.872971 2.841786 0 
2.505738 -4.693777 0 
4.997397 -1.828066 0 
-0.3805909 -4.971847 0 
2.162054 -1.868071 0 
-0.5463189 -0.2188753 0.08847411 
-1.893463 3.004831 0 
-2.468945 -4.422194 0 
1.106398 2.134177 0 
-2.927553 -1.907379 0 
-1.058061 -1.009649 0.0001682985 
-1.139297 -1.973751 0 
2.547468 -2.724779 0.04931097 
1.410845 -1.258974 0 
-0.4962355 -0.7902887 0.02168609 
0.7962346 2.986057 0 
4.985555 -1.532218 0 
1.031148 -2.609448 0 
3.593488 0.4370191 0 
-2.744959 0.2407162 0 
-4.369929 -1.943524 0 
4.723049 -0.557414 0 
3.063057 3.738214 0 
-0.4703787 1.394941 0.0002842057 
1.441987 2.699651 0 
-2.14467 4.113118 0 
-0.09574726 -0.3229387 0.0731499 
1.230062 -0.6811083 0 
0.03180869 -2.723143 0 
-3.49024 -2.21606 0 
4.547559 -1.531733 0 
3.186203 2.54908 0 
0.02958891 4.245835 0 
-0.7282466 -2.698293 0 
-4.587446 1.706733 0 
4.923557 3.532057 0 
-4.114336 1.077947 0 
-1.346928 2.63676 0 
1.166954 4.454925 0 
0.9127638 4.33175 0 
-2.54812 -1.499746 0 
-1.715772 -2.290582 0 
-4.818292 -4.528342 0 
-0.07602675 -0.6699844 0.0305859 
-3.557408 -2.471164 0 
-0.2585043 2.145402 0 
2.813155 -1.255585 0 
4.037842 -4.774915 0 
1.52843 0.8256265 0 
0.146872 4.862179 0 
3.343614 -2.233811 0.06410384 
1.260078 -1.583526 0 
-0.9027897 -2.279917 0 
2.218505 1.079015 0 
3.32084 0.1001851 0 
-3.924412 -4.673029 0 
-0.4729525 -1.676169 0 
3.059935 -2.070709 0.02537542 
-0.2371112 0.3559664 0.09907652 
-3.926973 1.623256 0 
-1.405499 -1.350918 0 
0.8835001 3.648816 0 
-4.280182 -2.763534 0 
-1.190507 -3.6462 0 
-4.907465 0.3488229 0 
-4.891103 4.555209 0 
0.08150346 2.978257 0 
0.7171769 -3.961226 0 
0.5092005 4.151291 0 
-0.5600556 1.238621 0.002482949 
-2.630219 -1.922411 0 
4.033182 2.816955 0 
-1.975659 2.157654 0 
-0.6809406 2.291723 0 
-3.391318 1.922622 0 
3.78038 -4.976826 0 
-4.682388 1.084497 0 
-2.307474 -0.7205923 0 
4.926314 -0.6968537 0 
3.877858 -2.901063 0.06808446 
0.7688067 -1.260754 0 
1.293619 2.268909 0 
-3.284504 -1.41935 0 
-2.708287 1.439657 0 
-1.60258 2.827653 0 
3.553319 -2.880514 0.1526649 
-0.7151188 -3.073712 0 
4.178404 3.310894 0 
-0.4673797 -0.5287151 0.05423921 
-3.916489 -3.836658 0 
0.864713 4.497025 0 
-0.2640442 -3.934833 0 
3.384947 -4.83583 0 
-4.712145 3.163113 0 
-1.951779 -0.7070738 0 
-3.83783 -3.281853 0 
-4.050092 4.929613 0 
4.794339 2.865584 0 
0.2594535 3.600531 0 
1.571871 1.302189 0 
-1.36716 -3.634517 0 
-3.60759 1.500005 0 
1.817317 3.76614 0 
-4.292734 0.9271839 0 
2.015025 4.242962 0 
4.145425 2.515351 0 
4.877565 -4.25277 0 
2.272437 2.672611 0 
-2.2112 4.780692 0 
4.043724 2.287796 0 
-4.613346 2.112978 0 
4.564657 0.4772664 0 
-4.174271 0.7821258 0 
-1.419803 3.102647 0 
3.300268 2.3241 0 
1.765704 -0.512044 0 
-2.539888 3.335506 0 
0.09061413 1.573265 0 
-2.535736 2.589766 0 
3.549008 -2.863786 0.1538378 
-0.143703 -2.111952 0 
-1.654373 -1.856942 0 
-0.1693712 -0.5548053 0.04843026 
4.77841 -3.412292 0 
1.21981 -1.690708 0 
4.495456 -4.662606 0 
-0.7395102 1.102747 0.006435409 
3.078462 -4.446592 0 
-4.307532 -3.602213 0 
-4.612255 2.288374 0 
2.868746 -2.023516 0.01048421 
-2.852758 3.768498 0 
1.54555 -1.995929 0 
2.531748 3.294774 0 
-4.089449 0.4826158 0 
-1.13282 3.207593 0 
-1.319945 1.097465 0 
-0.7157968 3.563133 0 
3.430689 -0.0635317 0 
1.379232 1.491886 0 
0.8667709 -2.965005 0 
1.431871 -0.7021871 0 
-1.873254 -0.4555471 0 
-4.85386 2.700656 0 
1.00723 -0.1997569 9.809743e-06 
0.7417058 1.671853 0 
-1.097296 -4.491366 0 
3.329735 1.857795 0 
-4.905479 -0.9762358 0 
1.517116 -1.566922 0 
-1.13591 0.230004 0.03382746 
0.006597573 3.793728 0 
0.5977986 -2.392443 0 
-2.554045 0.476532 0 
-0.2224558 1.540482 0 
-2.483962 -2.461248 0 
-1.12918 2.311565 0 
4.793714 3.750723 0 
2.611406 -0.8162067 0 
-0.3357056 -3.132788 0 
2.787044 -1.515534 0 
-1.011515 3.976707 0 
-0.2993794 -0.4605588 0.06422725 
2.176942 -4.329326 0 
-4.029678 0.2900611 0 
-3.608783 -2.94041 0 
-1.423858 -1.682009 0 
-4.464264 2.992239 0 
1.276589 1.556961 0 
0.5874835 0.4844955 0.01275936 
0.05974729 2.786322 0 
1.828106 -2.041532 0 
1.532969 2.261538 0 
2.0585 3.398836 0 
0.5647099 -4.529973 0 
1.805009 0.6690069 0 
-0.9074601 -0.1269705 0.05982517 
-1.20088 -1.471168 0 
-2.908985 -0.6937226 0 
0.2117821 1.986467 0 
-3.43026 -0.8637674 0 
0.8491971 -0.8551749 0 
-2.108928 -2.884299 0 
1.671904 2.883758 0 
-3.171323 -3.890448 0 
2.011415 -1.999177 0 
2.614819 1.545573 0 
-1.37115 -0.494017 0.00295571 
-2.230938 -4.789485 0 
-0.7185606 2.219284 0 
-0.04049528 -4.005686 0 
0.6621035 -3.426424 0 
-4.708223 -2.456356 0 
1.169084 -0.3133892 0 
3.595772 -4.738896 0 
4.461904 3.209389 0 
-4.054479 4.547098 0 
1.55303 -0.5714967 0 
-2.94757 -2.334677 0 
-2.477838 1.547624 0 
3.271948 4.371844 0 
2.969276 -1.698121 0.0001670628 
-2.14733 0.2505452 0 
1.6445 -4.361343 0 
1.926759 -4.638209 0 
4.600644 2.545506 0 
3.519232 0.03318866 0 
-3.07368 3.841879 0 
3.588387 -3.948666 0.0003475604 
2.597666 4.103628 0 
-0.468418 0.4241483 0.09184249 
4.252526 -2.330127 0.002147425 
-4.796344 -0.3752725 0 
-1.694258 -3.339043 0 
-3.294696 2.889187 0 
3.665032 1.641544 0 
1.889815 -1.681426 0 
-0.1073465 -1.729271 0 
4.084481 -2.414393 0.01257895 
2.923331 -1.219223 0 
0.7728153 -3.913739 0 
2.142298 1.628117 0 
-3.65579 4.382011 0 
3.061566 -0.7289064 0 
1.044428 -2.275436 0 
0.3905068 0.9682048 0.005299323 
-3.018874 -3.763851 0 
-0.708061 -2.583714 0 
-4.413201 2.219358 0 
2.759827 -2.282753 0.03254607 
3.710016 4.287651 0 
-2.045337 0.8972274 0 
-4.164818 -4.373346 0 
-2.585805 2.218416 0 
2.642728 -3.546289 0.02144426 
-1.257413 -3.479152 0 
3.945962 -0.1260984 0 
-0.1870861 1.639138 0 
3.863202 2.572841 0 
-3.76804 -2.789057 0 
-0.8163507 -0.9096727 0.005668717 
-1.416791 -4.42179 0 
2.393067 4.053034 0 
-1.18813 4.328249 0 
-0.243019 3.88242 0 
-2.54626 3.244506 0 
-3.790096 3.767983 0 
2.489792 -2.055096 0.0006917672 
-2.828049 -2.617671 -0.004637151 
3.0177 2.151502 0.001119508 
4.648162 -2.838736 0 
-1.312756 -0.6627902 0.001396577 
-2.703778 -0.07894187 0 
0.8207586 -2.081198 0 
-3.162072 1.451647 0 
-1.939418 -2.127785 0 
4.384122 -1.750418 0 
-0.2156432 1.322088 0.001463776 
-2.625749 -3.548145 0 
-1.601693 -4.458697 0 
2.305399 1.441391 0 
-2.884897 4.155973 0 
0.9621042 -2.137001 0 
-0.7747169 4.376546 0 
-4.480346 3.648338 0 
-2.053923 -2.628728 0 
3.568683 4.641392 0 
2.869503 0.8408512 0 
2.62131 -1.521356 0 
-4.421499 0.9226976 0 
2.586788 -3.300898 0.04086063 
4.446275 0.6647378 0 
-0.2374661 4.477285 0 
4.264873 -2.830925 0.006230238 
3.577784 0.7708959 0 
-0.7609577 -4.662383 0 
-2.390069 1.381256 0 
-1.357035 -2.807865 0 
-1.904618 -2.867724 0 
-1.654243 -4.945108 0 
-4.435665 0.9263263 0 
0.724167 -4.33733 0 
4.700553 -2.108384 0 
-3.08269 -2.244333 -0.0006590023 
-3.910738 4.681613 0 
0.3593006 -0.06390661 0.04283676 
1.142647 0.8677971 0 
4.927989 4.938084 0 
-4.781587 -2.214675 0 
4.81162 0.6955386 0 
-3.495541 -4.144571 0 
1.319426 1.450454 0 
-2.743165 -1.250591 0 
-1.87672 -0.1981795 0 
3.096907 -0.2054629 0 
0.4503692 -1.809179 0 
-3.23657 -3.489086 0 
4.809212 0.8560963 0 
-1.236778 1.191285 0 
-0.352795 -3.847837 0 
3.151541 3.928835 0 
2.485888 1.093198 0 
-4.277816 4.662417 0 
-1.427406 4.750338 0 
0.6254229 -0.3663138 0.005858243 
4.735281 -3.810015 0 
1.118212 3.304523 0 
3.088582 3.288371 0 
4.636667 -3.857823 0 
-1.492204 -1.198385 0 
4.981343 -2.725977 0 
-0.9390534 4.05598 0 
3.045274 1.148666 0 
1.278298 0.0378726 0 
1.735434 1.751702 0 
-2.627073 -4.029756 0 
-3.39196 1.558021 0 
3.22825 4.215741 0 
1.631059 -2.455302 0 
0.5607678 -1.892075 0 
-2.176432 -1.738582 0 
-2.011995 -1.086995 0 
2.295334 1.437562 0 
-4.940334 4.506744 0 
4.553039 -1.25765 0 
-0.3215482 -3.548745 0 
2.219704 0.5771169 0 
3.186362 4.271328 0 
-2.987258 -4.12013 0 
0.2380384 0.5819186 0.04025792 
2.745951 -4.869503 0 
-1.253067 -4.422083 0 
3.960469 3.614621 0 
-2.539649 -4.879644 0 
-1.74605 4.695914 0 
3.965326 4.185222 0 
-2.525383 -3.071676 -9.394097e-07 
4.581245 2.976548 0 
-4.589122 2.822248 0 
4.324159 4.475793 0 
-3.831253 -2.48105 0 
4.723619 -2.518082 0 
3.431872 -4.360681 0 
-3.057865 -2.237526 0 
3.204602 1.412971 0 
1.370895 -4.571214 0 
-1.014591 -0.9344683 0.001257016 
-2.350544 -1.272724 0 
4.433014 0.98533 0 
0.7080672 2.489864 0 
-1.475843 -1.39544 0 
-2.894552 3.817293 0 
1.44172 4.590034 0 
-0.4048815 -2.572365 0 
-2.001308 0.07805797 0 
2.491102 0.5501106 0 
4.882997 0.8629851 0 
3.121496 1.404614 0 
-3.948413 1.074051 0 
-3.439641 -2.158597 0 
3.258228 -0.5617447 0 
3.390075 -0.3716694 0 
1.254874 1.537618 0 
-1.124072 -4.981811 0 
-2.344387 -1.895313 0 
-2.3606 2.175344 0 
3.198128 3.495919 0 
-3.963307 -2.840039 0 
0.9817376 -1.450211 0 
-1.902271 -2.571062 0 
-1.329101 0.3609872 0.01093449 
-2.852349 -0.1629411 0 
-3.712846 3.578881 0 
3.237113 4.145977 0 
4.884635 -3.749781 0 
3.459831 1.286063 0 
-0.4831825 -4.026861 0 
3.585416 4.669741 0 
2.612938 3.242796 0 
2.938769 -1.615126 0 
0.01381824 0.5453075 0.06482083 
-3.96203 -4.65503 0 
-3.856667 2.651247 0 
-0.1195917 0.4729232 0.08205117 
-1.514536 3.62868 0 
0.6938908 -4.73722 0 
0.876783 -0.7847824 0 
-2.938977 -3.297339 0 
1.376273 0.2163399 0 
-3.31455 -3.642742 0 
-4.098009 -4.588736 0 
-4.334673 -0.4450126 0 
-4.52654 -4.553922 0 
-0.924152 -4.04341 0 
1.229375 -3.982437 0 
1.537117 -0.7559289 0 
1.610917 -3.849734 0 
3.169576 -0.515792 0 
4.584884 -2.638994 0 
-2.565125 -1.610461 0 
3.453036 -3.264447 0.115837 
3.714771 1.115074 0 
-1.995965 -4.164645 0 
4.742762 4.046589 0 
-1.981194 -1.341633 0 
-1.672865 4.837086 0 
-1.752692 4.04475 0 
2.33666 -2.381726 0.004847382 
-0.8552665 3.459375 0 
-0.6069889 4.295107 0 
-3.465553 0.9796734 0 
-0.9994275 -4.926809 0 
1.400624 -1.983617 0 
0.6637187 4.073259 0 
3.105723 -1.182235 0 
-1.905025 -1.149727 0 
2.226305 -2.946528 0.01040475 
2.870633 4.670835 0 
4.661979 2.868556 0 
2.818074 4.832787 0 
-2.225434 -3.889467 0 
-3.904407 0.3042308 0 
-2.680036 3.957944 0 
3.129607 2.303044 0 
-1.053403 -3.980871 0 
2.706655 -4.089141 7.002549e-05 
-3.728407 -3.249225 0 
-0.2334204 -0.05785444 0.1047274 
-3.807042 -0.7086166 0 
-0.5205323 4.153494 0 
2.086552 3.161227 0 
4.490744 3.749308 0 
2.575439 -2.774995 0.05821738 
1.969117 1.947091 0 
-1.9468 -1.79423 0 
-1.100967 3.780188 0 
4.436316 -3.821192 0 
2.799461 -0.03623749 0 
0.612556 -4.469074 0 
-0.5762194 -1.313425 0 
-2.877904 1.752642 0 
0.8012799 -2.2187 0 
3.518525 0.166217 0 
-2.140137 0.1850372 0 
1.665999 -3.315891 0 
2.603362 -4.767292 0 
-2.760958 -3.875648 0 
-2.014095 2.647103 0 
-2.746927 1.479066 0 
3.187382 3.571794 0 
-2.735416 -3.604609 0 
0.7349234 1.492598 0 
-2.583956 -3.846909 0 
1.086184 -4.979104 0 
-2.787565 -1.791879 0 
3.125617 -4.773548 0 
-0.5779119 -0.1012196 0.09560008 
2.823768 3.098422 0 
3.59776 4.29915 0 
4.04926 1.498047 0 
-4.378845 -3.411593 0 
-3.901752 4.4774 0 
-1.458852 3.39948 0 
0.1078483 3.895812 0 
-3.681052 -1.586193 0 
-3.235161 -3.486162 0 
-1.810305 3.997372 0 
0.8382049 -3.002534 0 
-2.348135 -2.798913 0 
-1.162051 -3.87645 0 
3.132234 2.941308 0 
1.652335 1.375873 0 
-1.246834 -2.572811 0 
1.301404 0.1312688 0 
1.967084 -4.297413 0 
-4.275749 2.107012 0 
3.143289 0.9422025 0 
0.772729 0.6473248 0.001932484 
2.064315 -3.948059 0 
2.464365 -2.694778 0.0320926 
-2.443461 -4.780288 0 
-4.358397 2.255913 0 
1.938605 -1.821714 0 
1.086698 -3.303745 0 
-4.481627 -4.544524 0 
1.399843 2.718148 0 
-4.541438 1.134228 0 
-4.443842 1.154804 0 
-4.622748 -4.84257 0 
-3.760044 1.475371 0 
-1.902352 2.171496 0 
-4.336991 -3.228067 0 
-1.918797 -0.2960181 0 
1.549138 2.494158 0 
1.93011 1.642238 0 
-2.134677 -4.244378 0 
-2.957386 3.577628 0 
-0.129951 0.8897121 0.03243679 
-2.441416 1.39732 0 
-2.613728 -0.9980975 0 
2.80559 2.399038 0 
4.375214 2.427537 0 
4.099273 1.506788 0 
2.357609 -4.186122 0 
-4.801045 1.754999 0 
-4.173774 2.482955 0 
0.389849 -0.1646198 0.03513464 
-1.393067 -1.296806 0 
-2.491605 -2.715657 0 
4.355738 0.09339574 0 
4.994244 2.908039 0 
-2.792815 -4.553171 0 
2.833533 0.5983031 0 
-1.094301 2.785322 0 
-1.87385 0.1822547 0 
1.960282 -1.140092 0 
4.33727 -2.983408 0.002664886 
-3.762344 -2.939886 0 
1.563264 1.461017 0 
2.105905 -3.262372 0.003021214 
1.125689 -2.090394 0 
3.015339 4.705734 0 
-1.503408 3.423965 0 
-0.9831289 0.8575543 0.01276031 
-0.1322199 -0.1902915 0.08911812 
0.8776459 3.891963 0 
-1.239857 1.203536 0 
-1.527543 2.015417 0 
-0.1402561 -3.100564 0 
2.391261 -2.714311 0.02253246 
-3.051306 0.8847111 0 
3.217864 2.590246 0 
-2.663667 -2.012684 0 
-2.196527 -4.456102 0 
-1.907143 2.782217 0 
3.689246 -2.762653 0.1164155 
-3.715297 0.6604534 0 
-1.740861 0.4060914 0 
-2.02313 -2.22298 0 
-1.270185 1.707866 0 
-0.7111549 -0.5821137 0.0372733 
-4.387862 0.03859225 0 
-0.2327109 2.788201 0 
-3.922736 2.100933 0 
-2.644933 -0.1823411 0 
4.634427 3.980874 0 
-1.849313 -4.317738 0 
-3.754153 3.140026 0 
2.749968 -2.902125 0.1074924 
0.9817795 4.125459 0 
-1.072957 -3.952715 0 
0.8315178 0.2378409 0.002648852 
3.213714 1.398762 0 
-4.340903 1.567622 0 
-3.019683 -1.08571 0 
-3.291484 -0.3848525 0 
1.859743 -2.804074 9.692223e-05 
3.547626 -2.710937 0.146391 
-0.8486438 -1.346984 0 
-0.491524 -3.132409 0 
-4.520506 -2.085605 0 
2.98876 -2.613864 0.1383042 
-1.447793 -1.254166 0 
0.4381126 1.749271 0 
0.09915 4.847458 0 
-0.7665063 -2.770742 0 
4.088756 1.922547 0 
-3.479409 0.334296 0 
0.1592214 -0.1226971 0.06558744 
4.444788 0.1148874 0 
0.5308259 1.19762 9.032297e-05 
-0.3516172 -0.5718096 0.04985067 
-3.314236 -3.600477 0 
0.9114817 1.624351 0 
-1.40355 -1.49545 0 
1.07579 3.249727 0 
2.778468 4.482111 0 
-0.4733444 2.709248 0 
1.301772 -4.156245 0 
2.454979 1.218266 0 
-0.4673169 4.476234 0 
-0.09734274 3.369571 0 
-0.7573255 4.999896 0 
2.527034 -4.169663 0 
1.615229 -1.054478 0 
-1.826445 -0.6057255 0 
3.333992 0.5937107 0 
-1.337086 3.928774 0 
0.5339451 -2.248487 0 
-4.190558 2.477018 0 
2.360815 2.400776 0 
3.718495 -4.993953 0 
1.462969 -4.557264 0 
-4.505224 0.03295626 0 
-0.9193159 2.111627 0 
0.4349713 -3.162147 0 
3.837656 2.603424 0 
2.041722 -2.504312 0.0005196644 
-2.844596 3.099607 0 
1.101608 -0.04167962 0 
4.624564 -0.7472582 0 
-2.768775 2.999126 0 
4.200638 4.554377 0 
-0.6125903 -4.835497 0 
1.750648 -3.149819 0 
0.4478349 -0.5455176 0.009066407 
0.6720005 -4.821621 0 
1.657226 -3.928795 0 
3.237606 -0.5623358 0 
0.357868 4.622335 0 
-2.106156 2.917348 0 
3.152964 -2.327224 0.08535109 
1.023503 -3.544561 0 
-1.43915 0.7148991 0.0003531115 
-4.731297 2.399078 0 
3.324986 -0.8648255 0 
-2.791718 0.497085 0 
-1.907979 2.504138 0 
-0.4611616 -0.6398404 0.03983737 
2.46671 -1.307115 0 
-2.903587 0.798789 0 
-0.6862856 -1.080693 0.001343109 
3.014864 4.27862 0 
-4.429938 -4.927541 0 
2.956706 -2.33376 0.06763606 
0.2736085 2.676601 0 
3.406701 -2.633893 0.1580223 
-0.6849624 2.267473 0 
3.335686 0.03590786 0 
2.656434 -1.722415 0 
4.437072 2.38147 0 
-2.593756 -0.3841077 0 
3.384832 -4.737168 0 
1.072354 3.375117 0 
-2.401854 1.408171 0 
2.353034 -1.683617 0 
1.963001 3.456824 0 
-2.45028 4.713793 0 
4.106794 -0.01782424 0 
3.55207 -4.960298 0 
-2.897252 -2.786861 0 
1.323265 4.456705 0 
-0.7454675 1.206783 0.001894621 
-1.129483 -2.117385 0 
-0.5778183 -4.944071 0 
3.514366 -0.6279555 0 
-2.17381 1.988401 0 
3.002541 2.649709 0 
3.975115 -3.575152 0.005140521 
4.58761 4.377142 0 
-4.62341 -0.5790942 0 
4.996809 0.8084407 0 
2.115918 4.955218 0 
0.302243 2.858768 0 
0.5638341 -0.6391824 0.001332129 
-0.5494699 -2.147933 0 
-3.939452 4.467455 0 
2.355124 3.956153 0 
-3.241462 -0.05660521 0 
-2.548583 3.531356 0 
0.4771771 -3.673932 0 
-2.692364 -1.934173 0 
1.978449 2.411778 0 
-2.076227 3.175354 0 
1.956285 3.506442 0 
-2.211048 2.824312 0 
-1.086318 2.802381 0 
-3.85773 -2.244916 0 
4.113567 -3.03537 0.01716048 
1.561799 1.418966 0 
0.7649353 3.180706 0 
-3.550887 -2.713778 0 
2.681723 3.988854 0 
-3.969043 0.8245507 0 
0.854548 0.6681283 0.0005263059 
0.6855354 4.074636 0 
-0.7676941 -3.156716 0 
4.197369 2.805743 0 
-2.554009 -0.2743551 0 
2.67978 3.262187 0 
3.008184 0.6556294 0 
3.086575 0.2941684 0 
-1.021212 -4.664156 0 
-4.830141 -1.854113 0 
0.2380586 0.7908331 0.02296898 
2.856424 0.6918223 0 
-4.487243 2.323172 0 
0.9064475 -3.295166 0 
-0.4536191 -0.724489 0.02960218 
4.525198 -0.752466 0 
-2.254875 -1.980567 0 
-4.543472 -1.792617 0 
-3.415205 -2.58409 0 
-1.083542 4.982724 0 
-4.596094 -2.956208 0 
1.270951 -3.500077 0 
3.95878 2.526146 0 
-4.893094 0.3981474 0 
-4.62153 -0.05865359 0 
1.203056 1.572333 0 
0.3610096 0.5447481 0.03058853 
3.027745 -2.502262 0.1198295 
-3.102254 -0.7132266 0 
3.356414 -3.276757 0.1231136 
-2.881552 1.285877 0 
2.642509 -1.815118 0 
1.635603 -4.486425 0 
3.79886 -1.878854 0.003549446 
-4.316401 2.042476 0 
-1.363646 3.593128 0 
3.233087 0.1130545 0 
0.4070072 -2.307501 0 
-3.400028 1.820529 0 
4.943514 0.8732202 0 
2.425104 2.718011 0 
-1.703036 1.130837 0 
-3.343851 -2.297213 0 
1.854406 2.657488 0 
-3.921495 -3.868513 0 
-2.036454 -1.627782 0 
4.318062 -1.089065 0 
-2.10585 -1.441172 0 
-2.516804 1.957479 0 
-4.364383 4.660794 0 
-4.882335 3.006182 0 
-3.462121 -1.270664 0 
-1.717053 3.62855 0 
3.073594 -1.559103 1.326371e-05 
2.613507 4.910897 0 
0.3165626 -2.597342 0 
1.019593 4.151558 0 
-1.303204 -4.923975 0 
-2.01967 -4.223887 0 
-2.709065 2.460973 0 
2.103615 -3.72323 0 
-1.575197 -4.797564 0 
2.254239 4.717745 0 
0.1440809 -4.382761 0 
3.08741 0.5077276 0 
2.533141 -0.9583879 0 
1.915152 1.971748 0 
-3.833057 3.567645 0 
2.848548 4.755702 0 
1.756017 -1.810297 0 
-2.337968 2.432275 0 
3.536855 3.495788 0 
2.760792 -3.406686 0.05197231 
2.637193 -0.8345767 0 
-2.847615 -0.5229642 0 
3.370082 -4.862627 0 
-1.942683 1.30391 0 
-4.552037 -4.758824 0 
-0.7341642 -0.1635954 0.07770337 
4.430887 4.143849 0 
-3.789026 -1.936291 0 
2.485047 -3.507906 0.01402011 
4.769356 -0.4227372 0 
-1.336708 -1.980862 0 
-1.359439 -1.233258 0 
2.692408 1.103748 0 
0.540176 -2.47718 0 
-3.954517 4.013327 0 
-2.455467 -2.105671 0 
2.811124 -2.537066 0.08632489 
-2.742354 -0.8579698 0 
4.84069 -4.594283 0 
-1.678375 -0.4340443 0 
-4.837387 3.040788 0 
-3.232222 -2.527767 0 
-2.919567 2.242593 0 
-0.01736888 -1.055878 0.00116751 
4.391733 -4.250701 0 
2.511768 -3.454424 0.01895912 
3.60135 -2.981175 0.1365012 
0.4766719 2.613307 0 
4.414986 2.642901 0 
-3.309314 2.971071 0 
-3.234218 -3.183958 0 
3.672445 2.597961 0 
-0.2346716 -4.893599 0 
4.535732 4.192178 0 
-4.950662 -4.367167 0 
4.73364 4.374103 0 
3.508487 3.343531 0 
2.171646 1.23286 0 
-2.817443 2.802088 0 
-3.413383 -1.401732 0 
-0.9327732 1.09487 0.002380631 
-1.597782 -3.076412 0 
-1.037128 2.64887 0 
-0.4834124 3.366201 0 
4.844182 -3.794904 0 
2.310886 0.5248224 0 
2.643869 1.278147 0 
-0.213565 3.486346 0 
4.278461 0.08341779 0 
-0.4869875 4.984308 0 
1.302308 0.05574066 0 
4.75474 -0.2472452 0 
-2.440969 -2.712281 0 
-4.053621 0.1144728 0 
0.4161194 -1.979918 0 
-3.403664 0.1486255 0 
1.51922 -1.949504 0 
2.4007 -1.055243 0 
4.08635 4.034083 0 
4.649859 -2.942961 0 
-4.257274 2.042886 0 
-0.6611916 -4.380662 0 
-0.02878121 2.897347 0 
-2.822189 -2.265585 0 
3.065876 -0.6328293 0 
-1.260389 -0.9118642 2.254737e-05 
0.4091992 2.250212 0 
2.519346 1.887367 0 
2.613282 1.474166 0 
-1.211818 3.628803 0 
-3.222201 2.901614 0 
-2.530794 -4.848544 0 
-4.444992 0.7534689 0 
1.301701 0.7335544 0 
-3.234363 3.019027 0 
-0.8464583 1.552656 0 
1.020431 -3.916051 0 
1.274467 -2.867367 0 
-3.389767 0.3667923 0 
0.5516778 -0.4284165 0.007940099 
-4.352596 -0.09589027 0 
-1.616836 -3.775618 0 
-4.459065 -3.205854 0 
-1.31541 -3.306056 0 
2.706327 -1.152082 0 
4.137831 -2.550583 0.01246511 
3.332599 -2.015452 0.02291179 
3.862849 -3.887517 0.0001232378 
-0.3109277 3.709856 0 
1.786558 4.988669 0 
-0.5250672 -4.086988 0 
0.8950722 -4.660988 0 
-4.776746 4.450587 0 
-2.023388 -2.037419 0 
-1.731228 -3.384782 0 
4.512277 -0.7620976 0 
-0.6490194 0.4456802 0.07885205 
-0.4574303 -0.9945465 0.005791939 
3.373204 -0.1986947 0 
-4.639874 -1.446191 0 
-2.888376 2.343704 0 
4.999778 -1.138225 0 
-1.901743 1.641824 0 
1.668592 -0.03095705 0 
4.509024 -2.403859 0 
0.9516024 -0.5552795 0 
1.680022 -3.290694 0 
1.291749 0.2980313 0 
2.045554 0.4866538 0 
-4.961627 1.151866 0 
-0.03279517 -0.6092969 0.03557662 
4.438828 1.716213 0 
-4.942874 -0.5611379 0 
3.98297 1.439755 0 
-1.064497 1.303909 0 
-1.908103 0.02749438 0 
1.741239 4.99799 0 
4.882637 2.792503 0 
3.083926 -3.787091 0.01302721 
-3.446162 -4.211059 0 
3.709877 -1.385908 0 
1.242604 -4.590545 0 
1.164826 -0.08688514 0 
3.585063 2.573105 0 
1.022944 2.925362 0 
-2.378443 0.001440295 0 
-4.10747 0.1101107 0 
-0.2050914 -1.415219 0 
0.9925623 3.776771 0 
0.8108761 -4.553956 0 
3.435349 -1.979781 0.01759129 
-4.025246 -2.143118 0 
2.855065 0.05089483 0 
2.175742 -2.603101 0.003987146 
-3.432311 -3.766812 0 
-1.009563 3.319142 0 
-4.528377 0.2533832 0 
4.732589 -2.582312 0 
0.0878398 1.570635 0 
3.143061 2.752267 0 
4.016534 -0.2502756 0 
-1.743219 1.231545 0 
-0.6068553 0.3140132 0.09254171 
4.307457 -0.9772084 0 
-1.61244 0.1016131 0.0005770401 
1.8817 -4.788725 0 
4.407463 -4.719463 0 
1.711231 -3.234544 0 
-2.589874 3.988906 0 
-3.755114 2.568576 0 
1.201743 -0.5977994 0 
-1.40196 -3.703872 0 
2.852597 -0.9789205 0 
1.623735 4.305434 0 
-1.403768 1.37507 0 
1.540892 -3.04011 0 
-3.564897 -3.361358 0 
-4.390737 -3.4207 0 
4.032152 4.513344 0 
0.5518486 -4.604178 0 
-2.707524 -2.789122 -0.00347558 
4.980455 3.598271 0 
1.392381 3.795568 0 
-0.2166361 0.5338597 0.08000784 
4.503397 2.839071 0 
-1.143947 -2.7954 0 
0.2525712 -2.917757 0 
-3.228787 2.767045 0 
-0.05724873 1.02641 0.01600619 
3.36241 2.583068 0 
2.275319 -2.419411 0.00376727 
-1.590171 3.425165 0 
-2.687416 -3.573738 0 
-1.490643 2.672527 0 
0.6882173 3.192045 0 
3.801062 3.492525 0 
0.1257814 3.470979 0 
-3.254699 3.000136 0 
-2.086059 -4.952754 0 
0.5745439 2.135399 0 
-1.746412 -1.783113 0 
3.711591 2.503916 0 
0.6222498 -0.3306605 0.007042551 
-0.5805708 2.568003 0 
-3.492961 -2.071281 0 
2.299613 -2.234156 0.0009832953 
1.991854 -4.093542 0 
2.902331 -3.685037 0.02073576 
3.498679 -0.6436806 0 
2.198432 0.1185969 0 
-4.940207 0.4788521 0 
1.346703 2.091829 0 
3.212496 -1.934906 0.01263153 
-1.976523 2.426179 0 
-3.421356 -1.054793 0 
-0.4190435 0.864296 0.03818875 
-3.305871 1.23482 0 
-2.414766 -4.089324 0 
0.719605 -4.260129 0 
-1.962686 4.015507 0 
2.513199 -0.2022131 0 
-3.942976 3.883305 0 
2.213113 -0.6456001 0 
0.2408579 -4.360782 0 
-1.105509 -4.126819 0 
-2.405818 -1.685776 0 
-2.666762 -2.423154 0 
-0.2588119 0.1187807 0.1101833 
1.162953 4.869081 0 
1.357212 -4.125389 0 
2.392051 1.176644 0 
-2.453973 -0.7066147 0 
-0.4414906 -1.831768 0 
-4.842084 4.69649 0 
-3.178308 -1.429017 0 
-0.8021554 -0.7632192 0.01519975 
-0.754391 4.235017 0 
2.474041 -1.779759 0 
-3.039145 2.536334 0 
1.267145 2.289347 0 
3.370556 -0.06168651 0 
1.880634 -1.34049 0 
-3.021366 1.513602 0 
0.6123564 0.8058615 0.003484566 
-4.839223 3.467978 0 
2.174743 -4.512107 0 
-1.26516 -1.633728 0 
0.3436777 -1.040393 8.080684e-07 
-0.5153657 1.506283 5.730802e-07 
-0.9644744 4.851752 0 
-1.715105 -2.008323 0 
-1.757917 -1.917897 0 
2.1721 1.520789 0 
-0.1384866 -1.950718 0 
4.684395 2.876757 0 
0.9474195 -0.5199553 0 
-0.2738842 -2.992664 0 
1.762613 2.394571 0 
-4.245071 2.485414 0 
-4.641043 4.270426 0 
-4.352211 2.8957 0 
-0.608214 -2.629456 0 
-0.5654441 4.603982 0 
2.399048 -1.300938 0 
3.45979 -4.811115 0 
-1.188547 -2.291081 0 
-4.575485 -4.323002 0 
4.910664 -1.286141 0 
0.8455248 -3.712079 0 
0.7886556 -2.914798 0 
4.909 -2.218314 0 
0.5768537 -1.975328 0 
3.74479 -2.637617 0.09233375 
-3.650965 3.034178 0 
4.251956 2.322349 0 
-4.23087 3.931775 0 
4.964173 -2.679126 0 
-0.1601447 -1.294773 0 
4.964416 4.019248 0 
2.526428 -2.216722 0.006456634 
4.55527 -0.9773554 0 
2.856223 -1.53563 0 
3.993471 4.296522 0 
-3.64634 0.9446068 0 
-2.106498 -4.592835 0 
0.3421864 3.550694 0 
1.884698 3.890079 0 
2.753903 -2.870719 0.1080521 
-1.091546 -0.552008 0.01445028 
1.16204 4.723655 0 
-0.954567 -1.086658 0.0001025505 
0.2686863 -0.5222885 0.02345807 
3.572295 -1.282785 0 
-2.992933 -3.925603 0 
0.7451213 -4.186883 0 
-1.018784 1.756811 0 
-0.6353685 -2.924171 0 
1.886299 -0.09745241 0 
2.494141 0.641142 0 
3.355239 3.641674 0 
-2.698906 -1.724208 0 
-1.41145 -4.917217 0 
-4.59806 -0.4712553 0 
2.528243 4.612006 0 
-1.588294 -0.1322763 0.0007694442 
3.087493 4.362191 0 
-1.026823 -1.108874 6.007729e-07 
0.6165994 3.269146 0 
-4.103828 -2.486749 0 
1.739147 3.130032 0 
-0.3674316 1.846868 0 
-3.143132 2.790596 0 
4.957568 0.01395961 0 
-2.890424 1.259984 0 
0.6054382 -3.984981 0 
-4.202665 -2.252977 0 
-3.551708 1.120575 0 
-1.269204 3.782663 0 
4.30905 -0.2294146 0 
3.754464 -3.519599 0.02339015 
-0.9612601 -3.834861 0 
-1.620007 -1.001522 0 
-2.186701 3.523348 0 
1.730191 -0.6130257 0 
3.955636 2.809906 0 
-4.864098 -4.148287 0 
0.9906015 3.040721 0 
-3.696409 0.7360418 0 
2.844203 -3.339667 0.07684702 
3.795861 -4.700109 0 
2.955129 -4.212745 0 
0.1098839 4.801812 0 
-4.278699 -2.19211 0 
-3.611194 -1.89547 0 
2.642956 -4.724121 0 
3.816366 1.232258 0 
3.460896 -1.70645 0.001642808 
-1.976452 2.957687 0 
3.569598 2.068573 0 
-3.402734 4.119229 0 
0.3837026 3.214809 0 
-2.924952 -3.501545 0 
-0.5082543 -1.990664 0 
-3.677671 -0.3499868 0 
0.5283228 0.9839028 0.002145849 
-4.223969 -4.411286 0 
2.700985 2.015113 0.0126386 
-0.593092 2.111047 0 
-2.758047 3.286061 0 
1.051953 -1.163781 0 
-0.8489314 1.499701 0 
-2.984727 -0.8026816 0 
2.082708 3.015014 0 
0.4923654 3.129689 0 
-2.187064 1.483577 0 
-2.888264 2.409535 0 
-3.624813 3.678294 0 
-0.7505363 -2.704035 0 
0.9945142 2.684133 0 
4.484325 -4.651461 0 
0.6988142 1.623946 0 
-3.675888 0.8977178 0 
-1.296196 -3.975864 0 
-0.4388349 1.215156 0.00464642 
-3.935849 2.073685 0 
1.389747 0.2057458 0 
-3.88699 0.9797338 0 
1.413201 -4.763168 0 
1.668824 -1.64059 0 
4.851679 1.680116 0 
-3.245519 1.36422 0 
0.1881785 4.476144 0 
1.883271 -3.589697 0 
-4.452474 -0.306778 0 
-0.5702043 3.306026 0 
2.980011 -1.272048 0 
3.008479 -1.77418 0.001211957 
-0.9465684 3.459397 0 
0.9324824 3.635868 0 
-3.877271 4.633298 0 
0.1702757 -3.867148 0 
0.459398 4.813727 0 
-0.8884101 -1.758294 0 
-1.254988 2.832666 0 
1.554257 3.253919 0 
1.584187 3.485873 0 
1.151673 -3.518279 0 
2.267162 -1.685957 0 
2.278432 2.218603 0 
-0.4023206 4.870257 0 
2.380983 -4.632035 0 
-1.91837 4.316098 0 
2.006603 -4.732056 0 
-1.543469 -1.299052 0 
1.733884 -0.2034748 0 
-2.30049 3.533231 0 
-2.21479 -2.69439 0 
-0.1248141 2.264486 0 
-1.830231 2.462212 0 
3.269874 0.4565274 0 
0.5959384 3.495428 0 
0.4435782 -3.52829 0 
-1.652496 0.2872479 6.743336e-05 
-2.774367 3.923865 0 
-4.617603 4.686739 0 
-0.8610399 -1.505804 0 
0.07495967 -4.837574 0 
-3.356168 4.987192 0 
-0.2506441 -4.093863 0 
4.847295 -2.194504 0 
1.849129 -3.42171 0 
-3.327143 -2.183703 0 
-4.912482 4.514135 0 
1.351436 0.3565094 0 
-0.8566829 -3.02548 0 
-3.475692 -0.07857356 0 
2.194064 -3.517477 0.002086239 
-2.630365 -2.19047 0 
-4.346805 3.762258 0 
-0.2863007 3.81055 0 
-0.3856816 3.9553 0 
-1.375521 -2.511222 0 
-0.4631723 4.450927 0 
1.420175 0.5432419 0 
-2.068252 -0.05035628 0 
3.479687 -0.2363943 0 
1.435685 -2.816701 0 
-3.205616 -2.550716 0 
-0.3970821 4.963536 0 
0.7154965 -1.107065 0 
-1.782203 1.150063 0 
-2.36397 -1.475673 0 
1.560673 0.581344 0 
-3.354656 3.663214 0 
-2.192605 -4.567811 0 
-4.178479 -0.4688022 0 
-0.555492 -4.423888 0 
-1.491324 2.535268 0 
-3.807265 -0.6604204 0 
-0.2324028 3.430614 0 
1.630067 -2.042249 0 
-2.888755 3.574364 0 
-3.312024 -4.115009 0 
-4.506674 4.896064 0 
1.342295 -1.641081 0 
-4.426382 -1.488852 0 
-4.427423 3.423072 0 
0.9805667 0.9856297 0 
-2.253393 -0.7245893 0 
-0.3687496 2.023169 0 
-2.778059 -3.247301 0 
4.919264 -2.504482 0 
3.750933 -3.370054 0.04450238 
-1.569512 -4.858002 0 
1.804349 -2.50492 0 
-1.666733 3.254434 0 
-0.004510123 -4.091197 0 
3.775051 1.103802 0 
1.660359 -0.3664077 0 
-3.10456 -0.9033633 0 
3.891203 -4.203962 0 
0.3807508 -0.0945885 0.0390025 
0.5855414 -2.290674 0 
3.148272 -3.6054 0.04087178 
1.223982 -3.731386 0 
-1.252706 -4.744126 0 
-0.7710592 4.679539 0 
-1.550755 -3.869847 0 
1.039475 -2.839631 0 
-2.148715 -4.275878 0 
1.048361 -0.9349383 0 
-4.649073 7.628782e-05 0 
4.018148 2.560377 0 
-1.595432 0.003999679 0.0008815444 
-1.023959 -0.3613384 0.03204465 
-2.233995 3.496121 1.778139e-05 
-1.177892 2.647758 0 
4.470078 0.4952304 0 
3.738552 2.55536 0 
-1.237589 3.396735 0 
0.3371513 3.187567 0 
0.8366747 1.713318 0 
-4.245286 -1.168542 0 
-3.720418 -3.770257 0 
0.9866856 -1.272011 0 
-4.809721 -4.873397 0 
0.7740467 -2.421057 0 
-2.063926 3.559394 0 
-0.3007726 -4.25009 0 
1.577159 3.53083 0 
3.440466 0.5421913 0 
-3.002232 -0.8831042 0 
0.212871 -3.387193 0 
-0.7467667 -2.209919 0 
-0.9122854 -4.962835 0 
0.8130881 0.3998844 0.00273942 
-0.04246721 -3.805021 0 
-4.376819 3.365016 0 
-4.357877 3.067825 0 
-0.371187 -1.628585 0 
-2.920445 0.9513248 0 
1.644125 1.494677 0 
-2.271081 -0.05631868 0 
4.832994 -4.643636 0 
-0.8479148 -3.449761 0 
1.378885 -1.878437 0 
-1.477649 -3.031956 0 
2.91542 -4.014055 0.0007374725 
2.225253 -2.60298 0.00564627 
-0.2519095 -2.811382 0 
-1.78382 2.723741 0 
-1.632035 -3.789604 0 
-3.224233 4.007118 0 
-3.463389 -4.153525 0 
-1.203758 3.17537 0 
3.50543 -3.329756 0.09185525 
-4.248051 1.63276 0 
-0.5793331 -3.008147 0 
-1.96939 4.333435 0 
-3.470866 -4.95193 0 
-4.499551 2.196183 0 
-0.001912185 0.2079788 0.09004776 
2.157413 3.737672 0 
1.220487 0.892048 0 
-3.656284 4.254648 0 
-3.921616 2.510425 0 
3.86275 2.958809 0 
-4.755503 4.898965 0 
-3.876248 -0.9982739 0 
-1.49505 1.75271 0 
-4.38424 -4.906709 0 
4.833869 -0.9968011 0 
4.672845 0.2200204 0 
-1.765206 1.201632 0 
-1.011644 2.113067 0 
0.6519681 -0.8207259 0 
3.818085 -2.42728 0.04996694 
2.162309 1.020559 0 
3.093586 1.26913 0 
0.2141886 -2.291666 0 
2.435208 0.06931699 0 
2.303838 -4.489361 0 
1.094461 -0.6738116 0 
1.545549 -0.829347 0 
4.36658 0.2054863 0 
3.528146 4.678874 0 
-1.854272 3.981087 0 
-4.852797 3.920018 0 
-2.064145 -3.484996 -0.0004400514 
-0.8806157 0.9601998 0.01087555 
-1.788629 0.9229393 0 
-4.916341 -0.8002131 0 
-4.580565 -3.574311 0 
-2.284062 3.204133 0.007931009 
1.471543 -2.864932 0 
-2.185169 -2.696877 0 
1.502522 2.698148 0 
1.699181 -3.347172 0 
-0.01149132 -4.462288 0 
4.963677 -0.1160718 0 
1.975582 -1.137796 0 
-3.290877 -0.7263157 0 
0.2651598 3.845405 0 
0.7740452 3.56582 0 
1.475142 2.556623 0 
-2.963543 3.010639 0 
-2.779351 1.219983 0 
0.4798021 2.356585 0 
1.099797 -3.903945 0 
0.08153166 1.069697 0.009148983 
-3.028932 3.280704 0 
-1.211106 2.867318 0 
2.375521 4.615685 0 
1.647377 -2.233378 0 
-0.5689585 3.673928 0 
-0.6360595 4.32794 0 
-3.009366 4.196112 0 
2.68133 -2.665089 0.07453717 
1.585534 -2.052968 0 
-3.27931 1.578258 0 
3.100131 -3.976707 0.001714868 
2.968162 -2.541299 0.1189362 
-4.64464 -3.42441 0 
1.642424 1.295247 0 
-4.803887 -4.842556 0 
0.8758428 3.068829 0 
0.9087449 -3.284045 0 
4.479435 -3.973161 0 
-1.50251 4.441436 0 
2.718279 3.227368 0 
-0.7882218 1.275667 0.0003766271 
2.143933 -1.649485 0 
-1.963912 -3.343472 0 
-2.352471 -1.96697 0 
0.4346623 4.542068 0 
-4.502788 2.265352 0 
-1.913566 3.792054 0 
-3.613209 2.558151 0 
-0.6872171 -0.3144844 0.06863119 
3.794858 -1.285589 0 
-2.176315 4.977886 0 
0.7973002 -3.424262 0 
2.426367 4.549074 0 
-3.365369 -0.09698418 0 
-1.283076 2.971203 0 
2.608598 -3.625883 0.01303162 
-1.857726 -0.1493617 0 
-0.9720207 3.707242 0 
-1.989808 -3.976187 0 
-3.736466 -2.447791 0 
-4.414131 3.820541 0 
3.111242 3.36157 0 
2.682133 -2.892916 0.08901739 
2.186396 -2.12043 0 
0.7695072 -3.997016 0 
-0.6734343 -0.4207572 0.05813367 
0.4912813 0.1245113 0.02919592 
4.132797 -3.275588 0.008405488 
-4.880055 -4.604488 0 
0.4808499 1.078689 0.00138331 
-0.3216156 -1.098204 0.001729628 
-0.788359 2.860897 0 
-0.8877753 0.7641311 0.02655876 
0.1541658 -0.05100455 0.06993426 
-3.282536 -1.701474 0 
-3.325229 -1.350569 0 
0.3041504 -1.142636 0 
-3.385803 4.498076 0 
1.212047 2.459765 0 
2.020097 -0.9333377 0 
-2.573537 0.03386835 0 
-3.270187 -3.776315 0 
4.655904 0.1038347 0 
-3.008698 2.953961 0 
-2.528612 -3.54419 0 
-2.976804 -2.805319 0 
0.7997391 4.325227 0 
4.680297 0.7314714 0 
1.174018 -1.690968 0 
-3.96184 -1.634494 0 
3.390441 -0.1630744 0 
3.429642 -0.7037042 0 
3.500058 1.494698 0 
1.318436 3.099316 0 
-2.657308 2.668503 0 
2.272757 -3.431693 0.006370637 
0.1491551 -4.718981 0 
1.654856 0.1827739 0 
-4.166788 -0.036111 0 
-0.3381426 1.282988 0.002474552 
-0.07933236 0.1751377 0.09835564 
4.619783 3.043266 0 
-1.001 -4.062292 0 
2.453192 3.46234 0 
-1.761453 3.433692 0 
1.103229 -1.823472 0 
-0.9223446 -3.631082 0 
2.825257 2.880663 0 
2.193688 4.183975 0 
-0.2295609 4.989113 0 
-0.5609862 -4.440264 0 
0.4779047 -1.926472 0 
-2.109577 -3.821346 0 
-1.850869 -2.961644 0 
4.529773 -3.476328 0 
-0.8519489 0.2979202 0.0678019 
-0.9231023 -3.139951 0 
2.012901 2.995108 0 
-2.159034 2.9431 0 
-0.6165218 -3.181894 0 
-1.319745 3.829435 0 
-0.56048 2.745267 0 
2.273019 2.029359 0 
-3.012056 -4.498098 0 
2.653569 -3.413663 0.03708263 
-3.654207 -2.596827 0 
2.459457 -1.667665 0 
-2.529392 -3.926453 0 
4.104935 -1.466473 0 
3.342446 -1.982655 0.01891324 
0.1725952 1.628539 0 
-1.127148 -0.2819811 0.02627415 
-1.223555 -0.01288755 0.02426923 
-4.55825 -1.503579 0 
-0.1321602 -0.5930005 0.04217794 
2.510848 -1.42581 0 
-3.300061 -4.112005 0 
-2.90027 -3.222503 0 
3.767857 0.08409874 0 
-0.358402 2.782095 0 
-1.870345 -2.42676 0 
-2.191283 1.642302 0 
-0.3030758 4.964422 0 
2.594429 -0.3175762 0 
-3.041312 -0.7900045 0 
0.6816946 4.005583 0 
1.351385 -1.785943 0 
4.608963 -4.98257 0 
-2.503869 1.172314 0 
-3.971606 -2.849886 0 
2.275688 0.6297813 0 
0.5308813 -2.617223 0 
-2.411115 2.333876 0 
-4.463758 3.472338 0 
4.59273 -4.47704 0 
-4.012113 -0.7670916 0 
4.106486 4.504899 0 
3.899424 -1.152706 0 
2.732198 -4.59604 0 
-2.386362 -1.723984 0 
2.846436 3.954072 0 
-2.738535 -0.474558 0 
2.562991 -2.359235 0.01928469 
1.027602 -4.618674 0 
4.839952 2.562659 0 
-3.602772 -2.916153 0 
-2.948136 1.708769 0 
3.012312 2.871594 0 
3.620535 3.00765 0 
-3.460134 -1.065525 0 
-0.09084649 -2.220184 0 
2.123947 -2.595248 0.002256906 
-3.680677 2.845366 0 
-2.965006 1.388952 0 
-0.5854012 -1.868607 0 
0.8924276 2.580726 0 
1.629873 0.395622 0 
0.2859982 -3.287529 0 
-0.4519662 4.201124 0 
2.505297 4.585651 0 
-3.802745 -0.9968916 0 
1.978654 -2.911004 0.001108207 
-4.516248 -4.902063 0 
2.222427 -4.097001 0 
2.19938 4.162911 0 
0.477407 -2.702541 0 
-4.198018 1.980256 0 
-1.683627 3.605896 0 
-3.021917 -2.620532 0 
3.185599 3.024152 0 
1.356093 -2.602173 0 
4.322641 2.041538 0 
0.6829419 -0.9699931 0 
4.349121 2.881627 0 
-4.971072 2.589548 0 
0.9057893 3.243208 0 
1.133306 2.269881 0 
-0.6982271 4.349698 0 
3.079099 -4.306484 0 
2.541934 -1.650179 0 
0.431437 0.9590914 0.004404812 
3.793503 -0.09309879 0 
1.149807 -1.506234 0 
-1.548438 1.478431 0 
-4.145433 -2.993155 0 
-2.621701 -2.483362 0 
-1.781326 4.071758 0 
-1.336689 1.925904 0 
-0.6822373 1.214532 0.002375525 
2.025334 1.085376 0 
1.167894 -1.562443 0 
2.596524 -0.01729099 0 
-0.7623348 -2.401528 0 
-1.975754 -3.872092 0 
4.216931 -1.967471 9.171257e-05 
-3.210277 0.1811621 0 
-2.641377 -0.9098239 0 
-4.182746 1.906968 0 
-2.451369 1.602644 0 
-0.4340131 2.756097 0 
-4.01846 -2.880045 0 
-4.281446 1.162261 0 
3.706433 -0.6318976 0 
3.676003 -0.1312483 0 
-1.400627 -1.162473 0 
3.499898 2.037422 0 
0.04267682 -1.814101 0 
0.4160507 -3.389203 0 
1.89191 -2.381656 0 
0.3314457 1.568283 0 
-1.994191 4.21901 0 
-4.320199 -1.456515 0 
1.782839 -3.872848 0 
-0.1684513 -2.998133 0 
4.531748 -2.746618 0 
1.466045 -4.427505 0 
4.952512 -2.384097 0 
4.080434 3.263058 0 
-2.370503 2.607979 0 
0.9732602 3.123078 0 
-3.810703 -4.741035 0 
1.782106 2.283207 0 
-0.6878381 4.588057 0 
2.761246 -0.1636854 0 
2.088372 3.9531 0 
-0.6275051 3.057136 0 
-0.4589082 -3.318164 0 
-0.8279045 4.186354 0 
-0.1415634 2.059908 0 
2.599672 -0.03457054 0 
0.9167926 -3.908764 0 
0.09127658 1.65387 0 
-4.78633 -3.982958 0 
4.71325 0.2592061 0 
-0.09981252 4.688027 0 
1.184105 -0.7263181 0 
0.5463135 -4.029059 0 
4.745376 4.393935 0 
-2.350442 -2.862716 0 
0.1447806 -1.808992 0 
3.559038 -0.2933679 0 
2.071579 4.936379 0 
3.719386 -3.623899 0.01473385 
-3.831566 -0.3868362 0 
2.429934 -0.643157 0 
2.920404 -4.812666 0 
-2.20539 1.593489 0 
1.382177 -0.6851013 0 
-2.752839 -2.493239 0 
2.114931 0.244453 0 
3.110342 -3.66184 0.03032757 
1.23349 -1.37753 0 
-1.16481 0.3870612 0.0256501 
1.746794 -3.608296 0 
4.260805 0.5456988 0 
-4.407537 -2.544729 0 
-4.128707 -4.209945 0 
-1.85103 -1.057032 0 
-3.442796 -4.854568 0 
2.545224 0.3087004 0 
-1.324762 -3.883274 0 
-2.032134 4.337662 0 
-4.351581 -0.4310788 0 
-2.975308 0.007397661 0 
1.540703 1.735423 0 
4.402085 4.836899 0 
2.752323 -1.065777 0 
-4.801481 -4.845689 0 
-2.056893 -3.118771 0 
4.63225 4.030056 0 
-3.437926 3.721929 0 
-0.2178299 3.978016 0 
4.632893 2.601361 0 
1.190046 3.665366 0 
-2.080113 -4.434951 0 
-0.7722761 -3.478759 0 
-0.1173632 -3.866608 0 
-1.915765 -1.353724 0 
4.172852 4.329817 0 
-1.062272 -2.599174 0 
0.8229715 -3.233845 0 
-3.420304 -4.976213 0 
1.452883 1.537159 0 
-3.601496 -3.13367 0 
1.803605 -3.625728 0 
2.03812 3.093654 0 
4.790182 0.3476816 0 
1.194122 3.483524 0 
-4.279691 -0.8105769 0 
-4.209155 -2.878075 0 
-2.72694 -1.645963 0 
-4.191053 -1.504864 0 
4.111357 -3.484818 0.002957125 
-1.02233 -4.711644 0 
2.297984 1.011951 0 
-3.555156 0.1317444 0 
4.841877 -4.042578 0 
2.362862 -4.78047 0 
-3.860281 4.803 0 
3.688036 4.016428 0 
1.736297 -4.614012 0 
4.588347 1.740817 0 
-3.28203 2.398642 0 
-3.336857 1.188202 0 
3.54745 3.18384 0 
1.561432 3.755981 0 
-1.971811 -0.1536249 0 
-3.647982 4.396581 0 
3.781625 -2.28628 0.03617088 
-3.893122 -4.869738 0 
-3.705587 -3.811919 0 
-0.3123091 2.658566 0 
2.816457 -3.256696 0.0881798 
-2.978428 -3.874341 0 
-4.25544 0.7101905 0 
1.863925 1.965832 0 
-0.7240165 -2.998865 0 
-1.082008 0.78304 0.01163535 
-3.230952 -3.873789 0 
1.547102 1.945912 0 
-1.5656 -3.450466 0 
-0.6080316 -3.774583 0 
-2.750052 -0.8763845 0 
2.990963 -0.03485882 0 
-3.744986 -1.448506 0 
3.512425 -2.178713 0.04520445 
-3.847254 -3.212463 0 
2.406887 3.841194 0 
-0.1978732 -3.788836 0 
0.06408283 -0.1652698 0.07390466 
-4.759367 2.703492 0 
-4.254844 -3.925273 0 
1.481574 -1.299545 0 
-0.5656634 -0.2616037 0.08300181 
3.657532 -3.175131 0.09676474 
-1.063154 -2.31963 0 
2.733301 -3.633543 0.01858144 
3.028178 -1.754257 0.0009530559 
-3.776092 2.51874 0 
2.72955 -4.500097 0 
-3.335886 -3.784026 0 
-1.951752 2.994325 0 
-0.003956483 -2.342506 0 
1.766566 -1.372886 0 
1.062059 -2.686437 0 
-1.750531 -4.758393 0 
-1.394528 -4.841969 0 
0.4584255 0.6370729 0.01655248 
0.5566128 0.1576699 0.02172674 
-4.551213 2.794359 0 
2.367609 -3.694052 0.002490986 
-1.558203 0.5848317 0.0001195824 
-2.752736 4.284062 0 
0.9480546 -3.449958 0 
-2.786356 2.736758 0 
-1.33837 0.3020642 0.01128176 
3.608719 -4.730627 0 
-3.570776 1.015021 0 
1.084584 2.929762 0 
-3.742027 -4.08662 0 
0.04994094 -2.081651 0 
-4.656376 4.813682 0 
-1.6971 0.3801587 9.354458e-06 
-2.090935 3.140207 0 
-4.093857 -2.566371 0 
-0.7882056 -3.106103 0 
-0.002013871 -0.2637216 0.07203188 
-2.506434 -3.824015 0 
-1.358992 -2.563281 0 
4.400562 2.43691 0 
0.8253688 -1.860842 0 
-4.037858 -0.08660054 0 
-2.788354 0.2215505 0 
-3.477245 -1.844173 0 
-3.949442 2.113543 0 
3.26744 -1.047743 0 
2.618022 -3.429489 0.03109175 
-1.045329 -1.791254 0 
0.2735776 4.957054 0 
-2.375531 0.884022 0 
1.613353 3.615092 0 
-2.439375 0.04678567 0 
-1.644148 -2.672662 0 
4.489853 -4.405952 0 
-3.869781 4.025791 0 
-0.8539658 -0.2324186 0.0596907 
4.210287 -2.125546 0.0008053958 
-3.411615 4.062659 0 
1.578987 -2.518911 0 
3.705963 -4.513695 0 
3.014464 -4.527719 0 
-2.119545 1.876526 0 
-4.536402 -2.248527 0 
-0.2022094 -4.828547 0 
-0.2079385 2.656118 0 
4.440903 -4.577303 0 
-4.277677 -2.260744 0 
-3.841861 -1.41278 0 
-4.52127 -4.377557 0 
-2.095383 -2.799576 0 
2.170628 -1.07104 0 
-4.964932 -1.031506 0 
-4.045737 -1.687262 0 
2.626446 1.657152 0 
-1.71622 -3.602678 0 
-2.882462 1.252771 0 
-0.05982511 -3.916543 0 
3.732514 3.667393 0 
-2.894978 0.790939 0 
-0.7749479 -2.882488 0 
-0.6365292 3.219984 0 
-0.237953 -2.518532 0 
1.691963 3.474063 0 
4.31256 0.3381642 0 
-1.969276 0.1069546 0 
-0.6441025 -2.296488 0 
-0.4822623 1.523271 2.299072e-07 
4.081156 -1.762593 2.846892e-05 
2.558486 -3.895695 0.001168906 
0.6224629 3.444028 0 
-2.890025 -0.04514528 0 
3.680124 -1.833284 0.003490652 
-1.2927 -3.219906 0 
1.973534 -2.567925 0.0003083087 
-0.8485718 -3.900571 0 
0.0686984 -1.856184 0 
-4.839684 3.381158 0 
-1.926341 -0.3582715 0 
1.087837 -3.773 0 
-0.6166371 2.825933 0 
4.73878 0.4630066 0 
-0.7476683 -1.192027 5.228e-05 
-4.037018 3.824419 0 
-0.2060013 -3.762821 0 
-2.734973 -3.547122 0 
4.107359 -0.88758 0 
3.445459 -4.514359 0 
0.7263559 -4.020414 0 
-0.7332259 -0.3951892 0.05656096 
-2.831497 -0.2021386 0 
-4.758081 -1.137328 0 
-4.083666 0.4949338 0 
-2.211512 2.790275 0 
-4.861796 -2.696582 0 
-1.136619 -4.28626 0 
4.975411 4.611601 0 
4.271649 -2.451581 0.002903596 
-1.824255 -3.456796 0 
-4.305539 4.320438 0 
2.046244 3.439267 0 
1.875209 -1.971762 0 
2.721573 3.126468 0 
-0.3283031 -4.76578 0 
0.04931865 -4.043126 0 
-4.101969 -3.969385 0 
3.509008 -3.363978 0.08287433 
0.6856635 -3.50278 0 
4.993526 3.643951 0 
3.534813 2.177483 0 
-4.919109 -4.451063 0 
3.388415 3.061802 0 
4.16896 -3.244725 0.00711505 
-3.389456 3.52521 0 
4.677339 2.183617 0 
-2.200255 4.874043 0 
-1.924034 -1.060021 0 
-1.208158 -3.611367 0 
-1.327214 3.936321 0 
-2.85101 1.390033 0 
-0.1744356 -1.117674 0.0008918548 
0.8807018 -1.165008 0 
3.82803 3.711585 0 
-0.4343047 1.700603 0 
4.499576 -2.981385 5.037339e-05 
-1.126894 3.571245 0 
4.45317 3.284743 0 
4.591156 -4.372005 0 
-0.06524534 -3.072158 0 
-4.150148 -1.682266 0 
-2.91893 2.637393 0 
-0.1263075 -2.814507 0 
-1.794727 4.755056 0 
-1.264521 -2.831247 0 
-3.682564 -0.2432113 0 
-1.496852 -3.929837 0 
2.507838 0.2532142 0 
2.438153 1.705285 0 
-3.84749 3.93243 0 
3.7225 -3.556895 0.02189539 
2.12924 -3.809424 7.433164e-08 
0.9143207 2.584117 0 
-4.661861 -4.747624 0 
-3.020233 -1.650744 0 
-3.46073 2.845029 0 
4.132468 -0.1627999 0 
-3.765841 -2.941445 0 
-3.460559 -2.841469 0 
-1.85853 -4.428223 0 
4.854328 1.18975 0 
4.653445 1.524794 0 
-1.385052 2.319908 0 
0.1086725 4.057258 0 
-1.169972 2.259113 0 
-3.798386 3.409742 0 
-3.231419 3.877536 0 
1.776593 -4.410565 0 
0.3932883 -4.03953 0 
3.478291 -4.498946 0 
1.615295 -4.902414 0 
-0.6886976 4.916395 0 
-2.640331 0.6701888 0 
-4.022627 -0.9353777 0 
2.49565 4.372787 0 
-1.46227 -2.119044 0 
2.898304 -1.581029 0 
-2.074157 -1.519797 0 
-0.2939018 4.256417 0 
4.098943 -2.238914 0.005634209 
3.720466 0.1029509 0 
0.8348249 0.7743383 0.0002574557 
1.842983 -0.1813775 0 
-2.53547 0.6421571 0 
1.320457 1.414596 0 
4.778273 -0.7645593 0 
-0.9795899 -1.26925 0 
3.464066 -4.383809 0 
-0.6181686 0.238573 0.09600449 
0.9584123 2.1476 0 
-1.33897 -1.846367 0 
-1.056043 -3.802482 0 
3.884357 -3.741579 0.00187176 
-0.4243016 -3.747613 0 
3.698447 -4.98782 0 
-4.771366 -2.224473 0 
-0.5035169 -1.873591 0 
4.514573 -0.3189421 0 
-2.149497 -2.092395 0 
4.134109 -4.244853 0 
-4.27186 -3.566187 0 
2.989024 3.643379 0 
2.875543 0.9103175 0 
-2.905653 2.580033 0 
-0.5901101 -0.8760135 0.01228309 
0.04340873 -0.1879055 0.07427601 
1.882949 -4.796777 0 
-2.052583 4.215152 0 
1.832975 -0.7443449 0 
-0.0330136 4.850673 0 
-0.7402329 4.061031 0 
0.02281853 2.587513 0 
-1.39258 1.154536 0 
1.446918 4.464643 0 
2.82966 -2.09642 0.01566524 
-2.171597 2.549889 0 
2.460839 -2.406182 0.01334891 
-3.149483 -0.4460237 0 
-4.491362 0.777029 0 
-1.046134 4.307838 0 
0.7841913 -4.051962 0 
-3.936419 -3.871409 0 
1.55353 4.818659 0 
3.120681 -3.056129 0.1717737 
3.209048 2.776268 0 
4.605387 -4.293388 0 
0.7933444 2.209754 0 
4.178008 4.238928 0 
4.845018 2.028534 0 
-1.801768 1.497459 0 
-2.208087 1.397537 0 
4.20788 1.785869 0 
-1.550179 -3.222474 0 
-4.403385 -1.591836 0 
3.582403 1.80674 0 
-0.7894008 0.6280844 0.04793055 
-4.148749 -2.971952 0 
-4.08556 -0.4415959 0 
-4.878134 2.588758 0 
-1.003985 -1.462256 0 
-4.247182 2.381821 0 
-0.6715319 -0.3081137 0.07058997 
3.697009 -0.9154182 0 
2.582684 4.919776 0 
1.352742 -1.402329 0 
4.818244 1.514022 0 
-0.9393504 2.665172 0 
1.388363 -0.7180758 0 
-1.753878 4.408592 0 
3.819581 -3.161346 0.06176662 
1.539819 -1.789743 0 
4.486755 -0.288291 0 
0.3538917 -2.810852 0 
4.824682 4.089664 0 
4.909309 4.666358 0 
-2.136885 -1.98863 0 
-2.124992 3.351382 3.826206e-05 
-2.618131 2.862297 0 
-2.231045 2.587548 0 
1.268777 -1.987795 0 
4.850223 3.949383 0 
3.056627 3.151862 0 
-1.277421 0.1041471 0.01930308 
-3.125203 2.94526 0 
-3.324526 0.7555081 0 
-4.726954 -0.6095235 0 
3.66418 -1.529345 0 
4.887755 -0.5347172 0 
-0.670105 -0.01306092 0.09212162 
3.045235 0.9638864 0 
-0.7275895 -0.5429605 0.04068658 
1.037455 2.077657 0 
-1.26276 2.304013 0 
-3.668634 2.467046 0 
-0.802319 -0.3603229 0.05403892 
-4.40053 -2.825415 0 
4.126249 0.7561705 0 
-0.884288 2.008857 0 
-2.113134 -1.066802 0 
-3.701389 3.082983 0 
-4.766269 -1.834511 0 
-1.721673 -0.3684561 0 
-2.945716 -0.4733257 0 
-4.540891 -1.030718 0 
1.566797 -4.088208 0 
-2.77177 -2.079556 0 
-1.498563 3.815519 0 
4.707516 -0.8663851 0 
1.205504 2.609715 0 
4.205179 -1.380062 0 
-0.7098079 0.9082108 0.02343497 
-4.518494 2.035593 0 
-1.208535 -2.322897 0 
-1.9763 2.154523 0 
-4.324612 -1.628425 0 
1.38903 1.098944 0 
-2.587336 -1.199778 0 
-1.82342 4.203219 0 
4.769837 -0.4793319 0 
-3.062912 0.1682704 0 
-1.303925 1.364525 0 
2.55517 -2.682685 0.04771365 
4.96436 -3.234778 0 
-2.809765 -0.1526403 0 
-3.156628 1.733763 0 
3.9671 2.183815 0 
1.662843 -3.699117 0 
3.078069 -3.059488 0.1664835 
0.9515254 3.349886 0 
-4.160252 -0.8254264 0 
0.7729124 -2.829529 0 
0.07927371 -0.1528322 0.07312725 
-2.057289 4.65829 0 
-2.910807 -4.420301 0 
0.1297884 -2.193717 0 
2.688291 -3.102525 0.08133012 
1.763121 0.3586281 0 
-3.635932 3.68859 0 
1.532674 1.678894 0 
-2.464166 1.31784 0 
-0.1265719 -4.587695 0 
-2.269776 -4.193262 0 
-0.5172387 1.170235 0.006445919 
1.881535 2.865509 0 
-3.528012 4.561243 0 
3.257236 -0.4822411 0 
4.844043 4.112772 0 
4.161369 2.440285 0 
-3.098659 -0.6807647 0 
0.6688288 1.834481 0 
-2.058791 1.523482 0 
-2.011323 2.864416 0 
2.937514 -4.764307 0 
-1.15085 -4.175282 0 
-3.320045 -0.2487742 0 
4.934299 3.715983 0 
-3.823106 -4.170938 0 
-2.586817 1.6423 0 
-0.4227283 -1.229472 5.319421e-05 
-3.554882 -2.968222 0 
-1.357551 1.677437 0 
-2.709073 0.6991085 0 
4.571688 -1.529741 0 
-2.909256 4.275738 0 
4.553501 3.481518 0 
3.127887 -3.738972 0.01892669 
-0.2232102 0.912389 0.03183363 
2.975363 0.8731714 0 
-1.379826 4.120996 0 
-3.966164 3.844063 0 
1.883074 -2.745584 0.000127615 
-1.427438 -3.145509 0 
