ply
format ascii 1.0
comment VCGLIB generated
element vertex 2040
property float x
property float y
property float z
element face 0
property list uchar int vertex_indices
end_header
-2.339292 0 -2.111834 
-2.817838 0.09752103 2.719755 
4.396027 0 3.785524 
-4.67541 0 3.703774 
-4.380603 0 2.910304 
2.830881 0 4.903598 
3.091069 0 -2.239829 
-1.214212 0 -4.513888 
3.018543 0 1.609064 
4.39019 0 -1.755583 
0.1607019 0.07242702 -0.8528188 
3.672268 0 3.762327 
3.222445 0 3.814276 
-0.8119751 0 0.9660877 
3.738715 0 2.24726 
-0.9837668 0 -4.659951 
3.500902 0 -1.007885 
-0.1456875 0 -3.438141 
-1.830018 0 -3.714157 
0.966954 0 -2.252023 
-1.918477 0 -1.101514 
-3.248863 0 -0.3233285 
-4.156027 0 2.506661 
4.045676 0 -4.218642 
-4.05804 0 4.53931 
0.4717618 0 3.725171 
-1.620183 0 -4.391509 
-0.4224219 0 1.518051 
-4.101826 0 -4.954548 
1.149504 0 3.721706 
2.510458 0 0.2455057 
2.430321 0 4.902989 
-4.829742 0 -4.040446 
0.9592263 0 0.892018 
0.06922046 0 4.077749 
-1.802592 0 -2.102853 
-0.6183389 0 3.812043 
-1.47942 0 3.447198 
4.833217 0 -2.632843 
-0.2462907 0 3.775527 
1.605833 0 -2.100517 
-4.182323 1.034168e-06 2.989639 
2.145351 0 1.371801 
1.513603 0 0.7906173 
-4.277376 0 3.128213 
4.663517 0 4.253946 
-3.301979 0 -1.113778 
-2.579673 0.007953771 2.278675 
-3.818742 0 0.8659931 
0.2294292 0 -3.405576 
0.3001056 0 1.330094 
-1.12698 0 0.6392837 
-3.695556 0.02490568 3.246168 
1.917959 0 -3.992643 
-4.084094 0 4.508492 
4.601893 0 2.318346 
-0.9495871 0 1.736059 
-4.215286 0 1.138599 
-3.881518 0.002944214 2.711187 
-4.833053 0 -4.875185 
0.9953859 0 -3.099849 
3.426021 0 4.853167 
2.393373 0 3.921415 
4.958968 0 -4.087039 
-2.826662 0 0.2237431 
-0.3214596 0 -3.302917 
-1.224259 0 1.515792 
-3.033194 0.1798683 3.249207 
-0.4222797 0.04296645 -0.8587295 
2.302072 0 1.556074 
-2.082939 0 4.676485 
-1.126509 1.179477e-05 0.2420004 
-2.586316 0 -2.062406 
0.316312 0.07621597 -0.7725842 
0.6628689 0.01017147 0.5346828 
-1.472241 0 0.346929 
3.470104 0 0.09913506 
2.281194 0 0.9370956 
4.057897 0 -1.347069 
-1.506307 0 1.43364 
-0.4547818 0.06079124 -0.5596678 
1.058701 0 0.7706963 
4.221033 0 0.6902989 
-0.3788904 0.01692716 0.4605876 
4.36977 0 4.199953 
-4.806353 0 2.710479 
0.1842732 0 -4.21366 
-2.663912 0 -3.424254 
1.212328 0 0.812215 
-1.889188 0 0.597856 
-4.599059 0 -2.845757 
3.57156 0 0.5644318 
-1.40911 0 -2.540629 
2.789739 0 1.47262 
-3.144773 0 -4.796623 
0.4785833 0.07970272 -0.5895315 
0.5395968 0 -3.753218 
4.314593 0 0.9364924 
-2.89458 0 -4.787943 
4.77585 0 1.81995 
-4.374001 0 2.603101 
-4.209666 0 -1.887128 
2.600473 0 -1.550878 
3.920063 0 -3.589912 
1.210675 0.002503095 0.1406287 
-4.185582 0 -0.03629673 
-4.592703 0 0.9872025 
-1.68572 0 -0.5209335 
0.1161672 0 -4.042879 
-4.604605 0 -0.2630204 
4.724432 0 4.536778 
-2.323268 0.0022568 2.291841 
0.9611327 0 1.300057 
2.289101 0 -3.073114 
-0.7349669 0 -4.77998 
-2.808837 0 0.2494792 
3.880389 0 -3.289449 
-0.3966883 0 1.179079 
-0.655136 0 -1.671943 
3.376821 0 4.485067 
2.987796 0 3.880195 
-4.904089 0 0.3605394 
-4.235918 0 -3.518466 
0.3524273 0 1.39635 
0.4460919 0 -4.948976 
-0.05106195 0 2.264154 
2.879039 0 -1.324843 
2.469046 0 -3.011496 
-3.466146 0 -1.763561 
-1.956881 7.086741e-05 4.212173 
2.736332 0 -0.5247309 
0.1994416 0 -3.600413 
3.490795 0 -3.406089 
2.279845 0 -0.5026782 
3.544793 0 0.3265717 
0.333768 0 -4.570484 
0.3134802 0 3.0058 
1.183633 0.006779116 -0.2352537 
4.88349 0 2.662911 
-0.7381384 0 -3.892935 
-4.535102 0 0.003190772 
-3.27428 0 -0.8109244 
2.413314 0 -0.4866896 
1.195699 0 -4.168871 
-2.161402 0 -2.473986 
-2.714189 -0.000287896 -2.811675 
2.31629 0 -4.839685 
0.2347735 0.09923044 -0.5800372 
-0.5819284 0 3.803316 
-3.717769 0 -2.829172 
3.660119 0 4.124869 
4.5305 0 3.626923 
4.620475 0 4.008169 
1.653901 0 -4.160016 
-0.5186224 0 3.386451 
1.810765 0 -4.925276 
-3.836641 0.006196581 3.438932 
-1.968015 0 1.492178 
2.201154 0 -4.406437 
0.3208194 0 3.057353 
-3.037628 0 -2.082904 
-0.4272644 0 -1.66194 
-3.251801 0.09472778 2.847655 
-3.171743 0.002822644 2.074474 
-4.861717 0 1.410829 
-1.374384 0 3.173365 
-0.2988422 0.05415859 -0.8565425 
1.802373 0 0.2602026 
0.02780978 0 -1.931974 
-2.805213 0.187799 3.230786 
-4.347715 0 2.632406 
2.596225 0 2.182209 
1.830566 0 -4.344684 
0.2255924 0 2.049094 
-1.894649 0 -0.1661191 
-3.954333 0 -3.676171 
-2.134672 0 -0.02842491 
1.388461 0 -2.652945 
-1.163757 0 -1.846564 
-2.383771 0 -4.52961 
2.206715 0 -0.4108427 
-0.2730731 0 -3.098876 
-4.349544 0 0.4896283 
-4.35976 0 -2.902876 
-0.2925453 0.000266032 0.8674881 
-2.048153 0 0.4860178 
0.1469697 0 1.485126 
-1.425218 0 1.962635 
-4.387918 0 -3.359637 
-2.316488 0 0.1663019 
0.03697446 0.1101383 -0.4159881 
-2.671465 0.1666607 3.123004 
4.893816 0 -3.887906 
-2.17805 0.04304114 3.540555 
-1.373219 0 -2.704778 
-1.50159 0 2.186593 
-1.759839 0 -1.206551 
3.878753 0 -2.083346 
-1.67952 0 4.843215 
-1.98575 0.0006156877 2.583277 
-1.894039 0 0.5525274 
-1.855139 0 -2.750742 
3.046216 0 3.473362 
-2.29884 0 -3.662673 
-0.3889894 0.06610253 -0.1044748 
0.2221958 0 -4.975597 
-2.751 0 0.1603206 
3.632097 0 -3.208459 
0.6415195 5.682219e-06 -1.616778 
1.295745 0 -3.886573 
4.093277 0 -3.799337 
-2.293284 0.05424779 3.648205 
-4.393561 0 4.416291 
3.738932 0 4.710145 
-4.600371 0 2.371542 
-1.827359 0 4.238832 
1.55415 0 -3.893951 
-2.022239 0 -2.143794 
2.579109 0 -2.120063 
0.2955416 0 -3.567748 
0.06029824 0 4.227303 
-3.373649 0 -2.297733 
4.543347 0 -2.431406 
-2.156518 0 1.522383 
-1.710616 0 0.7509922 
4.164553 0 -2.178559 
1.968644 0 0.9970921 
-4.230803 0 -4.078866 
-3.276586 0 -2.627005 
3.211433 0 1.452364 
3.024021 0 -2.692951 
-4.803067 0 -3.081859 
-1.834601 1.296241e-06 2.567258 
-3.877522 0 -0.1002677 
3.27326 0 -3.741077 
1.417401 0 1.822871 
-1.107351 0 -4.518243 
-4.428219 0 2.522126 
2.922444 0 -3.224358 
-2.346944 0 0.5662152 
-4.093028 0 4.579381 
0.3389516 0 -1.788841 
-1.673561 0 -4.868275 
1.324412 0.001424216 -0.2502833 
4.555032 0 -3.090784 
2.848489 0 3.172738 
1.176888 0 -1.480082 
2.331138 0 2.434516 
1.663841 0 -0.5974597 
2.553425 0 4.51293 
1.764716 0 -2.896709 
2.68038 0 -4.041427 
4.290874 0 -1.622225 
-0.9317139 0 -2.704081 
3.75322 0 0.08659889 
-2.293309 0 4.49582 
1.666681 0 -4.97124 
-2.314128 0 -0.6314803 
-0.7006809 0 1.866779 
-0.1029444 0 4.00505 
-2.041866 4.806082e-06 2.238069 
0.09779857 0 3.54926 
-0.2545611 0 -2.034201 
4.734307 0 -1.221411 
3.00512 0 -2.559966 
0.8482698 0 2.820252 
-2.045093 0 -3.748821 
-1.323514 0 2.335443 
4.181979 0 3.217359 
-3.464322 0 -3.74394 
0.9674234 0 -4.943145 
3.30305 0 -4.899223 
2.844222 0 4.776461 
3.563125 0 1.648466 
-0.638158 0 1.759344 
-4.830958 0 -1.901123 
-1.847865 0 -3.565046 
0.581979 0 4.995542 
-1.120595 3.639938e-07 -1.021461 
1.240873 0 0.8254824 
-4.502418 0 -4.386515 
-1.517567 0 1.509434 
3.776256 0 0.9741569 
4.868892 0 -1.87151 
-1.162638 0 -4.012672 
-2.269284 0 -2.135167 
-3.636309 0 -3.53139 
-4.689197 0 3.591154 
-0.5411193 0 2.148473 
-3.25658 0 0.6704097 
-4.800492 0 2.424694 
-0.7050867 0.03204798 -0.4504271 
-1.36497 0 -4.931333 
1.221894 0 0.7672103 
0.5759671 0.07597001 -0.426448 
2.509379 0 -3.300782 
-1.783913 0 -0.9743068 
0.842099 0 -1.839241 
-3.175185 0 -2.932753 
3.073608 0 4.967146 
-3.563396 0 -3.892725 
0.5662527 0 1.658114 
-0.05760067 0.07835586 -0.7827957 
-1.493718 0 1.739783 
2.445104 0 0.8032125 
-1.317507 0 4.767864 
4.284206 0 1.796702 
-3.132393 0 -1.108185 
-3.631768 0 -4.500049 
4.430465 0 -3.449439 
-2.947995 0 -2.165541 
-2.467989 0.09894603 2.950536 
-2.43975 0 -4.101892 
-2.336156 0 -3.310128 
1.081534 0.01450985 -0.3069629 
2.691105 0 2.817106 
1.811023 0 -0.8284806 
1.10402 0 -3.40402 
4.243903 0 0.1651519 
-0.4694232 0 4.980463 
0.8119322 0 3.557324 
-3.101725 0 -1.405946 
3.484008 0 3.614183 
-2.351049 0 0.8569111 
2.455871 0 1.426519 
2.406453 0 -3.509989 
1.607013 0 1.336953 
3.62377 0 -2.518911 
0.2742609 0 4.129187 
4.467813 0 1.978825 
2.54166 0 4.183694 
1.317473 0 -2.81239 
0.3420303 0 -3.530572 
3.918266 0 0.7477723 
-4.020618 0 0.4437054 
1.884023 0 -4.662117 
4.568501 0 -0.2034504 
-0.1188356 0.09883486 -0.5047312 
3.935143 0 -2.01089 
1.624089 0 -1.32249 
-0.7439982 0 2.233749 
3.767061 0 2.922495 
-1.273629 0 -3.121824 
-2.898354 0.1808773 3.38468 
3.209521 0 3.103518 
1.897132 0 -4.823374 
4.805202 0 -3.952076 
1.472518 0 -1.10788 
-4.71616 0 4.017722 
4.187114 0 -3.862468 
2.072686 0 -3.713229 
-1.940755 3.276136e-05 2.483812 
4.648059 0 -0.6078018 
3.801733 0 -4.934337 
-0.6367749 0 2.040374 
3.171307 0 -1.070447 
0.2206874 0 -3.865926 
1.061992 0 2.635285 
-1.881781 0.00878882 3.42452 
1.102345 0 2.369458 
-0.7777138 0 4.570046 
2.102194 0 -1.860277 
-3.373287 3.256911e-05 4.447587 
2.215448 0 0.5843406 
-2.695986 0.1125591 2.815969 
0.986442 0 1.990488 
3.06668 0 -3.671403 
1.25343 0 2.035134 
1.773096 0 4.493139 
-1.36024 0 -3.122432 
-4.418882 0 4.200805 
-3.294677 0 -2.42061 
-0.6758708 0 3.97742 
4.233323 0 -1.827014 
-0.481243 0 2.739995 
-2.391321 0.1050617 3.356505 
-0.591786 0 -3.690989 
2.350072 0 0.175403 
-1.936307 0.006563131 2.946285 
-2.981031 0 1.444834 
-3.870658 0 -0.1922153 
-4.377948 0 -1.466214 
-2.148558 0.04091179 3.478616 
-2.561072 0 -1.340154 
-3.877589 0 -2.857095 
3.41386 0 2.000283 
-3.784669 0.01371202 3.178896 
-0.8331114 0.00657683 -0.9261616 
-3.562043 0 -2.238466 
3.545915 0 -1.947475 
-2.62836 0.04148458 3.964841 
0.9571238 0 -2.042114 
1.7291 0 1.0865 
2.258094 0 2.323034 
-2.343382 0.002693423 2.291551 
-1.07342 0 3.0001 
2.647411 0 0.6367432 
-0.8587931 0 4.564423 
4.973658 0 -1.020488 
2.179387 0 -0.5856305 
0.7227438 0 2.305734 
2.57916 0 -2.085382 
-0.9915379 0 -4.154163 
0.7011245 0 1.931124 
1.76947 0 3.942122 
-3.831957 0 4.432063 
1.578968 0 -0.2087475 
-0.4633251 0 -3.211726 
1.085083 0 2.592594 
1.896949 0 0.1662336 
3.853186 0 -4.684924 
4.389052 0 2.877068 
3.735822 0 -2.971107 
0.8605482 0.004943398 0.5122854 
-2.166962 0 0.1484655 
-3.779288 0 0.4061109 
-2.584453 0 -2.175584 
2.610935 0 2.041097 
-2.243662 0.001161217 2.29947 
0.3444961 0.095567 -0.5403761 
1.76014 0 0.866828 
4.645197 0 -2.973134 
-4.734562 0 -3.561001 
-3.396602 0 1.893281 
-3.453654 0 -1.00364 
2.518721 0 0.5670477 
-0.01263054 0 3.922149 
4.247957 0 1.345333 
4.930073 0 -0.4340723 
-4.582041 0 4.228072 
-4.801587 0 2.492956 
-0.2120449 0.002288584 -1.502958 
-3.191419 0 -3.882142 
1.056512 0 1.596141 
-4.479352 0 -3.266907 
-3.596787 0 0.4381491 
3.288845 0 3.875186 
-2.628063 0.007130038 4.226929 
1.053347 0 4.432906 
-1.260625 0 -2.887762 
4.440772 0 -2.90682 
0.3181165 0.05688271 0.2422879 
-2.53695 0 -3.771781 
-4.515282 0 3.255989 
0.6080548 0 2.820841 
1.43664 0 1.445296 
-4.720105 0 -3.706992 
-1.700219 0.0004054142 3.040279 
4.811736 0 3.210825 
3.095846 0 -3.837896 
2.115731 0 3.189946 
4.245552 0 -1.581107 
3.041302 0 -0.8826578 
-2.861142 0.18525 3.145269 
0.4366322 0.05897512 -0.8537939 
1.836168 0 -1.628315 
1.843516 0 -4.689565 
-2.188111 0 -2.901846 
-2.660375 0.1287167 2.9038 
-1.321555 0 0.004797615 
-0.1009681 0 3.83673 
-1.236062 0 -2.011403 
-4.317073 0 -4.444591 
-2.03353 0 0.7718358 
1.17912 0 2.907712 
-4.157591 0 -4.550581 
0.1269791 0 3.901507 
0.9471254 0.0001855323 -1.292657 
-0.1136303 0.03983188 -1.071824 
-0.1953874 0 -2.532066 
-1.021338 0.003057069 -0.6656741 
-4.52038 0 -3.004134 
1.556487 0 -0.8083744 
-0.08375322 0 2.209462 
1.617524 0 2.039929 
1.869584 0 -4.668591 
2.659025 0 3.503532 
-1.154837 0 -2.369241 
-0.5106831 0 -3.257661 
4.182479 0 -1.179756 
-3.102293 0.0001385622 4.483799 
-3.257672 0 -3.635308 
-1.708424 0 -2.49335 
-3.365776 0 0.1394006 
4.017314 0 -1.631874 
-4.538681 0 0.2203747 
1.920656 0 3.729095 
-2.340671 0 0.2795454 
-1.221581 0 4.834458 
-0.2834397 0 -2.940333 
0.6250671 0 2.488989 
-2.027353 0 -1.231653 
2.561246 0 2.464483 
-0.05210725 0.1055516 -0.4613006 
-3.697721 0.001987746 3.93894 
4.864847 0 3.893372 
0.3655917 0 2.828627 
-1.379294 0 -4.87676 
3.904118 0 1.036871 
-2.100677 0.005652392 2.638513 
-0.9714934 0 -2.823873 
0.4292435 0 2.628453 
-3.032621 0 1.018691 
4.988396 0 -1.445548 
-2.194947 0 -4.187775 
0.9242162 0 -3.247335 
0.1845265 0 -4.82562 
1.74175 0 -1.475177 
1.191159 0 -3.405133 
3.610645 0 2.745354 
4.342393 0 0.9838123 
-3.785759 0 0.5651507 
-2.007747 0 -4.256489 
1.063748 0 -2.456523 
2.700046 0 -1.531812 
-3.170871 0 1.346438 
0.1082655 0 -3.219373 
-2.551767 0 4.812216 
-2.919872 0 0.3785438 
4.41783 0 1.32345 
1.892839 0 -2.95675 
4.779068 0 0.1556905 
-4.399117 0 2.262634 
-0.1477199 0 2.679552 
-3.903443 0 4.799492 
3.636363 0 -0.6406363 
4.869459 0 -0.2001275 
-1.092416 0 3.690056 
-4.684937 0 1.511527 
4.585838 0 -3.450996 
-4.164825 0 4.236342 
1.631825 0 -1.118873 
4.855416 0 2.221873 
1.461718 0 1.40532 
-0.5203228 0 -4.02958 
4.230392 0 -4.905764 
-2.00945 0 -0.5988103 
-2.226112 0.006282148 4.077609 
-4.726035 0 -4.54841 
4.353254 0 0.8976827 
0.7077996 0.01070923 0.4993039 
1.608655 0 -4.79267 
1.243062 0 -1.951611 
-2.903357 -2.590449e-06 -2.674672 
-4.827104 0 2.164643 
-1.184427 0 -3.619483 
1.317638 0 4.80624 
-0.7319988 0 -3.467186 
3.183388 0 2.460341 
0.7030089 0 3.854575 
4.293265 0 3.074697 
1.169083 0.002066399 -0.8179443 
-0.8137138 0.011099 0.06736194 
3.855809 0 -1.514187 
3.51226 0 2.308811 
-4.880368 0 3.293352 
3.435471 0 4.178452 
-2.309783 0.0002837236 2.141178 
-2.787603 0 -1.422619 
-3.80229 0 1.718472 
-4.96452 0 -1.108796 
-3.534978 0 1.517696 
1.253268 0.003201341 -0.372356 
2.018665 0 0.5375627 
-3.517546 0 -0.6384402 
-3.562811 0 -4.336325 
-2.35801 0 -1.544711 
3.935758 0 -2.27079 
0.9877896 0 1.05207 
-1.05032 0.001117934 -0.002386005 
3.861458 0 0.7630814 
4.345785 0 -2.774675 
-4.165689 4.427404e-07 2.801468 
-2.324534 0 0.1505973 
1.575415 0 -3.136466 
-2.479233 0 -0.4671945 
-1.096133 0 -1.86183 
-4.719297 0 -2.59786 
0.8208441 0.03550619 -0.65916 
4.305859 0 4.206285 
-3.525289 0.008031735 2.380338 
1.342834 0 3.84402 
-3.164762 0.1558322 3.265151 
-2.684454 0 -4.957023 
-3.809638 0 -3.40816 
-0.0845972 0.1047103 -0.3059409 
-3.010732 0.1259139 2.835619 
0.1219355 0 2.174193 
0.313899 0 1.441235 
-3.937748 0.002860558 3.144908 
1.066303 1.468149e-05 -1.23281 
3.325136 0 4.016114 
-1.292163 0 0.1066471 
3.130084 0 -4.402009 
-4.534757 0 -3.354132 
-2.066222 0 0.3133428 
2.449413 0 2.76723 
-3.075445 0.01490997 2.28794 
2.435794 0 -0.2460403 
-0.9282367 0 -4.948925 
1.921158 0 3.241693 
-0.5859897 0.03514082 0.02036698 
-1.906026 0 -4.045163 
-4.407392 0 -3.913208 
-3.848287 0.004652274 3.486464 
3.179585 0 -1.151866 
-2.329778 0 -1.065418 
0.7871789 0 4.126494 
-4.220732 0 2.295971 
-0.07515481 0 -4.448407 
-3.311791 0.08233677 3.59077 
-2.073528 0 0.6728494 
4.740854 0 -1.088671 
3.641766 0 -3.918391 
3.902951 0 -2.616482 
1.315588 0 0.9657762 
1.676663 0 2.600401 
1.414945 0 -3.41319 
-1.477424 0 -2.351384 
-2.21229 0 -0.1275406 
-4.902905 0 -2.934455 
2.296497 0 -2.516669 
-4.867657 0 0.3482618 
4.572886 0 -4.013278 
-2.702986 0 1.14028 
3.220901 0 1.65074 
1.57471 0 0.7059089 
3.182795 0 -2.602418 
4.080437 0 1.853164 
2.992406 0 -2.185965 
0.9120648 0 1.908674 
0.9874464 0 -2.993664 
-1.320435 0 1.181084 
-1.746367 0 1.953669 
-0.5430413 0 -1.960624 
2.442685 0 -2.569312 
-0.3149111 0 -3.946598 
-3.721786 0 -4.667826 
0.6349939 0 -2.606809 
0.3959092 0 3.18772 
-4.493681 0 -4.765507 
-2.856733 0 -4.462636 
4.478458 0 -3.02379 
2.921534 0 -0.7594267 
1.061613 0 2.690026 
4.328008 0 -2.740896 
-3.052028 0 -0.7913626 
-0.1418452 0 3.244045 
1.931083 0 -0.08663575 
-4.355515 0 -0.463809 
-3.917673 0 -4.884653 
-4.108149 0 -4.074458 
-1.561924 0 -0.8238201 
-4.044033 0 -4.410398 
-3.056551 0 -3.883831 
2.563946 0 -3.337736 
2.93025 0 2.421258 
3.786921 0 4.231248 
2.496731 0 0.8916793 
-2.176653 0.05131529 3.342564 
4.42234 0 4.759585 
2.55418 0 2.807818 
-2.718625 0 -3.841223 
-3.696982 0 -4.230477 
-0.8560625 0 4.129325 
-3.678859 0 0.363709 
0.2465423 0 -2.769299 
1.544154 0 2.420518 
-4.13932 0 -0.6687273 
4.430902 0 2.587215 
-0.9505412 0 -4.644954 
3.229856 0 2.839193 
1.185388 0 -3.871941 
-0.0009788332 0 2.713098 
3.52476 0 -0.8958516 
-1.441256 0 -2.16082 
-1.016107 0 -1.762675 
-4.161898 0 4.005127 
1.405984 0 4.852039 
4.388327 0 1.483549 
-0.8675448 0.003996603 0.1952563 
-2.974746 0 0.9186592 
1.989698 0.02366041 2.999225 
3.21082 0 -1.503898 
2.731386 0 2.757845 
4.437729 0 -0.8247835 
-4.292153 0 3.385553 
-4.480945 0 0.0865857 
2.982339 0 -3.678786 
1.09306 0 3.298917 
-4.443323 0 -1.477169 
4.522547 0 4.800155 
4.375346 0 3.012313 
1.104809 0 -3.14466 
-2.82936 0 -0.2679649 
0.7319409 0 4.820573 
-4.462932 0 -3.299125 
-2.566555 0 1.331872 
-2.949412 0.1235225 2.812453 
-2.702091 0 -1.866798 
0.05164405 0 1.040946 
0.7990766 0.04747188 -0.3398536 
1.527319 0 4.871032 
1.826033 0 0.1601525 
3.661274 0 2.612217 
-4.472229 0 -0.561716 
-1.44924 0 1.53353 
2.865845 0 -4.192958 
0.1877272 0 1.433923 
3.520947 0 4.839205 
-1.510435 0 -0.9953657 
3.531543 0 -0.876243 
-2.610875 0 0.733077 
-3.305034 0 4.569495 
3.518692 0 2.09212 
-3.871883 0 -3.995955 
-0.76169 0 -2.124395 
-0.6214584 0 -3.673267 
-2.491884 0 1.256242 
-0.6386787 0.0001296893 0.6613867 
0.1550007 0 4.976562 
0.9127811 0 3.711813 
-0.3232233 0.06159571 0.05004739 
-2.496295 0 4.739407 
-3.971793 0 -4.27436 
-4.718997 0 -1.598104 
-3.740128 0 -1.559094 
-0.5418862 0 3.177866 
-3.772043 0 4.808334 
-3.949432 0 -3.971295 
-3.691628 0.006456625 3.785621 
-1.944603 0 4.704423 
0.5819809 0 -3.14963 
0.8067772 0 3.770401 
-0.733439 0 -1.837406 
-4.923125 0 -0.5569849 
1.261569 0 0.684741 
4.384936 0 4.276348 
2.609763 0 0.1886481 
4.932458 0 3.48558 
0.2913927 0 -2.318496 
-4.099754 0 -4.470604 
-3.980635 0 -4.712034 
3.586516 0 4.666913 
3.48927 0 1.68283 
4.805294 0 0.07128727 
2.227181 0 -2.283823 
-1.359128 0 1.200756 
3.819667 0 -3.607304 
3.346204 0 -0.4523622 
2.715296 0 1.130484 
-0.2178739 0.01745135 -1.245112 
-2.760549 0.01538821 4.151265 
-3.43384 0 -3.147502 
-2.35208 0.003472979 4.214105 
2.15315 0 1.956223 
-2.758813 0 -4.126363 
4.27159 0 -0.3161682 
-2.866767 0 -4.676703 
0.2054616 0 -2.847303 
-4.376308 0 -3.495189 
-0.7358128 0 -4.658685 
-2.887138 0 -0.8709141 
1.111593 0.002756255 -0.8852615 
-4.783027 0 -2.0064 
0.7643153 0 -3.745791 
4.502283 0 -4.200078 
-4.637339 0 4.337381 
-1.964226 5.082099e-05 2.454158 
-2.183863 0 -3.844777 
-0.3772057 0 -4.151988 
4.413945 0 -4.990579 
-0.7653574 0 -3.701596 
4.30636 0 -3.082186 
-0.04400856 0 -3.729464 
-3.13544 0 4.574404 
1.270036 0.0006644021 0.2596154 
-3.993553 0 -0.334822 
-3.698528 0 -2.356557 
-0.1852807 0 -4.453558 
-1.169408 0 -2.098231 
-3.145876 0 0.967392 
3.194797 0 1.51841 
0.178486 0 2.210515 
1.647636 0 3.726511 
-3.936777 0 0.7651508 
4.013511 0 1.813121 
-1.569538 0 -2.803352 
-1.939278 9.848879e-05 4.193049 
4.875237 0 -1.927568 
0.3189513 0 -3.822953 
1.264954 0 -4.112279 
-1.626381 0 -3.064733 
2.752348 0 2.530805 
-1.514758 0 1.845591 
-3.640632 0 -3.864538 
-1.654564 0 -2.339353 
-1.039718 0 3.72129 
3.111019 0 4.791398 
-3.449793 0.03127929 2.64009 
3.200065 0 3.075185 
1.992322 0 4.749398 
1.23113 0 -1.656543 
2.037794 0 -4.304988 
2.401258 0 -4.919552 
0.2915559 0.0985803 -0.5480808 
-0.6331846 0 -3.916291 
2.257914 0 1.927821 
0.5498158 0 -3.28697 
-2.980381 0 -4.947027 
-2.741822 0 -3.162691 
-3.920195 0 4.934528 
3.24078 0 4.510692 
-1.059084 0 1.159853 
2.459115 0 2.627737 
2.28187 0 -1.461185 
4.013605 0 0.09927697 
-2.762428 0 1.242674 
-4.184244 0 4.662505 
0.7706494 0.01969969 0.3073494 
2.552288 0 -1.409353 
-2.725511 0 -1.265121 
1.140069 0 -1.238191 
0.5581952 0 2.598517 
-2.046358 0 -3.983868 
2.230977 0 -0.362164 
-4.948289 0 -0.756499 
0.7163782 0 3.119634 
-4.553066 0 2.412126 
-0.4357334 0 -2.108093 
1.022645 7.193872e-05 -1.243914 
0.5726869 0 1.975809 
-3.038428 -4.98324e-08 -2.57179 
4.159308 0 1.16626 
-4.632105 0 0.338719 
2.35098 0 0.4523619 
-3.496982 0.06634544 3.274063 
3.119447 0 -0.1059093 
-2.678511 0 1.029979 
2.966302 0 -0.2218941 
-2.917732 0 0.1601746 
4.296946 0 0.4891843 
0.4901589 0 4.657697 
-3.616947 0 -3.958963 
-0.7511975 0.0190917 -0.7266848 
1.45024 0 -4.079631 
3.600229 0 -3.921538 
0.3386423 0 1.431179 
2.75674 0 1.996813 
-0.4187088 0 4.230749 
3.861109 0 -1.095577 
4.806383 0 2.759161 
0.8090492 0 3.563672 
-4.361384 0 -4.517035 
-0.8394617 0 -1.842915 
1.521299 0 0.7146255 
-4.999689 0 2.646244 
-1.967962 0 4.458744 
-3.303261 0 -2.931497 
-3.218577 0 4.941235 
0.2679237 0 3.192257 
3.183134 0 -1.870107 
-0.2111844 0.0002173246 -1.61516 
2.858115 0 -2.158632 
2.124019 0 2.378663 
3.856314 0 2.517583 
1.86032 0 -4.422453 
3.255 0 1.052987 
1.495821 0 1.170606 
-0.2320244 0 -1.891102 
-3.376659 0 0.6500393 
-3.703868 0.0001517225 4.136823 
-4.082357 0 -4.053887 
-4.632692 0 4.264617 
-0.8805296 0.01057199 -0.09214397 
-3.187339 9.708919e-05 1.923862 
-4.756517 0 3.008336 
3.970343 0 0.2396059 
0.6191927 0.004203748 0.6946025 
-2.957711 0.1870524 3.227223 
-2.701333 0.05182794 3.932611 
4.602962 0 -3.828391 
0.09687682 0 3.053275 
-2.397561 -0.002626974 -3.021721 
3.847854 0 -1.036838 
-3.396628 0.001438955 2.095337 
-1.601147 0 2.876731 
4.277405 0 -1.602873 
-4.482769 0 3.644904 
-4.696029 0 -0.03713739 
-1.355631 0 3.762846 
-3.83074 0 0.1909698 
-0.7126966 0 1.79726 
-3.112771 0 -1.515714 
1.68356 0 1.056754 
-4.067115 0 -4.732143 
0.8680608 0 -4.072632 
1.037986 3.267425e-08 -1.395285 
2.518857 0 2.139084 
-2.099542 0.005476682 3.997921 
2.495306 0 0.7719775 
-1.125678 0 0.6521397 
4.989162 0 -0.3646442 
3.734061 0 4.638824 
3.126774 0 3.134802 
1.005108 0 -4.987186 
1.507599 0 -2.565121 
0.9053981 0 -4.7324 
-3.263737 0 -3.975422 
-4.32725 0 -0.6775388 
-3.088907 0 -1.575944 
-4.097339 0 4.834123 
-0.9732287 0 -1.506411 
-3.647832 0 -4.889872 
1.215159 0 -4.469475 
2.206373 0 -4.405691 
1.886047 0 1.027081 
4.28018 0 -2.139597 
1.123783 0.01082436 -0.354365 
-1.950671 0 1.883292 
2.431031 0 -0.8320503 
-2.668949 0 -2.32235 
1.357243 0 3.335236 
-1.58503 0 2.134013 
2.23255 0 4.402393 
0.5222565 0 3.840393 
-0.7986462 0 2.047925 
1.247264 0.00106148 -0.7148617 
-2.700101 0 -3.628126 
-0.6477078 0 1.008979 
0.8702961 0 -2.652134 
-1.537494 0 2.675699 
-0.1442769 0.09302202 -0.1301821 
3.513305 0 -3.950936 
0.8100306 0 -2.429555 
2.121851 0 -0.7363642 
-0.9892575 0 -3.792592 
-3.442627 0.01647191 2.465179 
0.8901842 0 4.102874 
0.6665251 0 -3.675538 
-0.9663464 0.003622313 0.006276007 
0.451349 0 3.004556 
2.619431 0 -3.139062 
-3.050836 0 -2.775053 
3.009096 0 -0.0222056 
-0.1467485 0 4.161997 
-1.897357 0 -3.807733 
-0.8938181 0 -1.91563 
2.844519 0 4.393112 
-0.5032934 0 4.530691 
1.172597 0.00697684 -0.1659507 
-4.303255 0 -4.223798 
-4.876792 0 4.712132 
-1.597995 0 2.823036 
-4.116554 0 -4.800706 
1.04789 0 -1.992931 
-1.665807 0 0.05368413 
-4.292078 0 -2.691698 
-4.030312 0 -1.71806 
-0.9485705 0.004638731 -0.01814585 
-1.54831 0 -1.125831 
4.766498 0 -2.733986 
-2.816736 0 4.846503 
-3.66526 0 -0.2204694 
-1.942344 0 4.446226 
4.140159 0 4.671425 
0.7433714 0 4.57474 
-4.677645 0 -3.012143 
-0.1349595 0 4.224147 
3.874753 0 -0.1855071 
-4.567989 0 0.9982282 
-1.296165 0 3.030792 
-1.926681 0 -2.497442 
3.862151 0 0.5831977 
-3.688505 0 0.7368172 
-1.383237 0 2.315632 
0.260081 0.02037288 -1.249831 
3.107299 0 0.07578856 
0.7884465 0 1.458009 
3.744014 0 -1.438804 
-4.55829 0 -3.152667 
2.969306 0 3.332956 
-1.462926 0 2.102387 
-2.93533 0 4.916213 
-0.6484287 0.01214778 -1.033383 
-4.143013 0 1.995586 
3.533777 0 4.62545 
0.7661952 0 1.229237 
2.734922 0 -0.6536207 
-2.041379 0 -2.716639 
-4.235765 0 -0.3880856 
2.790306 0 1.852196 
2.263028 0 -1.436011 
0.2806395 0 -2.157737 
-3.371941 0 -3.408678 
0.4910215 0 -2.579198 
3.682363 0 0.2367754 
-0.9739877 0 -1.393378 
0.1429209 0 2.464583 
-0.3308783 0 -3.598448 
1.021278 0 -4.08252 
3.09585 0 -4.541394 
2.894236 0 -2.082365 
-1.829288 0.00124359 2.933013 
-1.590791 0 -4.268613 
-3.530432 0 -0.9509714 
2.053482 0 -0.2434568 
-0.4628974 0 4.052853 
3.765543 0 -0.674845 
-1.868565 0 1.738518 
2.248087 0 -4.841748 
-0.229477 0 4.646364 
2.364533 0 -2.318776 
-4.757432 0 2.733588 
3.174725 0 -3.023021 
-1.595081 0 1.32408 
-4.766374 0 -3.306418 
-1.020076 0.002567361 -0.7238415 
0.210535 0 -4.836114 
4.054685 0 -1.460912 
3.256092 0 -0.4867775 
0.5731512 0 -4.705255 
-2.731267 0 0.4977864 
-3.862444 0 -0.8788217 
-3.302665 0 -2.856088 
-0.1096376 0.09854468 -0.5236999 
4.234957 0 -3.981025 
0.9797184 0 3.226692 
-0.2193958 0 -3.861897 
0.3936257 0.08744064 -0.0915219 
2.336626 0 -3.351328 
1.517894 0 0.1634493 
1.582178 0 4.641944 
4.186777 0 -4.402546 
1.483346 0 4.562909 
-3.166248 0 -4.92848 
3.008782 0 3.50667 
4.944098 0 -4.820037 
-4.584206 0 4.558592 
-4.088869 0 4.955429 
-3.644 -0.003135975 -1.915176 
-4.918737 0 -4.48454 
2.537986 0 1.482933 
-0.5367887 0.04671553 -0.08164061 
-3.011178 0 -1.613964 
-4.597837 0 4.068814 
2.909202 0 4.18005 
4.589377 0 3.217085 
3.519513 0 -4.86239 
3.926202 0 2.608636 
1.473782 0 -4.690711 
1.491832 0 3.233118 
-3.750831 0 -3.513378 
-0.8318102 0 2.599856 
3.29407 0 -0.5304945 
-4.061857 0 -4.455992 
-3.850228 0 -0.05732701 
2.177785 0 3.609155 
0.08287518 0 1.680172 
0.1904061 0 -3.635626 
4.30218 0 -0.6806871 
4.573527 0 2.706106 
-1.102717 0 -3.075388 
-0.4690321 0.02201389 -1.055504 
-4.276361 0 -4.172568 
2.524486 0 -2.97528 
1.528493 0 3.754351 
3.53004 0 -1.82389 
-3.224307 3.128418e-05 1.888128 
-3.911989 0 -0.03512438 
-1.876494 0 0.8559374 
-3.306009 0.07448237 2.7914 
-2.076831 0.005964918 2.676619 
2.354769 0 -4.489632 
-0.6368793 0 -2.514259 
3.52995 0 -1.382977 
3.607154 0 2.329382 
-4.212242 0 -0.643046 
-1.53896 0 -4.581003 
0.920159 0 -3.566043 
-3.390113 0.0840911 3.443134 
3.929096 0 0.5668181 
-0.5627555 0 1.808974 
-0.7888288 0 -4.316339 
1.7942 0 1.831755 
4.173163 0 -2.323711 
-2.65529 0 -1.73079 
4.747382 0 -0.9238948 
2.925096 0 1.593668 
2.250072 0 0.0001591236 
-2.460076 0.08938885 2.904535 
-0.1528713 0 2.62082 
4.364811 0 -0.1575157 
-0.9191322 0 -2.722182 
-1.292773 0 -0.4396026 
4.453828 0 -2.753632 
0.7550819 8.131132e-05 -1.490404 
-2.053063 0 1.238175 
-3.447043 0.003320735 4.136885 
-2.735842 0 -2.844675 
1.942306 0.05287533 2.929339 
2.206639 0 2.02901 
-0.7684429 0 2.996413 
1.615385 0 -3.186432 
0.954545 0 -4.351827 
1.415672 0 4.540656 
2.556679 0 2.336968 
4.440386 0 -3.926827 
-4.937113 0 0.2418371 
3.120188 0 2.914254 
0.7370179 0 3.817068 
3.107184 0 1.023539 
1.456439 0 1.328325 
-4.479479 0 -2.741351 
-4.122556 0 3.439732 
-0.6726032 0 -2.220176 
-1.265946 0 -4.265027 
-2.144578 0 4.942651 
-1.977747 0 4.817091 
-0.8261077 0 2.102433 
-4.990463 0 3.322518 
4.706763 0 -4.157055 
0.2776234 0 1.237714 
-4.51423 0 -3.695839 
-4.01874 0 1.866942 
-0.06383903 0.09390142 -0.0744137 
1.544004 0 -1.064544 
0.8079667 0 4.240291 
-4.001671 0 -0.1691302 
3.748522 0 -1.862189 
3.994863 0 -1.775909 
-1.471998 0 1.24816 
-0.09036106 0 1.104527 
-1.909223 0 4.947903 
-3.349825 0 -1.560545 
3.079539 0 -4.225599 
-3.589202 0 -4.958633 
0.9382893 0.01285074 -0.8690532 
-4.537798 0 -3.375053 
-0.3476483 0 -2.593987 
-1.723691 0 2.078573 
2.423921 0 0.0742196 
0.3527882 0 -3.843163 
-3.293738 0 1.153474 
2.107145 0 -3.064118 
3.019839 0 -4.430241 
0.6147346 0 1.618587 
-3.832573 0 -3.836553 
4.874791 0 -3.990732 
-3.845558 0.0006260675 2.389052 
-4.862585 0 -3.010139 
-0.5491491 0 -4.333184 
0.9823439 0 3.285961 
0.1801256 0 -4.248651 
-3.851609 0 4.976667 
-3.288093 -0.0006695476 -2.332952 
1.715127 0 4.712355 
2.464732 0 0.624387 
4.103269 0 1.923339 
4.225115 0 -2.049024 
-3.184409 0 -3.094575 
3.327149 1.383321e-05 -2.056785 
0.830912 0 -2.904957 
4.659754 0 -1.838076 
3.463692 0 1.049459 
-2.316722 0.000781549 2.200711 
-3.294137 0.05531072 2.670493 
3.142387 0 1.551782 
-0.821551 0 -3.145811 
-2.136745 0 -0.9412032 
-4.317413 0 -3.06787 
-3.196562 0 -4.650683 
-0.03721933 0 1.330599 
3.812119 0 -0.4064418 
0.4930233 0 -1.706173 
-3.835938 0 -2.384773 
-1.0973 0.001803721 -0.3514356 
-0.8361132 0 -2.470513 
1.482295 1.803159e-05 -0.3279306 
-0.4294195 0 1.160245 
0.8157129 0 -1.7719 
-4.283446 0 -1.200054 
2.139217 0.002261642 2.772316 
4.689497 0 -4.020998 
1.600565 0 3.987558 
0.1604506 0 -3.5854 
-4.401611 0 -0.8543557 
4.152901 0 -4.318359 
-3.235089 0 -3.344574 
-4.290528 0 -0.5461321 
0.5770875 0.07356318 -0.494853 
-3.354964 0 -3.893794 
4.938032 0 -0.6547856 
-3.014915 0 -1.607609 
2.061394 0 -1.108167 
-3.850934 0 -4.355368 
0.8199348 0 -4.248198 
-3.77822 0 -4.536233 
-2.635386 0 -0.8132411 
0.04619133 0 -2.133014 
1.256213 0 -2.670327 
2.482176 0 0.3489858 
-2.609853 0.01760568 2.387645 
-0.7233107 0 3.639844 
4.959358 0 3.081324 
0.9410151 0 2.375047 
2.1334 0 -4.250672 
1.368794 0 -3.895897 
-0.6357956 0 -2.220102 
-4.223066 0 -3.154487 
-0.860027 0 2.874619 
4.088671 0 1.919964 
-1.210782 0 4.983663 
-4.548212 0 -0.3562329 
3.701524 0 -4.165173 
3.762338 0 4.638251 
3.03383 0 -2.906982 
-2.411457 0.0004560283 4.371542 
-0.423967 0 -1.798944 
0.7477961 0 -2.878641 
0.5070485 0 -2.969454 
-0.5068392 0 3.247498 
-1.345787 0 1.753063 
-1.271898 0 -3.231459 
-2.682389 0 -4.760393 
-3.726771 0 1.279388 
2.275579 0 4.12193 
1.451695 0 -0.872142 
-2.826481 0 0.7576109 
3.893756 0 -4.739613 
-0.9115064 0 -4.711102 
4.451128 0 -2.983507 
4.079357 0 -2.390752 
3.471156 0 3.466962 
1.784835 0 -1.668089 
-0.4064319 0 1.335755 
-2.960702 0 1.524076 
-2.813449 0.1116133 2.772273 
1.356893 0 -3.987226 
-3.226642 0 1.661608 
-1.219484 0 1.712402 
1.657602 0 3.339446 
-4.330933 0 3.532206 
-2.955433 0 -1.987938 
-0.3264693 0 3.180335 
-1.011998 0 -4.104475 
-2.677809 0 4.738375 
-4.470857 0 2.466489 
0.1953345 0 2.25392 
-2.996327 0 1.139741 
-3.354671 0.00876824 2.281195 
2.182971 0 1.06909 
1.223741 0 -4.882869 
1.514166 0 1.357828 
0.8634105 0 3.000047 
4.091696 0 3.44882 
-0.2430744 0.07211605 0.01852829 
3.716439 0 4.401022 
-3.451955 0 0.09030799 
1.961309 0 -3.321264 
-4.033017 0 1.970047 
-1.020033 0 -3.911754 
3.794878 0 -1.541793 
3.815597 0 -3.155393 
-3.024512 0.05201249 3.920812 
-1.8315 0 -3.250979 
3.050931 0 2.5118 
2.72605 0 0.9163504 
-3.166312 0 -3.864854 
0.1117534 0 3.705418 
0.3313652 0 -3.095635 
-1.348714 0 3.571047 
-1.279142 0 -1.749171 
4.340387 0 -0.6150284 
0.6698012 0.0636528 -0.2375067 
4.645553 0 -0.4540611 
-2.232312 0 1.083439 
4.639054 0 -2.296252 
0.9456203 0 2.102676 
-0.7367109 0 -2.711436 
-1.953362 0 -4.663938 
4.362323 0 -2.942499 
-2.487432 0 -1.106935 
3.020227 0 -1.39681 
-4.045768 0 3.920829 
-2.720313 0 0.09291039 
3.985847 0 -3.996771 
2.718601 0 -3.198163 
-4.417735 0 -3.097206 
2.86541 0 3.86866 
3.239063 0 1.560208 
-4.020176 0 4.090442 
-1.24003 0 4.195387 
0.4344245 0 -3.222815 
0.03070408 0.02286408 -1.2401 
-4.044785 0.000377365 2.804412 
3.632872 0 -1.210525 
4.698493 0 2.562981 
-0.3166599 0.07946967 -0.1978834 
-4.025434 0 2.004828 
3.408879 0 -3.913668 
3.656924 0 1.953401 
1.834103 0 2.382036 
0.3275986 0 2.540208 
0.9058553 0.01233927 0.2773342 
-4.122654 0 2.285581 
4.995112 0 -4.631334 
0.8267394 0.02611765 -0.807829 
0.427011 0 -3.943763 
-3.329541 0 -3.512145 
0.2977116 0 1.947849 
2.442098 0 -0.181937 
-4.535833 0 2.013498 
3.989284 0 -4.278167 
-3.6722 0 -3.436779 
4.991049 0 -1.254735 
-3.595589 0 -0.4113369 
-4.278046 0 4.273465 
-3.993367 0 4.33373 
-0.4404033 0 1.554458 
1.362916 0 0.7601911 
3.228834 0 1.264677 
3.528838 0 -4.975737 
-0.4360949 0.04695955 -0.797239 
2.491617 0 1.706337 
-2.616338 0.003653407 2.160249 
-0.8487806 0 -3.10546 
1.290819 0 2.946062 
0.4122943 0.04005779 -1.027496 
-0.5362772 0.002009767 0.6194531 
-1.237159 0 -2.152031 
0.1227735 0.04229892 0.3860863 
-3.853561 0 -1.576837 
-1.689536 0 1.835305 
0.06259923 0.001929123 -1.543788 
4.006254 0 4.3312 
-2.386745 0 -4.350668 
1.241038 0 -3.388691 
0.5169832 0.00690559 -1.330256 
-1.488898 0 0.2443873 
-4.82709 0 -2.253037 
4.176336 0 -3.581057 
2.424154 0 -2.14932 
-1.67095 0 -2.557383 
0.9657226 0 1.989827 
0.1078213 0.04774047 -1.039877 
-1.322138 0 1.710559 
2.318335 0 -2.140607 
-1.889065 0 -0.2526809 
-3.629112 0 -2.157729 
-0.7890441 0 2.547402 
-0.04204845 0 -3.212865 
-3.121303 0 -0.6461499 
0.9864901 0.01183577 -0.814176 
-1.442433 0 -1.067048 
-1.882219 0 -1.11884 
2.899376 0 -0.04049201 
3.204915 0 -4.062201 
3.105828 0 -0.2599276 
4.630058 0 1.077767 
0.2147852 0.1045212 -0.510039 
-0.9102099 0 3.668025 
3.212592 0 0.9783452 
-2.193085 0 -4.533686 
-4.529543 0 4.27238 
-3.427081 0 0.3164836 
4.841491 0 -0.1265078 
4.550557 0 -1.539367 
2.207537 0 -3.232422 
-3.171025 0 -4.424686 
0.8256615 0.004132207 -1.190374 
-3.843117 0 -3.766334 
4.877735 0 1.886184 
1.376783 0 3.107244 
-0.9671721 0 -2.234004 
-0.05328351 0 -2.441925 
-1.99336 0 0.2760886 
-0.2527187 0 4.773945 
1.179553 0.004217947 0.06319635 
4.494602 0 0.9495462 
-4.787074 0 3.119957 
-0.5248363 0 3.003659 
4.406921 0 -0.3816722 
0.6525551 0 2.018914 
-4.986894 0 -3.217114 
2.581151 0 -3.004452 
-2.203194 0 -1.54773 
-0.1028036 0.06567509 0.1666438 
4.242967 0 -1.223293 
-1.968711 0 -3.869897 
-0.310828 0 2.776865 
-1.435736 0 0.2929623 
0.4235376 0 -2.233948 
-1.863687 0 0.06032774 
-3.457019 0 0.4490196 
3.636246 0 -1.963975 
4.941941 0 -1.243508 
0.3908402 0.09034489 -0.1280556 
3.286822 0 0.4234119 
2.533181 0 -1.663034 
-0.0562594 0 -4.855567 
1.682807 0 1.582185 
3.592316 0 4.170324 
-3.037476 0.00293277 4.318298 
-0.4903842 0.057521 -0.1908647 
3.735265 0 -4.308216 
-2.489452 0 0.8085231 
-4.985104 0 -0.2553335 
-4.6857 0 3.943271 
4.971032 0 1.744499 
4.399993 0 4.746871 
-1.753663 0.0001307871 3.998716 
2.002398 0 -3.415216 
4.832504 0 -1.799296 
-4.925472 0 -4.277644 
-4.514132 0 3.161771 
3.446134 0 2.186582 
-3.003342 0 -1.198676 
-0.2014414 0.02156246 0.49876 
-4.678958 0 4.066321 
-2.181794 0 -2.619438 
-0.1638065 0 -2.98213 
-1.602978 0 4.594098 
0.006813204 0.0008081807 0.9085322 
-1.474236 0 -3.111592 
0.7195876 0 -2.889347 
-3.15877 0.01343566 4.11426 
-0.6827409 0 -3.155297 
1.75181 0 -3.382725 
0.3679034 0.01189548 0.6325926 
-1.352286 0 4.421347 
4.029657 0 1.551972 
2.895515 0 -0.5686913 
4.724712 0 2.224351 
4.242394 0 2.487315 
-1.258356 0 -3.407281 
3.85815 0 0.9424869 
1.896612 0 -1.555893 
-0.3501544 0 -2.65872 
-4.318924 0 0.3846915 
4.43925 0 -2.493003 
-3.388525 0 -4.624727 
-3.522529 0 -0.4068715 
-0.5569983 0 1.635528 
-0.3673869 0 2.943445 
2.395115 0 0.4104991 
-2.785048 0.01490462 4.157571 
1.69508 0 1.12962 
3.297591 0 -4.432926 
-4.302166 0 3.836397 
0.0445165 0 2.133743 
-3.776517 0.01317328 3.350751 
-0.9864441 4.95809e-05 -1.134614 
-0.1740544 0 -4.940521 
0.5875396 0 4.452521 
2.153161 0 3.494414 
-1.395103 0 2.460568 
0.8665526 0 -2.483926 
0.9201595 0 3.084839 
1.225584 0 3.437894 
2.894178 0 -4.880213 
2.137172 0 4.100698 
-3.815731 0 2.033743 
-4.722789 0 -2.567016 
-0.309146 0.07087509 -0.04142009 
-3.637696 0 -3.302334 
2.894947 0 4.749727 
-0.1294276 0.01366968 0.6067106 
3.384328 0 -4.335455 
-3.622875 0 -2.561707 
-2.538929 0 -1.0883 
0.02911455 0 3.342999 
-3.227159 0.1336894 3.069049 
4.403614 0 3.079819 
-0.8959403 0 2.804999 
0.9474645 0 4.850798 
3.777733 0 0.9503298 
-4.702547 0 4.549282 
-2.396425 0.08829289 3.550204 
-2.761628 0 -3.185071 
-2.727885 0 -3.082475 
3.352683 0 -0.9564134 
1.479655 0 2.045311 
4.255301 0 -4.188487 
-0.6169289 0 -3.94363 
4.493919 0 3.270062 
-2.046248 0 -2.189917 
-2.233354 0 -2.313548 
-1.4491 0 0.9625089 
0.7608241 0 -1.792182 
4.240471 0 3.308656 
-1.529443 0 -1.93292 
-0.7810116 0.0228546 -0.4826281 
-1.862935 0 -1.389195 
0.5820969 0 -2.56103 
0.2329657 0 1.794634 
-4.191552 0 -3.154804 
-3.770913 0 0.8996083 
2.608026 0 -3.67321 
0.9166158 0 3.424225 
4.463929 0 4.415494 
0.3975026 0 2.50634 
4.646209 0 4.989981 
-2.944393 0 -3.988635 
-4.638935 0 -2.239487 
-2.146902 0.03574121 3.56416 
-3.917263 0 -3.309157 
-1.605209 0 -4.595167 
-2.325085 0 0.1075181 
-0.3881249 0 -4.697948 
3.074585 0 -1.227685 
-4.770813 0 -2.723064 
2.014972 0 -2.839388 
4.481461 0 2.885507 
0.7915426 0 1.59741 
-1.305932 0 2.534204 
-3.531638 0 4.889753 
-3.26484 0 -1.124044 
-1.214473 0 2.264916 
-3.235091 0 -1.149239 
0.4252212 0 1.385003 
3.691742 0 -1.339375 
3.375275 0 2.894691 
-0.7783737 0 2.474947 
-1.372524 0 2.379314 
-4.367881 0 -2.540878 
-1.466058 0 1.538426 
-3.217537 0 0.7583877 
4.932778 0 4.245039 
2.453905 0 3.46343 
-3.6546 0 -0.7732719 
-4.606142 0 2.135725 
3.241723 0 -3.893928 
0.5313882 0 -4.14391 
-2.056788 0 -4.555149 
2.954053 0 -2.581054 
-0.4389623 0.06715181 -0.3038256 
3.461233 0 -4.645394 
-4.939209 0 3.703632 
2.652736 0 2.195005 
1.568623 0 -0.6356559 
-4.359317 0 1.774976 
4.365026 0 1.160491 
1.149614 0 4.805577 
4.499155 0 0.5551583 
-1.774067 0.002893261 3.220246 
-4.210069 0 -3.422327 
-1.382658 0 -4.717936 
-4.478604 0 -1.50124 
3.679954 0 2.771123 
0.963216 0 3.016083 
-0.2312511 0.05396689 0.1976482 
1.298617 0 3.867821 
-3.365028 0 4.975911 
3.564507 0 0.8927732 
2.092563 0 -1.754738 
3.372678 0 3.236716 
4.314404 0 4.855695 
-0.6023977 0 -1.629171 
2.46004 0 1.212522 
1.416362 0 3.048265 
1.02466 0 -2.974909 
-3.441565 0 -3.290749 
3.043422 0 -3.745065 
0.3743617 0 -2.847333 
-3.675153 0 0.932724 
-2.687779 0.06249065 2.62226 
1.886648 0 4.0162 
1.421988 0 -1.152964 
-4.021551 0.0002618477 2.659969 
4.784324 0 0.7117081 
4.16964 0 0.7101498 
2.571821 0 -0.7098577 
-3.774287 0 1.356241 
4.194544 0 -0.7634928 
3.209668 0 0.3929285 
2.98899 0 -2.920598 
-0.9199249 0 1.796322 
4.590449 0 -1.153398 
4.036166 0 -4.365866 
1.619518 0 0.4911007 
-1.086071 0 -3.549246 
3.36809 0 0.6171395 
3.006592 0 -4.475337 
4.893592 0 4.516492 
0.9686148 0 -3.451478 
4.704985 0 -2.342741 
3.94853 0 3.430231 
-4.597045 0 4.836846 
1.571054 0 -2.72303 
1.852902 0 -1.865537 
4.794279 0 -1.065694 
-1.097073 7.468477e-05 0.2015366 
1.302475 0 -3.196946 
3.134169 0 -3.518184 
0.1893761 0 4.651828 
-2.535975 0 -4.054169 
0.577672 0 -4.680682 
-2.835993 0 -4.254337 
-1.831197 0 -0.6982272 
-4.018063 0 -4.392492 
-1.603867 0 -4.423494 
-3.323338 0 -4.180654 
4.338775 0 1.83517 
1.120768 0 -2.269509 
-1.293049 0 3.124501 
-2.132457 0.01611159 3.812581 
2.070849 0.007620133 2.717413 
4.740627 0 -1.189876 
-3.942382 0 -4.329222 
-4.082848 0 3.809584 
0.8720163 0 -2.273741 
2.00371 0 0.2883521 
0.3251114 0 4.665061 
1.424505 0 0.8852353 
-1.109785 0 -4.086154 
4.809785 0 3.827757 
2.706181 0 -0.5740617 
-2.904836 0.001560738 2.008904 
-2.915789 0 -4.553385 
-3.052475 0.05606227 2.561641 
-4.29073 0 0.3627707 
2.21549 0 -3.513837 
-2.582074 0 -1.289525 
-1.452612 0 0.2850232 
-1.344324 0 2.71589 
4.939893 0 -0.3046176 
4.859041 0 -2.688745 
-1.278354 0 -1.089799 
2.27704 0 2.049247 
-1.136712 0 -4.673013 
-4.723947 0 1.663444 
-0.6689245 0.0004556285 -1.379881 
0.04518168 0 -3.167458 
3.769439 0 -0.4720157 
-0.524204 0 -4.020708 
-4.70625 0 2.236901 
-3.33248 0 -1.131161 
-3.984599 0 1.254463 
-3.276084 0 4.714542 
3.868066 0 0.1195135 
-2.451625 0 0.4788344 
0.3226624 0 3.878554 
1.731622 0 -0.28151 
4.775725 0 -0.2052543 
-3.854139 0 1.599205 
1.571714 0 2.7246 
2.376816 0 -0.9369678 
-0.237277 0 4.772875 
0.7916545 0 -3.696122 
4.804989 0 -1.935888 
-3.430874 0 0.6504952 
-3.883186 0.004568915 3.330547 
4.009315 0 -1.539105 
3.796654 0 2.004816 
2.997929 0 -0.8586466 
1.90263 0 0.2998747 
-4.927789 0 2.336273 
-3.89117 0 -4.211943 
4.724218 0 -2.964833 
-1.21897 0.000121719 -0.4378137 
-2.486114 0 -3.48707 
0.001226927 0 4.71903 
-2.390907 0 -4.716489 
4.216687 0 4.345352 
-0.8685421 0 2.482596 
-4.782824 0 4.907361 
-2.434855 0 -2.02066 
-1.996265 0.01842397 3.47727 
4.182245 0 -0.4996161 
1.275712 0 4.033247 
-3.778642 0.00822406 2.761468 
4.204434 0 0.07673061 
-3.876537 0 1.787736 
-0.2697026 0 2.631594 
-0.02754334 0 -3.534938 
4.20379 0 4.426612 
4.729789 0 -0.5655376 
4.518031 0 0.3433886 
-4.200834 0 3.134979 
-3.121608 0.02315889 4.047769 
2.445674 0 3.400651 
1.944306 0 0.9996324 
0.4992286 0.04475522 -0.9371098 
-3.095726 0.0443256 3.93334 
-1.536445 0 1.976577 
1.580537 0 3.412112 
1.429749 2.261918e-06 0.2830569 
4.551529 0 -2.802761 
3.540072 0 3.188122 
4.010308 0 -1.528886 
3.392854 0 2.613283 
-0.2757655 0.04338447 0.2628532 
-1.059423 0 -1.29674 
1.459972 0 2.071739 
2.24071 0 1.102525 
4.105673 0 4.385746 
-0.09517772 0 2.488913 
-4.047506 0 0.8391817 
-2.520901 0 -3.657486 
-0.8944122 0.01194738 -0.5123807 
4.493052 0 2.758802 
2.228151 0 3.634177 
-4.162558 0 -2.253475 
-0.8956072 0 -3.137269 
1.299221 0 -1.975616 
-2.508299 0.000639059 2.050247 
-4.94251 0 -0.7740105 
3.76052 0 0.5833828 
-0.717864 0 -2.683385 
0.07734326 0 -4.76682 
4.52459 0 1.501017 
0.627025 0.01854117 -1.113117 
-2.881505 0 -0.5034482 
0.9771923 0 3.777596 
-1.343055 0 -1.280482 
0.02830858 0 2.107678 
-4.127809 0 2.298804 
1.222257 0 -1.202514 
2.414211 0 -3.529618 
-2.61089 0 -0.1311191 
-3.914044 0 -1.435067 
-4.99981 0 3.98673 
-2.21292 0 -3.812405 
2.608671 0 -1.495426 
0.1060252 0 2.936765 
-4.171318 0 3.639507 
-0.6725155 0 1.924455 
-2.258672 0 4.8944 
0.03517624 0 -4.45472 
4.033321 0 0.8348163 
-2.896752 0.009218464 2.208434 
-1.926615 0.005045134 2.914947 
-3.304173 0.02118141 2.433277 
3.809472 0 3.162207 
-4.941506 0 -2.402429 
-0.3648365 0 2.328346 
3.266345 0 -2.794125 
4.395881 0 1.32274 
4.337245 0 3.588036 
-3.068999 0 -1.229178 
1.818611 0 -4.470472 
3.007152 0 -4.593595 
0.4801108 0 -3.727662 
-4.742805 0 3.403375 
-3.06731 0.03244868 4.003484 
4.690928 0 -3.584851 
-1.776785 0 0.02936612 
-4.375984 0 2.344783 
-3.538541 0 -1.223595 
-2.199386 0 0.8296174 
-0.2543041 0.02568247 0.4356112 
3.865192 0 -3.205306 
-4.881023 0 -1.21832 
-0.8514453 0 -2.811091 
0.09782995 0 -3.626136 
-3.961226 0 -0.07431566 
-1.248235 0 -4.418805 
2.480925 0 -2.439085 
0.9800853 0 3.624699 
-0.5786058 0 1.190006 
-4.731745 0 -1.372669 
1.137779 0.005141103 -0.694839 
2.918381 0 4.108399 
1.368723 0 3.547617 
1.231791 0 1.837223 
3.339121 0 -4.977719 
0.9858242 0 -2.36325 
4.16423 0 -2.215121 
-0.8869644 0 4.640605 
-2.941941 0 -3.889945 
-4.095304 0 -3.059547 
4.115304 0 1.222077 
3.604645 0 -4.524759 
1.257528 0 4.677212 
-3.837486 0 4.894406 
0.8412231 0.04003387 -0.1976427 
2.979234 0 1.100186 
3.419817 0 -2.595591 
4.43593 0 4.923512 
3.377173 0.01543616 -2.32279 
3.947203 0 0.836869 
3.83952 0 -1.08081 
-3.928799 0 -3.679435 
2.332256 0 -2.79672 
2.997624 0 0.1747617 
2.410503 0 -1.104926 
3.374578 0 3.674608 
-3.706277 0.02014893 2.974568 
-1.040691 0 0.7231258 
2.397432 0 4.318693 
4.962893 0 -4.70187 
-4.910378 0 -3.225429 
-1.846318 0 4.440484 
1.332168 1.037271e-05 -0.8717514 
-4.139462 0 0.269359 
-1.42876 0 3.303691 
-0.4526187 0 -1.775076 
-2.389651 0 -1.533886 
-3.68361 0.008301599 3.752222 
0.7660048 0.0009875436 0.7704226 
2.763368 0 -0.6549286 
2.545231 0 4.146929 
3.502993 0 -4.133587 
-4.663791 0 -3.244509 
-2.870303 0 -3.040314 
-4.757259 0 -3.563498 
4.734452 0 -3.673665 
4.508076 0 3.874311 
0.6651732 0.03060651 -0.9446528 
4.079343 0 -0.536366 
-4.973857 0 -1.226027 
-4.495762 0 1.467785 
1.420449 0 -1.170304 
-2.400015 0 -4.623199 
0.3420423 0 2.281704 
-3.310437 0 -1.073305 
4.422265 0 4.366008 
-2.369823 0 4.615167 
4.167786 0 3.744042 
3.153822 0 2.770535 
3.953948 0 -1.375771 
-1.41317 0 2.046417 
4.283896 0 3.74687 
4.40837 0 -0.6090536 
0.67158 0 4.872665 
-3.694903 0 -1.529572 
0.7660382 0 -3.91449 
3.204956 0 1.289244 
-2.878171 0 -2.137382 
-2.86534 0 -3.211575 
4.539066 0 -4.298994 
-3.653799 0 -3.142554 
2.612269 0 3.167256 
-0.9775392 0 2.113866 
-2.042562 0 4.792613 
-4.911123 0 -1.796899 
-3.911501 0 0.6385658 
-1.2309 0 -3.411272 
-3.158442 0.05762664 2.603966 
-2.889627 0 -4.027617 
-2.685032 0 -3.508839 
-1.213438 0 -1.976245 
3.627663 0 -1.856678 
0.3630659 0.08708487 -0.6337519 
-2.805633 0 -3.044519 
4.587543 0 4.478613 
-4.107767 0 4.64286 
-1.086629 0.002065183 -0.4653872 
0.9430061 0 2.02682 
-1.695258 0 -4.385353 
-3.89332 0 0.8589289 
1.077062 0 2.082659 
0.426313 0 -2.45904 
-3.832973 0 0.4223037 
0.2023727 0.0143242 0.6293601 
1.938802 0 -0.2687807 
0.8183967 0 -2.056054 
4.669105 0 0.5413538 
2.529987 0 3.240772 
-1.194179 0 3.36622 
-2.336581 0 -0.6108861 
-1.560861 0 2.064677 
4.86834 0 0.5637301 
3.300536 0 3.099871 
4.494 0 -3.868299 
-1.001094 0.005501213 -0.4401973 
-2.692183 0 -2.246446 
2.012656 0 -0.3624349 
-4.215802 0 -2.050815 
-0.3778733 0.04870446 0.1299225 
-4.620796 0 3.780429 
3.927502 0 -0.6405411 
4.157976 0 3.558699 
2.251807 0 -4.662918 
4.400287 0 -2.826381 
-0.2482325 0 2.351841 
3.281516 0 -0.4115073 
-2.961872 0 -1.186172 
4.288995 0 -3.31874 
0.307739 0 2.827062 
-0.6694239 0 1.701143 
1.869299 0 0.1812381 
-1.106336 0 3.144491 
0.7872312 0 2.570223 
2.459166 0 0.735643 
2.452431 0 4.033157 
0.1908887 0 -4.986376 
-2.950856 0.03043352 4.043265 
1.110892 0 4.50691 
3.194894 0 -1.011173 
4.563977 0 0.8213757 
-1.377705 0 3.638399 
-1.522915 0 0.5945303 
4.765359 0 -0.7019015 
-3.20113 0 -4.619477 
-1.285056 0 0.9601298 
-4.841931 0 4.765955 
-4.797326 0 -4.134721 
1.936349 0 4.147297 
-1.852648 0 1.16076 
0.121172 0.09467021 -0.03165643 
1.157972 0 -4.254452 
3.083942 0 1.005258 
-0.8899066 0 -3.067668 
3.197734 0 2.917984 
4.124278 0 1.78309 
1.345105 0 3.75861 
-0.3759271 0 -2.942809 
2.547232 0 0.9012492 
0.7533854 0 -2.449223 
-1.759485 0 4.4064 
4.442013 0 -4.256291 
0.07792342 0 1.232704 
-0.05243134 0 -3.4004 
3.798254 0 -3.37801 
3.762097 0 2.039382 
-1.091165 0 1.34265 
-4.045099 0 -4.37681 
-0.6326435 0 -4.741634 
2.404098 0 1.39032 
-4.989935 0 2.027589 
1.42281 0 3.197824 
1.220225 0 0.7632225 
-3.22391 0.0005625253 4.389974 
-3.850941 0.003548923 3.547264 
-0.1256477 0 3.843746 
1.721154 0 2.080367 
-2.144089 0 0.5737126 
-1.094914 0 -2.254418 
0.8995342 0 -2.044688 
-2.331096 0 -3.657845 
-3.507796 0 -4.796833 
-4.271393 0 3.132767 
3.140534 0 3.775973 
-4.608073 0 -0.5066587 
1.380291 0 3.238174 
-1.001099 0.0009138171 0.1616416 
-0.528388 0 4.041361 
-1.277264 0 4.83956 
0.5069668 0 -3.436934 
3.980373 0 -2.669571 
-1.871649 0.0007180657 2.765122 
-0.659546 0 -4.033322 
-3.943039 0 0.768707 
-0.6278654 0 1.424252 
-2.72823 0 1.203236 
1.580022 0 -0.2195056 
-2.163814 0 -3.793876 
0.8851876 0 1.324011 
4.805703 0 -1.757728 
0.3469032 0 -2.590752 
-2.828292 0 0.7286888 
1.158289 0 1.887621 
0.9075276 0 4.306521 
2.561696 0 1.96856 
-4.306756 0 -0.778114 
4.747651 0 -4.197626 
3.719533 0 0.8294241 
-3.635804 0 -0.1214816 
3.261221 0 -3.58612 
4.275654 0 2.468082 
-1.70849 0 4.843287 
3.589323 0 -2.870983 
4.991508 0 -4.283325 
0.273632 0 -4.133965 
-0.5524422 0 4.600779 
-0.9175221 0 -2.019086 
1.179808 0 3.471754 
-0.4795623 0 4.76605 
-1.73173 2.13405e-06 4.082027 
-2.888747 0.09749307 3.767536 
3.077206 0 -3.821954 
3.873676 0 4.464415 
1.511741 0 1.023221 
0.609423 0 -2.411001 
-2.330043 0 -2.369493 
-0.1621449 0 1.694434 
-0.4624198 0.05393024 -0.04709864 
4.91375 0 4.922433 
-0.6495161 0.0248988 -0.8052185 
1.086373 0 3.0308 
2.175191 0 0.4933968 
3.352201 0 3.624095 
3.212541 0 -1.626852 
-0.1323952 0.02362871 -1.208363 
-1.444451 0 4.38108 
-1.730906 0 -0.5320184 
-4.239326 0 -3.279269 
1.368807 0 -4.782796 
-0.4444861 0 2.379624 
4.437735 0 2.306553 
-1.859969 0 1.352311 
0.1009547 0 3.683158 
-3.302978 0 -3.191114 
1.000728 0 -4.38028 
-1.582194 0 -0.210535 
-2.478919 0 -3.79176 
0.7509893 0 -2.217977 
-4.75651 0 -4.1375 
-2.571589 0 -0.6498099 
-2.2941 0 -3.582668 
4.133226 0 2.044128 
0.6546966 0 -1.759112 
-1.214598 0 2.514244 
3.840455 0 3.381493 
2.365839 0 4.036817 
-2.41055 0 -1.395802 
-3.814369 0.001163403 2.427837 
3.01139 0 3.075996 
3.048792 0 1.291574 
3.975238 0 4.967155 
0.7515372 0.04657734 -0.0678739 
-2.282512 0 -1.907841 
2.07787 0 -4.5164 
-1.599689 0 2.057189 
0.8859714 0.01034543 0.3445122 
1.668515 0 -1.473062 
-0.6444026 0 1.743522 
0.3441789 0 2.265458 
3.89571 0 4.031404 
1.159661 0 2.451393 
-3.819271 0 4.588153 
-4.80541 0 1.599891 
4.263816 0 -2.447369 
1.682769 0 0.8273443 
3.80282 0 0.7001411 
-4.589726 0 2.463182 
-3.363879 0 -3.403761 
-0.6678109 0.01408462 -0.9755266 
-2.851938 0 0.9850982 
-2.722779 0 -2.279408 
4.923878 0 -0.00904741 
1.792058 0 -0.5384495 
-1.883722 0 -0.5963567 
3.643443 0 4.272389 
2.072846 0.01762536 2.940416 
2.063863 0.01602664 2.972871 
1.032531 0 2.961681 
2.678172 0 -1.077149 
