ply
format ascii 1.0
element vertex 1527
property float x
property float y
property float z
end_header
34.620397 -5.552767 43.484016
33.623764 -6.091891 43.293201
32.963132 -5.385425 43.681905
31.943050 -5.198759 43.139016
31.699513 -4.790150 43.728787
30.665363 -4.956926 43.465958
29.271574 -5.555523 43.445250
29.062478 -5.862798 43.394345
-24.288469 -15.229647 139.029799
-70.952852 20.313109 91.444680
-52.822036 -49.091381 135.002369
-46.429949 38.126292 28.691897
-60.824240 -8.641667 85.150758
-39.551320 -3.089304 120.821469
-30.291326 -15.698609 89.358312
-56.478891 -7.631683 100.103554
21.524477 -17.286437 45.011539
-55.833829 -13.135700 78.950230
-57.413334 -7.018397 99.109311
18.863808 -19.799518 44.669076
18.224608 -21.385013 44.857526
17.227247 -21.562312 44.979557
16.474174 -23.172797 45.366763
15.557617 -23.150936 45.036673
15.604563 -22.914357 44.974462
13.408926 -22.694241 44.531071
13.365316 -22.720025 45.000943
13.210222 -23.116052 44.559212
11.552922 -23.916280 44.467897
10.943790 -23.472731 44.832640
9.260227 -24.595303 44.355517
8.599555 -23.833724 45.211439
7.834613 -24.476217 45.156620
8.239686 -25.155910 44.866755
7.103413 -24.394752 44.642397
5.766774 -24.917254 45.197125
5.263583 -24.118458 45.434971
5.107676 -25.519431 44.545313
3.187179 -24.656291 45.416093
2.903994 -25.099477 44.198913
2.225025 -25.226137 45.570327
0.597784 -25.860949 44.773082
-0.217737 -25.432710 45.550584
-0.415686 -26.373598 45.204797
-1.119012 -26.033705 44.976719
-2.745191 -26.918171 45.312329
-2.564413 -26.814538 45.366165
-3.977467 -26.934032 44.796895
-5.352463 -27.076610 44.683350
-5.344966 -27.236262 46.163814
-5.740200 -26.847242 45.198731
-7.166821 -27.442409 44.903369
-7.325723 -27.411430 44.871911
-8.403762 -27.282144 45.148412
-10.060206 -27.576175 44.896630
-10.671535 -27.631738 44.987845
-11.170092 -27.529225 45.624822
-11.492467 -27.618635 45.855496
-12.580811 -28.246436 45.275581
-14.164274 -26.899514 43.874673
-13.871405 -26.950176 45.173692
-15.152152 -26.054285 45.157272
-15.682999 -26.156403 45.963669
-17.102492 -26.551446 44.766349
-18.084485 -24.998427 44.811208
-18.868988 -24.589712 44.842408
-18.861625 -24.004273 44.785879
-20.936092 -24.050524 45.068142
-58.571873 -7.320542 99.596485
-23.965324 -13.326990 135.886018
-58.005364 -6.590379 110.519389
-43.502199 -2.968343 125.594759
-17.196658 42.584692 28.670758
-23.661882 -15.072043 138.228151
-49.188763 -5.635790 104.437724
-26.968977 -8.171452 43.376497
-28.001119 -8.539930 44.128040
-28.649478 -7.350376 43.626481
-28.498095 -8.571957 43.380373
-30.030759 -9.289099 43.650097
-31.297967 -9.484378 44.053757
-31.833751 -9.403745 43.462928
-32.172010 -9.726326 43.677746
-33.156976 -9.202553 44.162537
-33.897460 -9.049272 44.138596
-34.877319 -8.685597 43.425339
-35.022021 -8.952360 43.155786
-36.640990 -8.843968 43.210725
-37.491589 -8.399838 43.790005
-38.741977 -7.953300 42.710282
-38.875859 -8.099447 43.111571
-39.758845 -7.151004 43.997392
-40.221794 -6.989520 43.114284
-41.473044 -7.376376 43.273063
-42.524213 -5.935153 42.266645
-43.635469 -5.814985 43.461933
-51.760775 -8.884732 93.720243
-54.380049 -8.499532 93.875307
-50.685312 -48.843993 133.887461
-33.337271 -7.766737 129.859004
-10.540969 -22.046129 141.209634
-13.849069 42.687777 29.208751
-73.082109 31.618528 92.182402
-62.195050 -5.738805 101.278459
-41.249804 -3.520562 129.539438
-61.566001 -8.069574 85.731571
-56.764222 -13.150537 79.194776
41.722532 -2.844186 44.815225
41.738172 -3.241766 44.441018
40.129285 -3.774232 44.059995
38.890971 -4.517869 44.636296
38.062851 -4.128393 45.203202
37.824263 -4.263997 45.247885
36.635828 -4.473485 44.687466
35.503660 -4.820422 44.683905
35.203338 -4.903857 44.875709
34.786045 -5.150131 44.748544
34.107459 -5.638338 44.721515
32.878366 -5.005244 44.143890
31.789744 -5.453063 44.307303
31.056840 -4.479780 44.700057
29.776428 -4.351078 45.054707
29.753318 -6.172074 44.866012
-62.942199 -7.128960 86.200103
-9.088392 -24.125839 143.586422
-10.561879 -20.564716 28.305630
-57.362698 -37.935966 123.946697
-54.762283 22.587500 53.741441
-49.656553 18.906210 49.697833
-34.451567 -16.193541 86.522134
-35.920155 -16.315151 88.137685
-6.567202 -19.750951 28.154192
-63.917312 -6.268279 85.287201
-8.540282 -18.350739 87.372445
-59.348648 -6.120245 98.640690
18.797693 -20.981688 46.289098
18.169393 -21.504670 45.548444
17.288697 -22.250543 46.104071
16.731978 -21.950555 45.897123
15.883021 -22.561674 45.748845
14.513162 -22.624228 46.199116
14.767447 -24.060515 46.395793
13.743783 -23.254590 46.891540
12.770826 -23.201112 46.437187
11.531519 -23.754561 45.837264
11.458579 -23.421642 46.269754
10.314634 -24.355408 45.880519
9.706419 -25.287293 46.270437
8.128696 -24.543597 46.311881
8.091293 -24.823450 46.177642
6.713279 -25.117958 45.931097
5.688791 -24.255404 46.639788
4.754795 -25.154448 45.995561
4.065162 -25.892811 45.737427
2.882312 -25.183503 46.357165
2.464545 -25.808418 46.512712
1.505622 -25.284485 46.974076
1.439284 -26.424249 46.136471
0.874886 -25.716263 46.093658
-0.762593 -26.163811 46.449973
-1.414467 -26.282374 46.469688
-2.551842 -26.071524 46.798073
-2.581685 -26.742781 47.122333
-4.352768 -26.763448 46.511731
-4.072833 -27.002569 46.840684
-5.183891 -26.957173 46.618139
-7.021976 -26.720134 46.584285
-7.293984 -27.864794 46.482053
-8.055184 -28.079509 46.788115
-8.495884 -28.082574 46.520774
-9.022863 -26.729550 46.585707
-10.364733 -28.083937 46.568926
-11.382284 -28.171594 46.023066
-13.011323 -28.919859 46.250988
-13.033457 -27.874479 46.921564
-13.162245 -28.210095 46.046572
-14.722147 -27.879713 46.871794
-15.001013 -27.463121 46.791719
-15.903616 -26.932596 47.476367
-17.481290 -26.616455 46.498377
-17.776277 -25.850815 45.954027
-18.142963 -26.008892 46.613427
-19.106744 -24.957876 47.099535
-57.472734 -12.867180 78.970734
-55.223821 -46.969105 147.786600
-59.017270 -6.131266 110.255422
-31.640193 -8.388390 127.196185
-48.865002 -4.918463 112.604583
-55.997929 27.276969 57.110407
-25.181587 -13.638618 138.275203
9.092747 -17.586527 83.388238
-26.940835 -8.826014 44.119278
-26.763253 -8.791505 44.860725
-28.041702 -8.604152 44.149633
-28.318766 -8.282669 44.796325
-29.811111 -8.844525 45.073528
-30.782297 -8.929544 44.581654
-31.719008 -9.549249 44.282247
-32.533044 -8.636945 44.298839
-33.274173 -9.044849 44.069187
-33.373798 -9.360908 45.079072
-35.206380 -8.806067 45.264421
-35.264819 -8.907207 44.620854
-36.421238 -9.191773 44.462797
-36.581664 -9.447693 44.532961
-38.540325 -8.194916 44.296085
-38.683437 -7.910376 44.394347
-40.028613 -8.135814 44.147274
-40.647725 -7.237383 44.090581
-41.253935 -7.073014 44.312031
-42.266931 -6.339348 44.544256
-42.714527 -5.866319 43.926285
8.272712 -17.901031 83.562811
-58.400618 -12.440102 78.810091
-17.815205 44.127683 30.194968
-32.837089 -9.860233 130.014386
-10.991089 -22.085393 141.529712
-15.223010 43.453867 28.999728
-44.996500 32.870612 58.723580
-46.128684 -0.721864 118.578435
-62.701349 -5.323124 113.536411
-52.047890 31.785912 60.484896
-58.899405 -12.013757 78.779844
42.040516 -2.628409 45.233059
41.371173 -2.593816 45.285873
40.662070 -3.187721 45.725801
40.244444 -4.401120 45.789114
38.900356 -4.159506 45.908355
38.677668 -4.275472 45.766856
37.923274 -4.472372 45.380330
36.904998 -4.843301 45.722175
35.986120 -4.359076 45.835369
36.003576 -5.185290 45.222442
34.419336 -4.617153 45.924935
34.002380 -4.003252 46.179201
32.674313 -5.035750 45.521707
32.549304 -4.867633 46.224684
30.324418 -4.523502 46.064359
30.265876 -4.980052 45.783754
-60.188223 -11.591886 79.025865
-65.954397 -4.064441 105.899270
-52.525029 29.316291 57.920503
-18.299601 43.214786 29.474537
-50.271304 18.697149 50.004792
-50.152343 19.031764 49.411625
-36.617519 -16.575814 86.689975
-47.038561 -5.875024 103.250859
-47.469586 -5.398662 103.339319
-60.900667 -10.178906 78.505895
-52.150779 -6.770257 106.415853
-62.046102 -10.243689 78.496310
-20.855871 -18.144153 86.411498
19.326966 -21.492966 47.722476
18.154989 -21.200066 46.603480
16.918023 -21.842030 46.763325
16.052211 -21.575723 46.789130
15.779725 -22.636351 47.526217
14.999402 -22.032732 47.055033
14.832865 -22.387894 46.881163
13.485015 -22.721310 46.367417
12.509244 -23.612450 47.579448
11.734124 -23.150379 47.265736
10.765875 -23.724458 46.998504
9.799405 -23.471231 47.136914
9.604384 -24.381481 47.851350
8.350345 -23.837999 47.349358
7.703919 -24.541567 48.455850
6.917340 -24.302149 47.483901
5.622966 -25.626450 46.945204
4.757101 -25.273586 48.528569
4.133867 -25.317959 48.029828
2.657379 -25.622175 46.737230
2.931421 -26.540303 47.411430
2.206550 -26.656114 47.189434
1.618035 -25.770377 47.474748
-0.373732 -26.566152 47.132909
-0.092974 -26.656883 47.686528
-1.965446 -27.201202 47.696255
-2.443044 -26.922062 47.271093
-3.089098 -27.853483 47.907591
-4.499859 -27.867109 48.389823
-4.428096 -27.998316 47.602781
-5.450290 -27.899238 47.661871
-6.298549 -27.646167 47.198009
-7.676254 -27.763578 47.482962
-7.695838 -27.957440 48.125277
-8.873956 -28.031618 47.760541
-8.945032 -28.870037 47.571997
-9.790257 -28.205606 47.078598
-11.208128 -28.633659 48.236931
-11.901743 -29.059850 47.156791
-12.319322 -28.497206 47.487042
-13.083744 -27.939652 48.175357
-14.390213 -28.922879 47.973183
-14.318135 -28.018179 47.897617
-15.730278 -27.571888 48.152715
-16.371161 -26.700503 48.173783
-17.874450 -26.834697 47.665398
-19.049300 -25.709727 46.212064
-18.892102 -25.196784 47.686587
-55.357945 -47.711180 146.798735
-42.920671 -0.888533 117.949123
-37.732542 -15.918402 87.028560
-37.020771 -7.426556 129.783325
-63.467625 19.952955 59.341407
-62.472909 37.269241 90.945755
-30.398695 -9.407941 128.771216
-15.137498 -17.921722 141.183039
-25.825529 -8.586991 46.180968
-28.112497 -8.008921 45.997052
-29.205452 -8.604363 46.360092
-28.963123 -8.604601 45.506408
-29.129693 -8.957831 45.442648
-30.262962 -9.442959 45.221507
-31.045235 -9.444581 45.495745
-32.399541 -9.314190 45.731960
-33.047374 -8.908468 46.939476
-33.821707 -9.473536 46.533221
-35.244842 -9.244913 46.147813
-34.909128 -9.351174 45.839360
-36.522677 -9.494273 46.714835
-36.994551 -8.820678 45.729680
-38.141816 -8.480930 46.304572
-38.058819 -8.777141 46.184762
-39.011972 -8.785361 45.693767
-40.146154 -8.083867 45.933025
-41.404098 -7.776572 45.831491
-42.564279 -7.858291 45.277895
-42.742221 -6.747728 45.955673
-60.612404 -7.669243 105.299696
1.699678 -17.899397 83.462031
-50.308163 -5.877352 111.773844
-31.039843 -10.007290 129.906005
-12.091878 -22.155528 141.335533
-15.540293 42.710447 29.362053
-55.986723 30.270422 60.685130
-45.538297 -0.704157 119.101789
-68.393258 -3.190188 103.787245
1.095141 -18.313966 82.840654
43.276071 -2.950659 46.342194
42.811196 -2.543056 46.180963
42.034082 -3.646755 46.800114
41.364555 -3.627417 46.621829
39.773015 -4.043283 46.995845
39.492015 -3.964857 46.619135
38.527719 -4.591708 46.975809
38.546648 -4.373836 47.175028
36.263044 -5.250383 46.418318
36.418446 -4.257794 47.023293
35.112935 -4.734451 47.340547
34.108102 -3.411650 47.173028
34.222567 -3.969216 47.147206
33.244553 -4.218388 45.677356
32.184027 -4.453395 46.456113
32.156912 -4.995942 47.019230
0.390971 -19.017736 82.538618
-59.915538 -6.621550 106.755188
-56.211404 -6.580611 110.946404
-28.179164 -12.526687 140.180730
-38.073075 -16.218479 87.271662
-39.054928 -15.294316 87.175491
-64.860491 -3.620466 99.544251
-65.618748 -4.493519 100.585502
-57.108069 -6.250254 94.732114
-46.647655 -5.977219 102.118491
-64.836393 -4.966799 103.295342
-28.852080 -18.262739 79.988526
-54.106097 -7.377047 98.916179
20.212527 -19.838082 47.668991
18.732753 -21.365899 47.983862
18.188698 -20.607508 48.726600
18.169409 -21.428867 48.057743
15.982367 -22.174398 48.474069
15.887922 -21.764980 48.992392
14.538611 -22.502552 48.718462
13.781906 -23.042871 49.590803
13.633996 -23.349764 48.663326
12.705189 -22.523691 48.024134
12.088507 -23.559752 48.377801
11.417914 -24.174739 48.536506
9.531003 -23.747836 48.403339
8.900646 -24.960646 48.341658
8.016877 -24.457902 49.018757
7.652313 -25.156204 48.436597
7.393174 -25.642244 48.815967
6.017884 -24.623734 49.193494
5.008925 -24.872643 48.450858
4.414311 -25.177572 48.849146
2.997134 -25.884846 48.222998
2.376262 -26.732435 47.950833
1.921794 -26.786559 48.881459
0.632143 -26.311506 48.955026
-0.237038 -26.719448 49.102922
0.317921 -27.187033 48.128610
-1.128675 -27.728667 49.623844
-2.565514 -27.878394 48.464250
-3.387498 -27.151727 48.390623
-3.977425 -28.307148 48.621886
-4.979922 -28.019473 48.805420
-5.930444 -28.361191 48.788423
-5.613225 -28.435984 49.031617
-6.824721 -28.460790 49.657763
-7.841084 -27.449212 48.951349
-8.617209 -28.498072 49.415120
-9.925213 -29.301278 49.381498
-10.609387 -29.647995 49.086583
-11.104215 -29.495266 49.394467
-12.347887 -29.277128 48.666175
-12.372619 -29.171259 49.026586
-14.185842 -29.134463 48.421947
-14.169224 -28.458043 48.769279
-15.482412 -28.360757 48.705929
-15.550437 -28.410228 49.327433
-16.695593 -27.412918 48.188099
-17.991839 -27.553220 49.429170
-18.540246 -26.768799 48.975209
-19.274000 -26.185890 48.482059
-27.251753 -18.555768 80.108339
-55.634032 -7.873145 100.511514
-51.110627 -5.446319 109.652431
-22.226669 -12.731333 132.475713
-20.979910 -11.585173 132.555142
-16.851392 -16.647333 137.950491
-13.284087 -21.250777 144.907262
-47.348501 36.550082 29.122891
-26.851982 -10.204802 47.185936
-26.638083 -9.574066 46.695301
-28.534488 -9.435553 47.257814
-29.049511 -8.918777 47.070173
-29.950807 -9.421187 48.106396
-30.239953 -7.749475 47.327171
-31.309298 -9.083124 46.769304
-33.318627 -8.614905 47.312612
-32.616445 -9.822331 47.325626
-34.525682 -10.260347 46.830532
-34.708242 -10.231748 46.340490
-35.437530 -9.026315 46.811233
-36.184396 -9.023606 47.197998
-36.611507 -10.657189 46.740160
-38.687637 -8.983429 47.009531
-38.566786 -8.664714 47.184292
-39.364500 -8.578584 46.589770
-39.756970 -8.436888 46.606812
-41.451838 -7.439318 46.716050
-42.390637 -7.376858 46.213819
-43.108801 -6.564028 46.344509
-3.282179 -18.594357 82.946150
-53.271247 -10.206478 89.257417
-67.641339 -3.724352 104.224844
-31.233600 -9.103878 130.084413
-12.406415 -20.140765 142.646939
-40.162913 31.917194 55.354678
-31.042046 -7.659149 125.765685
-46.876641 -1.986043 119.149592
-65.415219 -4.498208 101.862957
-4.346484 -18.590164 83.175653
43.727806 -2.860728 47.433387
42.500290 -2.965597 47.926182
41.948686 -3.827217 49.109037
41.586247 -3.346583 47.661930
40.314891 -4.251101 48.102882
38.777919 -4.796673 47.500086
-70.011468 -3.312694 101.879963
-56.574217 -9.506450 90.817736
-73.550230 20.853139 93.431900
-68.671570 27.700300 89.940088
34.929553 -3.384454 48.395296
34.516441 -3.814745 48.313137
33.746285 -3.309698 47.834966
33.426544 -3.940697 47.535970
-61.844869 -5.364767 110.083493
-62.852423 -4.803411 110.168643
-40.877390 -4.413747 127.843455
-58.731160 -6.561241 106.884828
-24.683974 -13.838452 140.999137
-37.044316 -5.774369 125.621570
-54.007760 -48.271798 141.635174
-45.304565 -4.372012 104.073116
6.714062 -15.968393 91.849824
-63.514917 -6.096718 106.677331
-53.749244 -49.709218 141.993194
-67.089672 -5.051025 102.704372
-63.655876 -5.433818 96.536268
-9.491199 -18.031780 87.376778
-66.170083 -3.847580 102.332541
19.436337 -20.986922 48.928787
18.717844 -20.823408 49.911793
18.595898 -22.018645 49.930704
18.008027 -21.254778 49.838942
17.288358 -22.063070 49.866752
16.598841 -22.081004 49.880977
14.510974 -22.433799 49.279346
14.000343 -22.189317 49.782219
14.202018 -23.075259 49.993869
12.644480 -23.152643 49.474005
10.868957 -23.422993 50.066817
10.854584 -23.782549 49.373298
9.710914 -23.423907 50.075271
9.902961 -24.082526 49.827244
9.025329 -24.095635 49.425642
7.852015 -24.747936 49.200278
6.270850 -24.253378 49.633429
6.374573 -25.088562 49.728060
5.420607 -25.527822 50.019317
4.069987 -26.305905 49.945574
3.238799 -25.847028 50.636553
3.034434 -26.615345 49.985219
1.361296 -27.470110 49.932046
0.431210 -27.628923 50.382084
-0.250588 -27.240000 49.922688
-0.680705 -27.687910 50.493749
-1.187542 -27.630612 50.487628
-3.007734 -27.999297 49.585099
-3.001891 -29.074007 49.222759
-4.330510 -28.699222 49.985832
-4.419285 -28.147881 50.501986
-5.382698 -28.894369 50.106751
-6.192236 -28.752156 49.829125
-6.716764 -28.776770 49.381167
-7.955218 -28.002416 50.303944
-9.138468 -28.669661 49.662175
-9.293403 -29.109281 49.964548
-9.756086 -29.175236 50.016557
-11.382152 -29.424611 49.492565
-12.634352 -29.530010 49.851553
-13.001339 -29.533227 50.352340
-12.612774 -28.831803 49.958805
-14.563218 -28.639662 49.514068
-15.666655 -29.168106 49.683255
-16.346009 -28.284764 50.593189
-17.203398 -28.173224 50.524617
-18.104999 -27.165105 49.635202
-18.356581 -26.937431 49.917177
-19.002331 -27.033995 49.363444
-47.827901 -4.769662 110.354533
-14.452790 -20.044615 141.533850
-35.449213 -6.699871 135.495149
-24.186863 -12.304650 132.015998
-11.650289 -18.672395 138.070482
-18.397953 -16.675485 138.391179
-25.461597 -13.355681 138.186774
9.128050 -18.894232 28.617145
-26.371768 -9.591221 47.763555
-27.942578 -9.815281 48.592760
-27.648351 -8.384221 48.231617
-29.305857 -10.479970 48.183831
-29.265739 -8.959743 47.456913
-30.469369 -9.102885 49.097451
-31.499695 -9.596604 48.938912
-32.471309 -9.540770 47.977873
-33.381102 -8.975140 47.848664
-34.725436 -10.387271 47.546930
-35.246633 -10.085437 49.134715
-35.234109 -9.787343 48.594657
-35.903528 -10.049469 48.378075
-37.218051 -9.657787 48.349401
-38.226345 -9.760951 47.872835
-38.624468 -9.856398 47.776515
-39.272402 -9.115730 47.998592
-40.997299 -8.294252 48.314092
-40.908053 -8.903040 48.378895
-42.017388 -8.363946 48.441124
-42.874338 -6.739124 48.232643
-43.659164 -5.803180 47.946084
-61.943119 -5.939833 89.379105
-51.370597 -12.535783 89.454607
-29.077631 -10.314661 129.670176
-13.079346 -20.075769 141.841952
-39.345445 -15.755319 86.854338
-40.593465 -15.319391 87.535993
-46.118852 -13.178332 91.866211
-56.663910 37.287079 92.508386
-22.921310 -19.339669 80.619544
-45.320281 -4.069981 107.592353
-48.133070 -13.406739 88.316084
-37.117804 -6.806768 126.964138
-29.108365 -8.888766 127.550922
-16.757202 -19.261011 83.137796
-17.978091 -19.171561 83.313906
-64.898147 9.919671 56.308353
-18.948075 -18.697117 82.906502
-19.606935 -20.201444 82.950519
-19.831765 -19.446693 82.821568
-53.067426 -10.001614 91.900416
-21.949910 -17.878604 86.250043
-21.578126 -19.998143 82.849866
-22.305159 -19.068495 82.830057
-22.789744 -19.525935 82.092919
-23.316156 -19.077392 82.582814
-24.326035 -18.914039 82.755331
-25.426585 -18.811757 83.522983
-33.640487 -8.939550 134.592371
-25.625456 -18.179243 82.755765
-62.025484 -4.310005 114.712630
-45.882803 -4.839229 106.192002
-52.736303 -49.978590 139.610641
-40.568656 -3.801752 123.831502
-52.274925 -49.733072 140.590330
-27.128019 -10.697172 131.229737
-43.136050 -15.742983 88.849045
-26.746934 -18.022121 82.828158
-26.963031 -18.682362 82.591096
-63.056592 -5.612531 96.126526
-63.360466 -4.792917 96.029410
-28.004081 -17.724325 82.525262
-29.531408 -16.933140 83.039019
-30.050826 -17.926892 82.181489
18.632524 -20.900136 49.844344
16.993635 -21.609677 50.701051
16.699667 -21.940478 50.857310
15.546955 -22.574737 51.424535
15.034764 -22.110302 51.675114
14.399609 -22.721160 50.803839
14.092387 -23.427389 50.771070
11.867487 -23.706121 49.955423
11.755802 -23.493401 51.015154
10.752599 -24.011202 51.393618
9.921028 -24.695659 51.454836
9.044824 -25.004297 50.764358
7.876968 -25.437128 51.565651
7.615669 -25.288129 51.143123
6.986806 -25.927817 50.884407
5.883068 -25.401511 51.256337
6.172425 -26.023027 50.288303
3.688005 -25.839440 51.277858
3.541383 -25.750385 50.917285
3.272704 -26.856516 51.293183
1.359514 -28.044734 51.613399
0.458203 -27.219915 51.124273
0.300665 -27.440294 50.611266
-0.822173 -28.119313 50.769017
-1.708760 -28.288761 51.259799
-2.737676 -28.006032 50.781197
-2.819325 -29.164272 51.014888
-4.408969 -28.088153 51.450160
-4.725575 -28.735959 50.095188
-6.045883 -28.967734 51.329750
-6.333110 -28.824848 50.677865
-7.465958 -28.577114 52.108271
-7.413685 -29.531052 51.281548
-8.778418 -29.506886 50.600231
-9.177210 -30.262413 51.183208
-10.696269 -29.921317 51.300495
-10.876278 -29.983438 50.878590
-11.294920 -30.285119 51.334870
-13.601463 -29.318866 51.198966
-13.763630 -29.705163 50.843961
-14.427139 -29.088689 50.711054
-15.696363 -28.715068 51.303423
-15.244697 -29.703589 51.146296
-16.973129 -28.148754 50.453536
-16.970278 -27.906281 51.000660
-18.914997 -28.281515 50.395527
-19.420067 -27.361578 50.490682
-31.068085 -17.587824 83.077763
3.209580 -16.142080 89.448682
-47.560127 -5.865050 102.265596
-20.623963 -12.172948 132.455926
-12.352793 -18.600674 138.926357
-19.499231 -15.274642 138.064362
-26.152905 -13.544903 138.232136
-31.399697 -16.745624 82.569951
-32.350600 -17.453260 82.252476
-27.433484 -9.659055 49.954443
-28.090451 -9.959454 48.376339
-28.825746 -10.279274 48.892198
-30.046866 -9.971472 49.757640
-30.614724 -9.719747 49.367586
-31.039447 -9.853007 48.699046
-32.870612 -10.589027 49.234752
-32.759903 -10.104915 50.166896
-33.802190 -9.947424 49.742498
-34.006234 -10.317883 49.907530
-35.378088 -10.304419 49.487211
-36.235340 -10.947469 48.772936
-37.443978 -10.166751 49.561743
-37.294057 -10.418725 49.869437
-39.086712 -10.127850 49.423362
-39.894655 -9.545717 49.043737
-40.571611 -9.172793 48.791297
-41.247253 -8.906559 48.863438
-42.506921 -7.807695 48.736579
-42.833269 -7.416572 49.431662
-43.856915 -7.202929 49.352799
-43.794233 -5.500186 49.013424
-45.396323 -5.209064 49.007176
-33.429089 -17.339871 82.488182
-33.652789 -17.526821 82.253820
-35.073155 -17.180345 82.762661
-41.137768 -14.764904 87.058780
-42.275381 -15.038773 87.855085
-59.132757 -7.186960 101.693192
-58.578013 21.159337 54.830314
-47.653101 31.998594 57.814803
-44.650163 -1.504773 118.737139
-43.276852 -4.239776 106.529434
-35.625967 -16.614394 82.481026
-51.704770 -6.667355 100.651345
-64.595713 -4.289634 97.632669
-53.335552 -6.628960 103.131876
-36.774107 -17.712609 82.431555
-37.327563 -17.215867 82.374376
-38.059609 -17.111777 82.397088
-57.434857 -8.445767 90.632040
-57.992730 -6.906649 101.468631
-48.838482 -5.805815 109.127969
-60.038296 -7.126293 107.609753
-52.582094 -7.240474 105.343942
-52.672286 -6.837745 106.489002
-50.670325 -5.065619 114.905659
-39.625045 -17.122108 82.305749
-39.849076 -18.064107 82.023330
-31.026802 -11.094581 134.562785
-42.527583 -16.043812 86.306980
-40.755820 -17.912918 82.702592
-44.521006 -4.775250 106.023665
-23.306266 -14.065086 140.835496
-55.954147 -7.495186 101.849366
-62.937511 -5.108220 102.811035
-63.308526 -4.446457 108.882848
-44.341798 -15.014324 88.599210
-43.801996 -15.663299 87.943022
-51.035108 -12.791472 88.480375
-43.655626 -15.273522 86.868700
-61.817411 -6.333577 96.449016
-41.352019 -17.484964 82.448580
-42.222422 -17.431022 82.959192
-43.560838 -17.598220 82.286101
19.317061 -20.909566 51.428110
17.898854 -21.421841 52.069746
17.339741 -21.008729 51.346998
16.100100 -21.975210 51.780811
15.416817 -22.680972 51.215747
13.889089 -22.726157 52.431353
14.270223 -23.471066 51.430437
13.169648 -23.978370 51.034001
12.647507 -24.322824 51.536396
11.212811 -24.528825 52.115842
10.639561 -25.250154 52.502206
9.651525 -24.842550 52.145441
8.944875 -24.874482 52.180272
8.363851 -24.796181 52.643245
7.639179 -24.867661 52.598784
6.849389 -25.973979 52.212217
6.549527 -26.415724 52.433150
5.582351 -26.470526 52.614545
4.324644 -26.305246 52.136180
3.504049 -27.689181 52.178165
2.801371 -27.734787 52.111000
1.941879 -27.635114 52.047635
1.459332 -27.975345 52.605561
0.786789 -27.874014 51.938658
-0.428823 -28.073328 52.396752
-1.149465 -28.699557 52.326904
-2.294366 -28.310014 52.046291
-3.871221 -28.464092 51.982913
-3.796750 -28.677395 51.457093
-5.446038 -28.471963 52.077654
-5.655291 -28.556675 51.939191
-5.479473 -28.675388 52.293001
-6.665380 -29.068058 52.287549
-8.450938 -29.299679 51.709865
-8.908145 -29.835125 52.112048
-9.608608 -30.004618 52.774566
-10.790810 -29.716521 52.011973
-11.166884 -30.695112 53.253376
-11.918714 -30.309693 52.057364
-13.061334 -30.441766 52.515973
-13.772036 -30.037646 52.620258
-14.268007 -29.594613 51.532546
-15.006775 -30.347368 51.573487
-16.052332 -29.588376 52.617483
-17.052393 -29.299017 51.814320
-17.350294 -28.875759 52.018881
-18.618844 -27.730153 52.138439
-19.296325 -27.235877 52.067169
-19.888849 -27.129809 52.394210
-43.681681 -17.037652 82.524879
-53.493715 -6.954885 110.088375
-28.745333 -12.191371 136.110282
-43.290107 31.258550 55.823170
-19.703048 -15.569159 138.246982
-27.062474 -13.173604 138.627331
-52.410532 -50.408540 137.734110
-45.139820 -16.438735 82.979742
-27.558740 -11.058159 51.142424
-28.052269 -9.861055 50.315608
-28.682023 -11.439901 50.550661
-30.503346 -10.578852 50.736252
-30.746010 -11.098671 50.174594
-32.057965 -10.497304 50.890135
-33.262739 -10.035482 51.088370
-32.621878 -10.144668 51.285062
-33.583916 -10.014137 50.305643
-34.823818 -10.811353 51.400248
-34.875370 -10.741657 50.211005
-36.400043 -10.481624 50.761511
-37.005166 -10.182684 50.834854
-37.807144 -10.070994 50.467722
-39.000111 -9.255820 49.836726
-40.340720 -10.327628 50.904544
-40.205201 -9.421350 50.272374
-41.307342 -8.448280 49.983491
-42.610154 -7.803120 50.197702
-43.153615 -7.363819 50.050709
-43.530329 -7.465554 50.082317
-44.940045 -6.541152 50.007829
-45.596058 -4.809617 50.063095
-45.957201 -3.753920 50.727398
-46.901170 -3.001639 49.804139
-48.007349 -3.029522 49.377591
-48.634003 -1.663307 50.817155
-49.161069 -2.058042 50.081110
-50.740597 -2.035326 50.315621
-50.891003 -2.194817 49.841703
-51.703477 -1.829957 49.877528
-44.960305 -14.781743 87.525408
-45.690312 -14.843929 86.603350
-46.474530 -14.036543 86.603315
-64.443111 -4.427928 107.526573
-32.877939 -7.671861 126.206364
-20.651481 42.881074 29.034850
-46.205885 -5.227966 106.878824
-45.876682 -16.553400 82.930706
-58.354975 -7.432564 91.429736
-11.424492 -23.710833 145.766780
-51.386972 -6.431102 100.564206
-64.944708 -4.397190 98.531826
-56.606204 -7.782458 103.511251
-45.974367 -16.193336 82.700055
-57.257595 -7.157388 103.480598
-47.723205 -15.231537 82.380735
-47.373346 -15.531561 81.834787
-48.528602 -14.468367 82.686758
-48.560413 -5.354594 109.356746
-65.363828 -2.620083 108.369620
-50.205396 -14.960356 82.541678
-50.208206 -12.204874 90.168940
-50.402945 -15.436925 82.037668
-64.350461 37.634790 91.553285
-26.442936 -12.331013 134.131627
-20.839547 -14.819087 142.938505
-51.080918 -15.266963 82.647023
-46.122686 -4.384698 105.501784
-47.488171 -15.655624 86.872562
-63.206714 23.959559 61.589938
-62.285305 -6.413884 103.386519
-63.538964 -5.144563 97.095430
-48.838430 -14.217383 87.978850
-46.002467 -15.098255 88.152658
-35.808395 -15.342417 88.602557
-50.715056 -12.017060 88.083398
-60.680758 -4.933011 111.739079
-43.776477 -1.546686 128.679607
-52.079581 -14.371289 82.224158
-21.996078 -18.193457 86.000541
19.987994 -19.034208 53.365391
18.852071 -21.003374 52.868140
18.113478 -21.447416 52.551071
17.739472 -21.644729 52.984066
16.931953 -22.331849 52.620399
15.830488 -22.930001 52.828771
15.622773 -23.481956 52.925078
13.845321 -23.960214 53.687139
14.076075 -23.247018 53.207847
12.122557 -24.506160 53.272139
11.478667 -24.230312 53.626296
11.446763 -24.701437 53.069933
10.021696 -25.257956 52.385757
9.001676 -24.294267 52.861443
8.454277 -25.968686 53.767473
7.291400 -25.780676 53.543172
7.204020 -25.848767 53.232515
5.527927 -27.007267 53.493828
4.654268 -26.123207 53.155041
4.345195 -27.633364 52.895029
3.667648 -27.233043 53.418447
2.663551 -27.746732 53.616279
1.968200 -27.277907 53.001217
0.838841 -28.455820 52.897554
0.306686 -28.952134 53.269744
-0.853789 -28.207851 52.653559
-0.430138 -27.379581 52.835510
-2.313578 -28.700655 53.489720
-3.337905 -29.114646 52.895955
-3.733505 -28.246525 53.113305
-4.409640 -28.479559 53.128129
-5.080038 -29.112153 52.356144
-6.087543 -29.392617 52.955591
-6.241894 -28.787068 53.356401
-8.043467 -29.439316 53.096122
-7.935209 -29.660074 53.214074
-9.017517 -29.519377 53.618275
-10.039376 -29.859978 54.004630
-11.521785 -30.617408 53.952003
-12.191118 -31.239202 53.409042
-12.801422 -30.621782 53.847827
-13.265976 -31.186314 52.883558
-14.378408 -30.539121 53.425409
-15.082851 -30.050533 53.489107
-16.242792 -29.548538 52.634544
-16.799950 -30.411286 52.957628
-18.091683 -29.410837 52.561446
-18.676022 -29.008081 53.808044
-18.825241 -27.869832 53.798959
-19.934368 -27.867473 53.924492
-53.597350 -14.419144 82.193229
-53.410703 -13.089738 82.319213
-53.206167 -6.316228 110.892304
-49.442518 35.846656 28.748727
-62.233085 -4.296704 115.977816
-27.351147 -12.434410 138.330828
-53.602535 -49.052356 138.767191
-53.970232 -12.843029 82.394456
-28.455829 -11.731676 52.199563
-28.160046 -10.927188 52.408651
-28.844625 -11.720136 52.440088
-30.484919 -11.818268 51.719190
-29.996054 -11.429376 52.322993
-31.323167 -10.936159 51.890738
-32.903076 -10.427409 51.785394
-33.736782 -11.259930 51.136697
-34.091555 -11.088339 52.218570
-34.018432 -11.048686 51.957574
-35.582379 -11.056248 52.192202
-36.780305 -10.692810 52.109492
-37.647339 -10.527185 51.710952
-38.419253 -10.330456 51.479922
-39.183175 -10.670144 51.925883
-39.314802 -10.348294 51.794487
-40.254943 -10.076156 52.241253
-41.625312 -7.702694 51.772016
-42.290753 -8.490542 51.807477
-42.707501 -7.701906 51.243768
-43.761317 -8.289598 51.095286
-44.976747 -6.638277 51.540875
-45.367855 -5.424343 51.342424
-46.259932 -5.126196 50.423036
-46.984344 -4.721335 51.586345
-47.348902 -4.890577 50.863658
-47.690772 -4.004226 51.260544
-49.092291 -4.842186 50.641502
-49.933492 -3.499582 51.209357
-50.621790 -3.502679 50.825972
-52.429737 -3.161556 51.077263
-52.283784 -3.305312 51.220404
-53.569839 -1.561016 50.592493
-55.242318 -12.312314 82.394551
-17.889801 -18.221441 143.131765
-48.163919 -14.340828 87.818640
-49.644610 -14.920238 86.754050
-30.361827 -9.929972 128.455902
-34.253045 -6.854995 125.895111
-22.054635 42.590413 28.869967
-45.356295 -4.033459 107.328430
-59.751273 -6.230041 91.782624
-58.937340 -6.073189 91.361679
-51.552599 31.293408 58.136199
-50.547570 -7.523992 101.068029
-66.355173 -3.484883 98.047919
-66.005995 -4.168300 98.354901
-56.250934 -12.486387 82.193559
-68.072304 -2.955125 98.804926
-67.296599 -3.171600 98.732838
-69.003959 -2.354262 97.844129
-50.638648 -6.495611 108.439883
-62.121642 -5.394531 94.813815
-68.512877 -2.474306 104.998468
-67.299263 -2.563799 105.711163
-62.321141 12.723037 54.816802
-58.451100 30.823670 61.256312
-19.950084 -13.206514 135.142989
-32.101362 -10.448185 134.533244
-55.800480 29.652542 59.868952
-56.536329 -11.679648 82.173781
-14.581656 -14.649591 135.062603
-50.753699 -13.681563 87.395720
-48.019847 -5.063500 110.860045
-62.085555 -6.385191 103.429118
-47.936117 -6.043205 106.773700
-49.441044 -13.532880 88.457579
-37.620686 -15.413479 88.279025
-37.422819 -16.315628 89.106510
-52.310847 -12.203225 87.935068
-65.751972 -2.926019 93.165974
-58.029021 -11.281793 82.280444
20.888339 -18.383204 53.343162
20.655917 -18.827840 54.343936
20.016725 -19.683016 53.540360
18.872075 -20.826438 54.538753
18.144972 -21.901116 53.817198
17.652140 -22.074659 53.648828
16.310672 -23.286816 54.392970
16.204496 -23.157273 53.815429
14.745285 -23.279719 53.987815
14.261130 -22.781420 53.870105
13.234708 -23.445398 53.888703
12.217944 -24.536964 53.784658
11.600366 -24.280811 54.129118
11.024194 -24.813229 54.804796
9.850516 -25.243245 54.533284
8.764291 -24.904532 54.629052
8.401411 -25.824418 54.360060
7.524115 -25.422125 55.396513
6.539932 -26.342118 54.138987
5.585752 -26.044505 54.933258
5.126797 -26.637303 54.589574
4.511671 -26.506377 54.391576
4.622856 -26.459223 55.000884
3.116239 -26.759900 54.065048
2.714492 -27.387229 54.299367
0.947399 -27.515467 53.447228
0.290014 -27.643110 54.600903
-0.363484 -28.272828 54.667028
-1.722470 -27.582865 55.123568
-2.723208 -29.105863 55.063376
-3.598179 -28.023185 54.599033
-4.340438 -28.735689 54.508850
-4.860510 -28.671775 54.888435
-5.705787 -28.699968 54.567069
-6.070386 -29.754511 54.762816
-7.148219 -29.488125 53.829136
-8.401474 -29.297495 54.314531
-9.294285 -29.210895 54.884908
-9.418067 -29.469231 54.789819
-10.966634 -30.531697 55.116261
-11.187670 -30.307664 54.153466
-11.635068 -30.565214 54.399212
-13.181253 -30.860706 54.685377
-13.233912 -30.739555 53.948464
-14.261748 -31.182218 54.880734
-15.469722 -30.955818 54.264565
-16.244937 -31.049552 55.234809
-16.446381 -30.529936 54.792487
-17.864909 -30.158197 54.273789
-19.249004 -29.597026 54.938468
-20.173944 -28.750581 54.180193
-19.953262 -27.396027 53.969539
-58.517231 -11.400332 82.091095
-45.186837 -1.875631 123.274469
-52.272595 -6.061296 110.647593
-49.859304 -5.027737 112.428041
-63.226856 -4.138294 114.630330
-58.936375 -10.557840 81.860782
-60.231856 -10.488011 82.276360
-18.421690 -15.427847 135.958083
-60.904577 -9.535681 81.680359
-27.622919 -12.878286 52.638059
-29.083462 -12.031238 53.605298
-29.943371 -11.488996 52.488250
-30.752588 -12.382898 52.769278
-32.072619 -11.397035 53.045673
-32.332857 -11.023091 52.797034
-33.025779 -11.832154 52.892735
-35.150638 -12.338036 53.718379
-35.439958 -12.356434 52.598827
-35.470694 -11.900921 53.006053
-36.487464 -11.596209 52.285948
-37.307807 -11.307912 53.188958
-38.010988 -11.472816 53.192952
-39.339885 -11.413471 53.468633
-39.616943 -10.358647 52.742066
-40.177382 -9.521436 52.705784
-41.759579 -9.705383 52.503207
-41.945352 -8.621689 52.702106
-43.186962 -8.272152 52.573007
-43.448267 -8.426112 52.405348
-44.155331 -7.289449 52.490353
-44.875879 -6.629810 52.527278
-45.917801 -6.088900 52.058121
-47.070792 -7.046386 52.312603
-47.560537 -6.331270 51.805402
-48.446576 -5.928085 53.470590
-49.469443 -5.408481 52.820333
-49.890680 -5.142276 52.122392
-50.660724 -4.805708 52.229396
-52.261916 -4.264239 52.960965
-52.605922 -4.089431 51.437356
-53.482210 -3.733814 52.118241
-53.586565 -2.562656 51.972486
-62.282427 -8.637536 82.289360
-19.137514 -16.901882 143.747210
-21.267795 -15.620613 142.826174
-20.361517 -13.333781 135.589522
-20.410195 -15.960713 139.586951
-14.822585 -19.469525 145.509312
-32.904396 -6.729947 126.243770
-61.977129 12.523183 54.932648
-47.260398 -4.773540 106.781476
-36.409627 -6.754065 127.722825
-11.703976 -22.437608 144.470035
-48.865449 -7.210049 100.901959
-48.001817 -6.772463 100.411862
-51.239660 17.711780 49.546961
-48.888108 -7.402140 101.271180
-34.427542 -7.605151 127.800219
-49.603979 -12.204315 89.714308
-48.971896 29.118844 54.655951
-44.161560 31.556614 57.238395
-35.436591 -7.790842 128.456163
-35.328724 -5.820332 126.557947
-22.450783 42.714458 28.515133
-48.530004 19.576944 50.710828
-43.501904 -2.295926 124.427994
-21.313926 -13.985666 134.824404
-27.483900 -12.391040 135.123296
-59.132488 29.698264 61.320120
-46.666565 26.953876 52.590632
-65.828329 -2.175087 94.011350
-52.056652 -11.427599 91.556963
-35.399564 -8.357224 132.099252
-44.665549 -1.216246 117.762304
-61.995525 -4.832688 114.303757
-40.064470 -15.587771 88.051206
-38.229522 -14.886960 88.640268
-42.350467 -15.356069 88.239558
-23.362079 -19.478314 80.973980
-59.919692 -5.463019 94.320680
-52.664866 -47.802026 131.675299
21.863589 -18.435740 54.418981
20.842608 -19.445970 55.033175
19.744722 -20.624428 55.581210
19.183677 -21.642773 54.670722
17.986452 -20.832766 54.919785
17.631708 -22.371484 55.622127
15.915158 -23.166386 55.841934
15.822320 -24.101727 55.861025
14.982981 -23.831360 55.233151
14.355291 -24.082422 55.113492
13.892271 -24.511699 55.085176
12.300709 -24.975743 56.074395
12.019540 -24.989769 55.521181
10.768700 -24.913534 55.685252
9.887966 -25.270323 55.654790
9.078170 -24.496625 56.016144
8.474645 -25.802443 54.959900
6.927731 -24.458480 56.003509
6.570641 -26.300410 55.457515
5.732058 -26.476397 55.740981
4.340840 -26.327081 55.218757
4.798380 -26.938715 56.158523
3.243923 -27.926735 55.586450
2.467124 -27.180602 55.276999
2.543889 -27.685603 55.654151
1.152947 -27.999103 55.096083
0.108890 -27.261581 55.778071
-0.828434 -27.866020 55.356370
-0.762841 -27.729890 55.609513
-2.710920 -28.398084 55.395395
-3.133773 -28.426219 56.035261
-3.804640 -28.698911 55.502132
-4.991765 -28.878762 55.212223
-5.402420 -29.789724 55.895716
-6.631136 -29.398842 54.778211
-6.982028 -30.018104 56.342822
-7.962045 -29.819488 55.654330
-8.440653 -29.643238 55.742331
-9.528075 -31.136563 55.806157
-10.758542 -30.961060 56.299872
-11.239271 -30.732633 56.198524
-12.082273 -30.671085 55.936234
-12.263512 -30.931454 55.228042
-13.496765 -31.307726 55.760488
-14.542020 -31.211926 55.616832
-15.517640 -31.368225 55.517273
-16.056155 -30.490051 56.169706
-17.377690 -31.503239 55.634789
-18.550064 -31.088556 55.242210
-18.262238 -30.060492 55.761246
-19.385172 -29.871575 55.844017
-19.339518 -28.917777 56.255737
-20.193670 -27.378868 55.774198
-36.297162 -6.841432 127.509286
-51.537730 -6.013510 110.356196
-53.856800 -6.453346 112.684857
-12.486438 41.254361 30.627246
-28.225505 -11.851493 137.829810
-45.090058 -14.534354 88.868462
-25.465693 42.267280 29.595658
-18.822317 42.924065 27.960125
-28.679879 -12.250663 53.886683
-28.631845 -12.114200 54.863241
-30.630316 -12.085318 54.943699
-31.204010 -12.249729 54.225067
-31.576453 -11.932944 53.647352
-32.313695 -12.595868 54.302758
-33.645542 -11.883372 54.655604
-33.562319 -12.761056 54.465803
-34.887475 -12.467977 54.258637
-35.959209 -12.798533 53.685557
-36.388264 -12.487196 54.371791
-37.443439 -12.463881 54.248262
-38.818021 -11.576044 53.994093
-39.687573 -11.546740 54.939452
-39.589481 -10.687687 53.849530
-40.705842 -10.246887 54.482198
-41.850291 -10.029727 54.164996
-41.815907 -9.296403 53.941378
-42.779935 -9.323361 54.071537
-44.123349 -8.889235 53.674343
-44.116489 -8.177366 53.311431
-45.625467 -8.365321 53.262125
-46.220022 -7.623422 53.415923
-47.119693 -8.338386 54.286183
-47.688787 -7.986899 54.123875
-48.141002 -7.164335 53.552490
-49.334671 -7.173892 53.788109
-50.158409 -6.278704 53.713214
-51.038655 -6.378956 53.675687
-52.202926 -5.080659 53.551284
-52.763638 -5.603856 54.097937
-53.979606 -4.675112 53.147753
-53.925329 -3.675261 53.424539
-55.209841 -3.229597 53.289615
-68.017655 -2.204828 95.683409
-21.845772 -13.661839 143.610135
9.999482 -14.855802 90.602780
-25.176641 -13.579691 139.898186
-53.944167 -48.270227 142.895517
-31.285519 -15.852759 89.398169
-59.870845 25.566113 57.586116
-32.003564 -7.543983 126.435897
-42.048047 -1.705604 119.180821
-25.764701 -6.984900 126.828709
-12.251137 -21.051720 144.943007
-56.759301 30.454299 61.995623
-46.347419 -2.419684 115.884417
-24.984515 -12.491408 134.142708
-47.093572 -5.587358 108.945880
-66.360556 36.711506 90.872636
-67.265883 -3.750908 106.269556
-66.896897 -3.383394 106.900521
-9.975878 -23.216612 144.569040
-20.953836 -15.454173 136.944826
-47.911654 -5.546843 105.533577
-10.262903 -21.371140 140.589212
-53.933520 -43.632197 127.305812
-45.361532 -1.496734 124.323946
-15.453905 -14.697073 134.619529
-28.643356 -12.360831 134.006658
-30.452239 -10.552288 137.260267
-30.810540 -10.114320 137.588879
-47.415400 -5.319430 106.168750
-54.269932 -7.296599 105.925117
-51.094215 -13.039995 86.647542
-53.197691 -10.565101 90.825362
-49.473310 -5.813745 110.560433
-59.020410 -5.870687 94.483983
-39.724570 -15.692746 88.617905
-39.770842 -15.694212 88.480716
-44.317178 -14.421803 91.155185
-51.779398 -50.116398 139.187254
-59.763320 -7.201077 102.899964
22.356406 -18.874719 56.378621
20.956049 -19.547672 56.099612
21.438487 -20.599095 55.949920
20.062405 -20.948045 56.034324
19.317401 -21.633757 55.852791
18.612378 -22.201429 56.334798
16.150473 -22.024102 56.151867
16.336449 -22.965930 56.989575
15.737165 -23.515995 55.941406
15.132522 -24.122753 55.595671
14.829902 -24.503421 57.479151
13.409634 -24.531024 56.365180
12.489719 -24.670775 57.324021
12.160340 -26.189382 56.816328
10.934272 -25.467260 56.753296
9.897394 -26.290858 56.156195
8.790148 -26.008271 56.536411
7.680732 -26.605768 56.468686
7.317953 -25.788982 56.426816
6.500598 -26.055412 56.368497
5.726026 -26.366141 56.438167
5.119027 -27.226649 57.045420
4.725855 -26.903459 57.276312
3.199977 -27.967902 56.648173
2.086119 -27.786277 56.516268
1.806610 -27.592760 56.872272
0.702569 -27.731937 56.225019
0.884322 -27.889431 57.250339
-0.161149 -27.857081 56.790551
-0.377090 -28.047539 56.387371
-2.627528 -28.700349 56.641130
-2.796293 -29.008383 56.879532
-3.668681 -28.541199 56.781907
-4.897624 -29.803794 56.664044
-5.093650 -29.571631 56.671645
-6.390956 -29.537295 57.274086
-7.494707 -29.772866 56.435793
-7.808415 -29.339114 56.828198
-9.091891 -30.451352 57.002369
-9.853312 -31.065515 56.778878
-10.440841 -31.376357 57.585850
-11.197062 -30.531411 57.203100
-12.307440 -31.069837 56.419815
-13.440196 -31.283737 56.929644
-13.510367 -30.715647 56.989014
-13.893312 -31.239988 56.610934
-15.175913 -31.627454 57.106152
-16.491430 -31.111461 56.854538
-16.557020 -31.155628 57.157913
-17.852733 -31.429885 57.719736
-17.936659 -30.387634 57.484912
-19.259059 -29.954909 57.259980
-20.722758 -29.698680 56.297747
-21.207737 -28.740499 56.523902
-66.154485 -3.048728 97.543035
-50.054179 -5.384569 110.251886
-54.839791 -6.226505 112.911405
-65.030349 28.364950 88.722636
-29.657943 -11.373931 138.631208
-53.711147 -47.876632 132.581703
-58.303824 40.255958 92.229163
-55.367608 -6.116376 96.042651
-28.185120 -14.182034 55.454887
-28.837983 -13.452633 54.853964
-30.293280 -12.855585 56.125340
-30.217247 -12.769168 55.333775
-31.649419 -12.785117 55.376125
-32.714133 -12.484407 55.195932
-33.807604 -12.734303 55.819271
-34.212257 -13.183501 56.212897
-34.802137 -13.151272 55.689438
-35.140019 -13.614867 54.994927
-36.632660 -12.906534 55.801772
-37.817824 -12.871907 55.790336
-37.805442 -12.608849 55.141457
-38.999833 -11.264161 54.973672
-39.675650 -10.896924 55.735730
-40.150923 -11.442880 54.690348
-41.331371 -11.296998 56.026984
-41.961272 -11.128552 54.937960
-43.008834 -10.817889 54.954669
-43.343806 -11.126152 55.918474
-44.713578 -10.077740 55.260176
-46.531384 -9.124855 55.340974
-46.221182 -9.750475 55.366564
-47.129070 -9.791022 55.183815
-47.095432 -9.024165 55.102479
-47.956122 -8.945762 55.865569
-49.619366 -9.581628 54.614857
-49.586172 -9.008876 54.647042
-50.662690 -8.396213 54.429200
-51.501015 -7.337480 55.382489
-52.620766 -6.728695 55.136026
-53.674636 -5.496847 55.291416
-54.469021 -5.302895 54.751687
-54.907050 -4.517679 55.323671
1.930625 -16.110488 90.790020
-32.350960 -15.833884 89.298540
-51.900290 -7.930247 103.058558
-30.656185 -11.793866 135.244670
-55.256705 -47.401847 142.320828
-47.386656 -13.475834 89.578313
-56.481358 -9.929329 88.791092
-52.710632 -6.573695 112.928569
-54.281744 29.708287 59.763423
-56.091452 31.425352 61.513649
-42.518902 -1.450422 118.264379
-57.328496 -7.014989 102.640006
-60.878295 -5.751596 113.872306
-26.230268 -12.700524 140.842849
-27.145647 -12.081361 140.689234
-51.697672 -12.756363 87.663440
-52.866483 -12.243354 87.214476
-53.743304 -11.831429 86.918567
-54.104301 -11.529817 87.181511
-55.401070 -10.931445 87.094924
-56.475923 -10.559634 86.434677
-56.789260 -10.560337 86.663976
-57.200603 -9.549232 86.944851
-48.019011 -5.901337 108.346689
-54.677538 -11.264299 88.168937
-28.703546 -13.150713 135.248100
-14.804063 -15.263493 134.858335
-21.433053 -13.691001 135.151885
-62.959920 12.518191 56.436299
-53.273385 -10.863176 87.661049
-44.330329 -1.004554 117.230674
-62.628106 -4.207047 111.478649
-58.573220 -9.443387 86.854804
-67.989011 -1.576160 107.406447
-44.869578 -13.707673 91.870740
-55.048721 -9.049851 90.640363
-41.359101 -15.244888 88.373511
-45.743180 -12.923955 92.081592
-53.449792 -7.145705 103.183897
-56.596987 -9.636909 88.099902
-37.223349 -6.912364 128.029420
22.177162 -19.004849 57.607559
21.934506 -18.199943 58.139301
21.257829 -20.938609 58.181849
19.576312 -21.129122 58.491539
19.297990 -21.215925 58.140096
17.843106 -21.695934 57.107502
16.896155 -22.651988 57.959722
16.337325 -22.459159 58.427719
15.991597 -23.155441 57.245232
15.499895 -23.455654 57.845458
14.081778 -23.547102 57.298815
13.076893 -24.742207 57.519079
12.674156 -24.768834 57.490739
11.477672 -25.503557 58.206202
10.763022 -25.645011 58.028350
10.146489 -25.646661 57.931068
9.571871 -26.328152 57.686622
8.581011 -26.464934 58.164980
7.218095 -26.358449 58.644463
7.251518 -26.949558 57.726621
5.979640 -27.746712 57.671508
5.410343 -27.261454 57.602276
4.116019 -27.823411 58.519000
3.338144 -28.334053 57.491056
2.025864 -27.845449 58.449970
1.776109 -27.087611 57.549976
1.905309 -27.891429 58.358374
0.349041 -29.020383 57.764159
0.310677 -28.915976 58.274997
-1.241266 -28.640944 58.421644
-2.220134 -29.108109 57.973892
-3.281343 -28.643729 57.361987
-3.589255 -29.129357 57.814543
-4.742803 -28.731133 58.566437
-6.007649 -29.487967 58.140355
-6.140878 -29.550206 57.908382
-6.310962 -30.349652 58.069785
-7.850882 -30.713601 57.834083
-8.803246 -31.007812 58.020684
-9.272508 -31.104454 58.009768
-11.389924 -32.081777 58.312285
-11.321518 -31.246782 57.671477
-12.822541 -31.496738 57.398768
-13.890112 -31.705001 58.925500
-13.370888 -31.776245 58.404908
-14.468590 -31.645685 58.203773
-15.251213 -31.829237 58.031887
-16.182589 -31.648056 58.500648
-16.730592 -31.301561 57.993559
-17.606242 -31.371870 58.493541
-18.184157 -30.535239 58.454600
-19.220830 -29.979968 58.111383
-20.242055 -30.030012 57.951333
-20.653194 -29.484232 57.326767
-21.514126 -28.342931 58.038094
-50.400244 -8.660088 97.108978
-49.455929 -7.767717 97.401159
-54.950672 -6.912087 112.437187
-62.207545 27.055354 62.758595
-63.156277 28.515103 87.907294
-47.103905 -13.448918 90.399712
-56.223949 -38.585533 124.006480
-27.516384 -14.236168 57.174295
-28.910685 -14.415299 57.178724
-29.294274 -12.706895 56.763879
-31.377352 -13.768406 56.736835
-31.707092 -13.037350 55.806104
-32.463032 -13.657617 56.631588
-32.872685 -14.211675 57.679619
-34.036534 -13.499777 57.043412
-34.969052 -14.023397 57.530402
-35.121668 -14.202637 57.271314
-35.922377 -14.024538 56.602338
-37.526309 -13.274032 55.904483
-37.780814 -11.909078 56.793382
-38.814167 -12.365610 56.686890
-39.489129 -11.675296 57.012036
-40.926617 -11.952195 56.424058
-41.512909 -12.235194 56.528267
-42.380167 -11.541400 56.831830
-43.346959 -10.911489 56.172198
-43.380967 -11.886116 57.013955
-44.429060 -11.789324 56.900994
-44.936710 -11.470539 56.322846
-46.154642 -11.386275 57.266943
-46.259541 -11.369606 56.930794
-47.998211 -12.395934 56.614306
-48.425561 -11.448208 56.782651
-48.749807 -11.295044 56.624531
-51.035448 -10.649740 56.389690
-50.264829 -10.245732 56.685020
-51.604566 -10.110703 56.592044
-53.208858 -8.671230 56.249621
-52.933759 -8.375788 56.753773
-54.127401 -7.483407 56.761496
-55.215469 -6.007431 55.814156
-55.826080 -5.250353 55.508866
-56.260242 -5.247329 55.704673
-46.041666 -1.548309 116.043492
-67.420476 -3.261288 105.902290
-48.445081 -12.241525 92.840561
-48.001479 -6.697692 103.401782
-7.885484 -23.859492 144.199619
-18.072734 -17.312674 144.992724
-60.242832 -6.276784 104.245022
-64.530895 16.159306 58.079623
-51.254571 30.902368 58.137863
-43.650915 -1.120307 119.069533
-60.250722 38.232885 91.072358
-57.097757 -8.946353 88.091079
-45.993655 37.974954 29.594214
-59.518752 -9.124491 86.558827
-60.178324 -7.818781 87.529764
-61.509356 -8.045795 87.094614
-12.178438 -22.206952 146.201786
-41.813124 -4.059623 128.461194
-15.965626 -17.608884 139.644124
-32.043754 -9.405599 128.763969
-40.773851 32.246535 58.664181
-45.766403 -1.892607 116.175960
-9.502197 -18.197849 87.088077
-17.041038 44.071905 29.436841
-16.622643 -13.680706 134.403308
-56.422752 28.286919 57.636147
-62.469784 26.507403 62.994174
-50.480316 -6.147911 104.885331
-42.160484 -2.999841 123.164766
-57.142122 -8.107653 91.704700
-56.120825 -6.695896 107.015750
-60.464459 -6.502109 102.808630
-52.082578 -6.414277 109.312227
-35.200540 -6.777305 126.462227
-31.085792 -10.952151 135.921731
-47.517977 -13.103499 91.098004
-26.525738 -13.059446 137.584045
-70.963039 34.870830 91.580123
23.274904 -18.403896 58.119342
