ply
format ascii 1.0
element vertex 1558
property float x
property float y
property float z
end_header
-57.624238 32.117460 81.035172
-55.477913 33.310613 82.219951
-57.409778 33.376789 82.991739
-54.240053 33.689723 79.967338
-54.418133 34.307928 81.293664
-52.191408 34.051071 82.093038
-52.816624 35.829005 80.269450
-51.292694 34.378604 81.408586
-51.679526 34.496882 80.702510
-49.575869 35.897726 82.533991
-49.852902 34.726436 80.656924
-49.348414 34.161929 82.117387
-46.132954 33.832901 80.971881
-47.281822 35.383817 81.864479
-45.608057 35.335445 82.481050
-44.453083 34.724430 81.837316
-45.057770 33.998394 82.043365
-44.358433 33.446050 80.643830
-42.404631 34.559186 81.603122
-41.509138 35.453243 81.050555
-41.177165 34.814865 81.364647
-39.951421 34.301865 82.982583
-38.914395 35.188476 81.507113
-38.120314 35.330866 82.480747
-37.783981 33.345818 80.845973
-37.738624 35.312822 81.048365
-37.088529 34.782033 82.158644
-35.329238 34.765038 80.944669
-34.498658 33.499280 82.395206
-32.975076 34.191904 80.599979
-32.132774 32.563850 82.472059
-32.135209 34.479225 82.453377
-31.778515 34.791564 80.684815
-31.028059 34.940448 82.674406
-28.436484 34.169448 81.670864
-28.947012 34.256255 81.463301
-27.518273 35.391412 80.977510
-27.380867 35.343340 81.202364
-27.783897 34.919871 80.457778
-25.185816 35.318775 80.389058
-25.559703 35.219466 80.619515
-24.634021 35.421611 82.972876
-23.730538 34.796594 79.807494
-22.527958 36.143216 81.362084
-23.260614 35.609186 80.884112
-20.910716 36.270707 81.363209
-21.729265 35.785441 80.871410
-18.946073 35.017615 81.615907
-17.822715 34.565884 82.360166
-18.285785 35.597853 83.813209
-17.010768 36.583454 81.204724
-16.611304 36.141099 82.060489
-15.417420 36.355415 82.595993
-13.516478 36.136565 82.425579
-12.999734 36.402978 82.195933
-13.106537 35.822706 81.404504
-12.181562 37.156419 81.228494
-50.834355 18.982547 127.213486
-10.532645 35.753336 82.437937
-10.694235 37.404514 83.642019
-6.720189 37.247975 82.654902
-7.719948 38.475768 81.565288
-6.404052 38.688663 81.893376
-56.713249 32.772922 63.773695
-73.827314 4.707818 94.988828
-72.989977 3.912480 96.234130
-41.975723 12.177642 117.670909
30.832220 -1.330638 89.571896
-70.327705 14.820411 84.058143
36.592467 11.150300 70.520656
-26.991383 6.243689 102.799860
33.562021 -5.845749 70.070779
1.072135 38.149335 82.475602
1.999371 37.436034 80.743798
2.060704 39.535168 81.351634
2.076951 36.832812 81.225346
6.535659 39.356435 81.507588
5.355044 38.666055 81.761831
7.698248 39.142291 81.909272
7.388712 38.568741 81.307917
7.833492 37.638888 81.262407
8.966539 38.411049 82.468881
9.119037 39.499752 83.879521
12.589542 40.803357 82.981545
12.343677 39.254224 82.672829
11.204711 39.147371 80.774355
12.447656 38.454950 82.602247
12.893986 37.259264 81.383486
13.677692 39.341889 81.354811
15.124375 37.189728 80.613118
16.402643 37.823012 81.359187
-57.910303 42.506720 97.392459
-28.462842 26.446793 96.912885
-0.028981 31.591882 95.610358
-21.238934 -0.208623 101.059870
34.119823 -4.619234 73.851380
28.106092 22.605119 89.225108
-33.351816 23.376054 98.548800
5.495526 28.872145 98.492189
-64.996579 -7.825829 78.720628
-5.506876 11.422795 106.605971
-61.744021 -9.768782 122.395402
33.269052 17.281777 86.740864
-41.158581 6.267162 129.676846
-24.043847 4.975731 102.476744
-55.081539 -8.027237 104.613424
21.549714 17.043563 100.150857
33.055518 -4.280290 81.588653
-65.152949 -4.175619 86.859053
-20.689953 -15.645943 137.622407
-36.531878 5.529746 131.786926
-68.542825 13.500483 126.589533
-15.124381 6.155236 104.363458
-59.117157 -7.867215 83.616266
-56.835683 41.944935 92.727806
-57.631584 15.708833 128.430701
-60.159019 24.687285 124.945553
22.242841 19.979135 97.442754
-18.072079 5.580704 102.977839
16.352604 18.492829 103.001140
23.847439 17.853114 96.907816
-55.476083 -10.877890 133.463525
-54.760184 -10.659114 131.214529
-52.100441 -10.209022 130.271807
-52.526035 -9.998283 130.761643
-53.187491 -10.596163 129.395894
-52.072105 -10.068821 127.304278
-50.678184 -10.302351 127.645286
-63.771252 30.251862 120.193412
-52.024240 29.454484 123.518357
-6.026791 8.343665 106.890130
-60.188582 30.280480 82.065667
-59.643765 31.996518 83.231415
-59.151230 31.836906 82.338360
-57.672547 32.723595 82.651355
-55.882042 34.193443 82.280438
-54.950262 34.224461 81.819293
-54.348026 32.875808 83.375637
-54.073006 32.922410 82.200301
-52.653725 34.696127 83.496847
-52.785154 33.479457 83.071312
-52.560849 34.296958 82.388062
-51.236798 33.471375 82.945900
-51.050197 34.923526 84.001308
-48.464341 34.540829 81.918930
-48.592983 35.358486 82.208829
-47.874293 34.211603 80.751446
-47.291582 34.589796 84.214611
-48.416770 34.614221 82.744467
-46.111248 34.857672 81.708861
-44.730517 33.597420 78.953254
-43.699701 34.290251 82.294957
-42.559251 33.215891 83.781272
-42.239949 34.472226 81.219370
-41.863300 35.417456 82.696389
-40.578937 34.565046 82.177718
-40.069565 35.051836 81.914434
-37.835762 33.391682 83.385502
-36.395165 33.329447 81.515043
-36.819828 34.715091 83.393243
-37.140177 33.491086 82.853829
-35.065508 34.153999 81.686171
-34.963941 34.673458 82.254818
-32.914966 33.871583 82.019826
-32.436815 32.831834 80.360561
-32.792895 32.537817 83.426889
-31.318873 34.891493 81.944492
-29.614152 32.703949 83.862024
-31.095326 34.146673 82.871268
-29.676328 34.619860 83.103125
-26.362594 34.009314 82.712506
-27.195911 33.594177 82.055685
-26.993585 33.403540 82.079353
-25.785112 35.581441 83.083686
-25.484502 34.013069 82.987416
-23.491396 33.196347 82.425853
-23.146961 35.596080 80.414932
-22.110529 35.636820 82.030599
-22.804463 33.710468 81.596590
-19.924692 36.124094 82.347824
-21.588685 36.142304 82.459117
-19.457020 35.760329 84.022217
-18.994869 36.516716 82.387861
-16.104627 36.459069 81.958614
-16.273973 36.653106 82.558575
-15.798441 35.187736 81.524064
-15.711617 35.132718 83.707220
-14.961131 36.320967 81.881874
-13.721062 35.779917 81.552035
-12.475868 34.122514 82.781472
-11.590372 36.141942 82.708837
-51.933531 20.608823 127.850747
-30.018052 10.560110 105.088241
-9.664582 36.006315 83.470680
-8.301528 35.834405 83.277897
-6.267099 37.183171 83.026025
-7.790902 35.684502 82.387118
-5.741063 36.400551 82.263319
-20.422708 5.289320 103.666326
-26.785415 24.383717 96.748178
-71.478708 17.398780 83.501166
-27.115672 -2.567233 143.041012
-2.817969 35.653701 83.343949
-2.658301 37.031287 83.145596
-0.197541 36.306050 83.881020
0.719539 36.859385 82.331266
0.235219 37.204331 81.478815
1.385043 35.123887 82.558277
2.610265 35.295807 83.316480
4.558008 36.367941 83.534485
6.709074 37.222120 83.153716
6.520409 38.020059 82.325358
5.706893 37.714962 84.546653
5.739233 37.472672 81.540462
7.013269 38.902901 82.042921
8.385550 37.396660 82.125022
8.644905 38.512535 82.777582
10.824629 38.180437 81.951347
12.663924 37.537022 83.248834
11.398927 38.723661 84.334390
12.321992 38.558308 83.647057
14.037230 37.049730 83.463196
13.181367 36.859978 83.031214
16.421869 37.585366 83.740278
-57.699188 42.111309 97.116310
-31.719555 25.657647 95.540714
-0.043678 32.055031 95.958304
-45.961823 18.243863 127.067542
-49.503306 -21.151165 129.271207
14.582965 29.032837 95.823843
-32.052216 23.978145 98.789649
-33.088094 22.611804 97.967825
2.583544 29.000534 99.977360
35.006475 18.069015 75.757181
-6.413061 10.761448 106.588835
-73.729596 12.625661 111.386935
30.421870 -1.599466 85.663847
-38.569610 6.564192 130.080894
-18.966576 7.315462 101.316771
-59.881570 39.148914 115.282132
-48.108510 18.392301 126.686065
33.468794 10.218112 86.845015
-61.374408 41.659069 94.887847
-55.869291 44.747475 99.694075
-37.276726 6.236416 132.883660
-32.734848 0.384081 103.152436
-19.563552 -2.824704 128.138096
33.172938 7.403679 85.169646
4.230860 21.044482 104.699625
22.006387 20.475549 97.657733
-19.953730 5.986134 102.380104
23.740963 20.861272 98.313381
21.781002 18.923620 98.182870
22.192148 18.087054 97.679356
11.546643 13.178469 105.143983
8.539538 13.707781 107.356959
5.589525 12.735920 106.232827
2.361895 10.963247 107.905597
2.073344 10.217160 106.956181
1.774953 10.377837 107.311339
1.148313 10.619248 106.704927
-0.105000 10.998172 106.820732
-61.132247 29.820926 84.055856
-59.184950 29.484103 83.712139
-58.312056 31.719392 83.241672
-57.764932 30.732397 84.175730
-57.322158 31.690643 83.797731
-56.752964 31.383640 84.411946
-55.291661 31.891352 84.406893
-53.256259 31.935281 83.457054
-54.859338 32.484439 85.334837
-54.362673 33.648491 84.132299
-51.859037 33.509248 83.245892
-51.624107 35.281114 82.394625
-49.543473 33.453641 84.378198
-49.187314 33.347863 84.752084
-47.111759 33.818764 83.518383
-47.560652 33.582948 82.773906
-48.236874 34.953970 84.462304
-47.842024 32.941199 83.573095
-45.903051 34.499446 83.319478
-45.322884 34.030490 82.656146
-43.847726 33.764683 82.740740
-42.102759 34.327908 83.335089
-43.444202 34.254848 84.032473
-41.150352 33.048997 84.629196
-40.813381 32.684371 84.291759
-39.463855 32.169865 83.745210
-39.951680 34.458362 83.397843
-38.059405 34.524509 84.534068
-37.766940 34.689005 82.908225
-36.577839 33.572164 83.433519
-34.641604 35.887561 82.989478
-36.418303 35.379889 83.246845
-35.059068 32.396343 84.182635
-34.106491 34.311301 83.819939
-33.943588 32.354779 83.486520
-32.758156 31.575382 83.537829
-31.664945 33.341752 83.838437
-29.379570 33.588573 83.977031
-28.625237 33.139471 84.644899
-28.683554 32.328508 83.605012
-27.835432 32.782517 83.670237
-26.252313 33.319855 82.359561
-28.107189 33.398073 83.893089
-26.256135 35.133016 82.627926
-25.353554 33.663491 84.061536
-23.650475 32.407152 84.625071
-22.717598 34.702978 84.092583
-20.830811 34.891957 83.821366
-22.130309 36.161517 83.323605
-21.361959 35.240067 83.880880
-19.125931 35.319542 83.830134
-17.956731 37.355196 84.553243
-17.207468 36.915282 83.703407
-16.357023 34.290390 83.813235
-16.118665 36.173406 84.334022
-14.338080 35.752383 84.372238
-15.900439 35.771293 82.892734
-14.372288 35.974159 83.599194
-13.631609 34.788150 83.911290
-12.659473 34.987640 84.591067
-12.339094 34.108260 83.221625
-64.173988 13.058753 127.228097
-10.557621 35.185849 82.948935
-8.168523 33.575997 83.154404
-9.871354 35.207981 83.736076
-5.087103 36.429698 83.333344
-6.967059 35.013579 84.326868
-5.490743 33.361429 94.061629
-6.149250 36.151598 84.277744
-4.227861 36.179129 85.613225
-74.356251 15.333969 112.370353
-3.395852 35.960083 82.442935
0.068169 36.764956 84.839165
-0.939957 36.994011 84.024571
-0.522295 34.199155 83.422821
1.784394 36.946919 82.980206
0.580981 34.672665 83.256948
4.055919 35.790497 84.534240
1.807114 36.575669 82.769623
3.987482 36.207351 83.789937
4.384113 35.657912 85.189822
4.699330 36.329690 83.819868
5.188421 35.627296 84.459140
7.712223 36.511871 84.283166
7.452481 37.324021 83.343064
8.011820 36.906668 83.802820
8.685337 36.953101 84.320263
10.623049 38.192670 84.082359
10.697406 38.184481 83.987237
12.480386 37.089269 84.034992
12.465625 36.468473 84.147994
12.329148 36.237004 84.460587
14.566937 36.734691 84.402746
-55.681452 42.032808 97.814652
-33.288318 25.625023 94.486571
2.551959 31.207644 96.440927
-13.944654 43.927345 74.200515
36.955454 10.483497 72.050858
13.047687 27.033403 96.921273
-31.228973 23.939272 96.629841
2.247217 30.124118 99.488378
1.155985 30.743842 98.233006
35.511310 19.072974 76.236672
28.710011 -1.396582 89.923028
-53.448581 12.723749 127.921776
31.430979 17.259487 86.576918
-38.230314 4.610668 130.507345
-56.356251 43.182972 100.038877
29.761910 -6.696174 85.720374
27.635281 20.312374 93.371365
-33.958426 4.754862 134.046464
-42.774417 9.220607 126.773530
-18.591433 3.885632 101.688864
-36.762020 4.996301 130.171158
-67.704980 19.157682 88.765112
35.372159 8.670835 81.888426
-62.214187 -6.207667 87.235683
-50.440824 -11.437263 125.449268
-50.565871 -5.139933 122.995677
0.969187 13.556740 106.808637
-27.741528 1.873786 103.565730
27.411348 22.902664 89.619264
1.715391 26.292014 102.040949
-30.771214 11.660694 103.157713
-56.788186 2.888176 126.370337
-44.004853 20.809389 124.300783
-58.336281 32.875859 121.415883
-2.426276 20.985896 104.992588
-20.578823 18.254116 102.228421
-21.018273 17.897835 100.493027
-65.649493 24.446396 125.443488
-19.956731 23.347606 97.112719
-60.471757 29.731197 85.210405
-59.909997 31.380759 86.173313
-59.087235 30.148509 85.002302
-58.509107 31.493440 83.610968
-56.775204 31.521056 83.727173
-57.345821 31.088495 83.575760
-55.804803 31.121914 85.185739
-54.207988 31.739963 83.870545
-53.209980 32.839054 84.428322
-52.955606 32.980601 84.369228
-51.757865 32.684289 83.733748
-51.235515 32.803859 84.249926
-50.931579 33.547164 85.365652
-49.406527 32.793722 85.212063
-49.642518 33.577733 86.019638
-48.647117 34.299678 84.878503
-47.788806 32.839431 84.966934
-46.970754 35.416629 84.563281
-45.540275 34.200508 84.884862
-45.570628 32.312041 85.860729
-44.846242 34.646207 83.137324
-43.560709 34.233777 85.592585
-42.292927 33.636470 83.463106
-43.816529 33.121171 84.911901
-41.140413 32.804944 84.515366
-40.289695 33.307434 85.072652
-38.313553 32.642520 84.375244
-37.296887 33.753614 86.048447
-38.602946 33.762480 84.634129
-37.789786 33.544407 86.160242
-35.893359 34.351125 85.883973
-35.753163 32.931115 84.131339
-33.757150 33.474894 86.047005
-34.015628 32.979131 85.091442
-34.404890 31.581795 86.381738
-31.614903 32.441502 84.391925
-29.841098 32.494564 85.195053
-30.266503 32.550164 85.644914
-29.278876 32.489271 85.060322
-28.909700 32.146436 85.505078
-27.650648 31.864823 84.055663
-27.245262 32.589372 84.328318
-27.233688 33.638087 85.515288
-25.438166 34.366785 84.676742
-24.409609 34.521697 84.875045
-24.516388 33.892174 84.212129
-23.002474 34.066803 84.106266
-20.858422 33.890849 85.572460
-20.310303 34.698618 85.444990
-21.000756 33.947095 84.781872
-19.835179 35.227617 86.340409
-19.275008 34.494115 85.442551
-19.278473 35.059176 84.418571
-16.894569 35.523203 83.786516
-16.997933 33.757808 85.055443
-15.676270 35.471472 83.709537
-16.148715 36.282959 84.443407
-14.467217 35.746453 85.349662
-12.798158 36.155592 84.039757
-13.874382 35.196133 86.035572
-11.543048 34.427119 83.593457
-12.192360 36.791100 85.038508
-10.148720 35.005180 85.294182
-9.830102 34.788175 85.760533
-8.482901 34.976468 84.213705
-7.228462 35.844423 84.458755
-8.602299 34.850109 84.466223
-6.193082 34.587508 83.811757
-3.559600 35.727681 85.176687
-3.999225 34.292377 84.893584
-2.333115 36.842906 85.059627
-3.360523 35.940571 85.559132
-2.246684 36.057092 84.168308
-1.883379 36.818827 86.062972
-1.177665 35.753184 85.444638
-0.073875 37.158007 84.971455
1.007817 35.813467 84.365003
2.165329 35.150816 84.538587
4.520520 35.673250 86.323509
3.084642 35.679406 85.861196
4.143281 35.334292 85.493135
4.941314 35.388153 85.300876
5.541512 34.685888 85.223205
7.883746 35.420418 83.543534
7.172943 36.382605 85.563472
9.800110 36.417229 84.787610
9.674566 38.654314 84.770488
9.970398 37.194537 85.871512
10.513539 36.991517 86.544728
11.942372 34.895146 86.851813
11.698503 36.616486 83.177952
11.886674 36.831857 84.033457
14.721866 35.077232 84.562650
15.466793 34.859802 84.051440
2.909132 32.876591 96.264026
-30.382132 -7.978973 143.389435
-72.860791 3.419651 97.294965
12.858741 30.319191 97.820252
-31.589657 23.379459 98.765697
1.038534 29.074886 97.774718
36.193698 15.110924 78.163907
36.856976 16.621681 75.909249
-39.841072 9.008247 126.882894
-15.095507 30.603501 91.764104
33.347029 15.966369 87.755434
30.905746 20.374206 87.343066
-3.592215 11.509884 106.836122
28.637871 18.928184 94.321144
-68.702017 1.147731 86.744579
-61.356942 42.017676 101.859446
-60.049312 -6.721708 92.266517
-33.207696 28.188387 92.561027
-40.921313 6.873331 130.216174
25.578557 23.215221 94.831545
-32.419270 28.212845 93.397654
-64.126825 44.174797 103.509503
-41.060080 0.186861 112.631188
-51.677468 -6.072829 122.729289
1.215223 15.173703 106.042810
-28.895803 -0.876734 103.376115
-21.422456 8.092920 102.416661
-21.027138 8.453943 103.334851
-64.092148 17.385204 126.661990
-62.429121 27.111820 123.787466
-57.750461 14.882168 127.980803
8.299770 29.137548 100.729227
-34.220424 -1.434227 139.305949
-35.180956 -2.906730 140.268919
15.697501 16.340937 104.344725
-55.415837 -15.338907 70.276127
-54.423346 -14.960768 68.779348
-59.199463 30.342751 86.522431
-58.521318 31.114854 86.189456
-58.292177 30.451025 86.773474
-56.793313 30.100863 84.943043
-57.135909 31.374530 86.027276
-55.620797 30.400419 84.681194
-56.116908 32.432465 84.594320
-53.673521 32.169935 84.910658
-53.523480 30.641746 85.175743
-52.245220 34.373168 87.244149
-52.788751 33.302559 86.350741
-51.429098 32.984570 84.526261
-50.302843 32.280414 85.458930
-49.346463 34.079950 86.022096
-47.839500 33.613439 86.426646
-48.022215 33.076669 86.000205
-47.206242 31.664337 86.647702
-46.650948 33.096642 86.751467
-45.800562 31.511163 87.180002
-45.868512 34.455725 85.919865
-45.026726 33.241749 87.282440
-43.390843 33.867009 86.147634
-41.193049 32.354589 85.630092
-42.866848 33.299367 86.756483
-41.910408 32.542051 85.602360
-38.857012 32.859713 86.999776
-39.580833 32.358638 86.705431
-38.098756 33.556650 85.153071
-37.162442 33.076490 86.139295
-35.225372 32.570418 87.492951
-37.112158 32.554025 85.855633
-34.674170 32.119392 86.140679
-33.295031 32.401157 85.225843
-33.681998 31.233108 85.439207
-31.882897 30.654048 85.921569
-30.728147 30.668442 85.980250
-30.204879 31.212950 86.568175
-28.903043 32.343270 84.871400
-29.113134 32.181351 86.115196
-29.019977 31.754080 85.565649
-27.128700 31.719461 84.360568
-27.054026 32.951030 85.620287
-25.320756 34.177597 86.116657
-25.535125 33.390806 84.568212
-23.894871 33.081545 85.385647
-23.515186 33.585834 85.669134
-21.694828 32.930765 85.946598
-21.814427 33.050858 85.550526
-20.966958 33.975969 86.820801
-18.633171 34.896260 87.460403
-18.875022 34.169283 86.083033
-18.623996 36.405814 85.427945
-16.411954 35.165463 85.789980
-16.610447 33.802329 87.334999
-15.946538 33.868461 87.051263
-13.986612 35.461407 87.646639
-15.303199 35.567174 86.924840
-13.038765 36.773978 87.394574
-11.767224 35.751760 86.000451
-11.496888 34.412966 87.783889
-12.304167 33.141591 88.032940
-11.140357 34.777408 86.064375
-9.102138 34.659567 86.681176
-10.258611 35.604279 86.451507
-8.945829 38.097952 86.707716
-7.286955 35.917450 85.922606
-7.407438 35.797283 86.642669
-4.485294 35.173173 86.842956
-3.808147 36.523259 86.139232
-3.464567 36.205387 86.038355
-3.052397 35.854781 86.834295
-2.474675 35.444502 84.852839
-0.368997 34.773545 86.380519
0.901839 35.482987 86.306362
0.868997 35.741277 86.308587
1.693403 35.277224 85.173354
1.915930 36.292636 87.317647
2.953198 34.517635 86.625169
3.460023 34.536637 86.132552
3.710815 32.033136 85.643329
6.250736 32.771678 87.255069
5.189510 33.728995 85.707092
6.004587 33.158028 86.289612
8.172722 35.071172 85.840405
8.279948 34.761362 85.586767
9.017818 35.653563 86.683130
9.510212 36.268451 86.301830
10.802462 36.156915 85.228940
11.359683 35.660590 85.223341
12.164848 35.088984 86.367105
13.377816 36.181432 85.465541
14.753504 35.286776 84.705829
14.488631 34.327130 86.964483
15.976375 34.813976 85.963338
-22.426946 26.921323 98.371297
11.373617 29.279812 97.296626
-29.538176 24.003725 98.406046
18.040270 31.616406 85.351936
19.915753 32.096173 86.741497
-72.258486 17.258434 124.463470
-34.167491 2.493870 138.620690
-28.608453 -10.663713 141.144306
-62.420752 -12.952127 133.385347
34.634614 -4.138900 72.891580
-1.445441 6.317824 105.356712
-73.622991 25.264816 110.120259
-2.762965 33.408087 92.582870
-13.449524 7.245543 104.514489
-72.350003 18.614385 114.869096
35.420229 8.341390 80.824140
-47.509104 30.521977 91.968626
-41.706661 6.258947 129.801499
-77.088668 16.916593 101.830380
22.562505 18.694680 99.557608
-47.960516 29.695252 93.141835
-53.107196 -7.219552 127.460521
3.275210 14.974418 107.420311
8.844934 16.661932 107.040013
-28.528134 0.471136 102.351061
-29.680678 -10.063431 139.845050
-31.104767 12.484461 103.280205
16.345916 20.252159 102.612446
19.168169 21.899664 100.323337
19.835486 21.853610 99.271766
21.150230 21.801986 97.500627
22.618177 22.185140 96.624537
-69.348668 -2.596757 100.322729
-54.509775 -48.875581 136.787781
-35.215629 -16.928758 86.254757
-59.890319 -8.440224 88.889208
-58.840144 30.437537 86.957825
-57.991327 30.616695 87.463517
-56.847328 29.917868 86.706004
-56.924639 32.330977 86.448252
-53.657219 30.792134 87.151236
-55.491908 31.598003 87.389396
-54.115078 31.896818 86.141045
-53.197146 31.304034 87.308479
-53.063092 31.512681 87.093797
-52.442233 32.072711 87.279606
-49.687294 32.296237 86.168947
-49.943225 31.877079 88.084819
-49.342169 31.561120 86.160043
-49.296402 31.292927 87.570039
-46.419227 32.631567 87.349431
-46.892214 33.683560 86.614138
-46.513672 32.201936 88.155135
-45.402372 32.539779 88.187635
-44.194122 32.858818 87.675147
-43.557608 32.536237 87.638583
-42.396480 31.756298 86.102877
-41.758334 33.019556 87.884687
-37.995072 32.104873 88.009274
-39.853758 31.063248 86.249347
-40.933969 31.450450 86.833600
-38.279494 32.111216 87.479527
-38.230027 32.256394 86.254117
-36.279473 33.236163 87.291386
-36.589656 32.258741 87.434625
-38.273139 33.206202 89.117150
-34.422877 31.875782 88.284860
-33.687521 32.256932 87.476953
-33.279926 33.156554 86.989552
-32.278814 31.405304 87.934789
-29.802416 31.208355 87.417528
-31.571058 31.937692 86.087644
-29.517040 31.463258 86.968148
-28.127729 31.851964 87.730127
-26.893762 31.160515 86.700834
-27.854058 31.052953 88.175184
-25.793252 33.277785 87.010447
-24.952072 33.872339 87.497115
-24.901703 31.784090 86.320328
-24.670934 31.189306 87.029377
-22.932136 32.359524 87.083758
-21.511555 32.916916 86.252241
-22.016736 33.308769 88.155904
-20.769560 32.860404 87.166206
-20.545593 33.385717 87.323018
-20.247469 32.571904 87.383013
-20.088899 32.448036 86.941302
-16.996721 34.955252 89.053552
-17.857449 35.227549 88.066558
-15.619250 34.549862 86.377035
-16.739043 34.388561 86.050545
-14.565630 34.296208 88.133676
-14.495348 34.540121 87.537856
-13.186736 33.603431 86.861948
-12.504582 35.301798 87.567946
-9.830014 35.610788 87.517342
-9.855792 35.606235 88.083675
-9.647931 35.738241 88.537882
-7.719327 34.969011 87.980743
-8.946173 35.436085 88.750048
-6.327091 35.783954 86.969810
-7.361451 35.602812 87.274259
-5.399963 36.166699 87.928993
-2.649175 35.648593 87.283011
-4.325871 35.336228 88.988383
-2.144008 36.075129 87.260012
-2.748249 34.518058 85.854683
-1.443702 36.176205 87.960711
-1.577356 35.206241 88.056073
-0.222026 33.827971 88.768132
2.639274 35.978679 87.323773
2.908342 33.909627 86.757307
2.641534 34.541099 87.236637
4.284373 34.373702 86.664688
2.975198 33.080881 87.275931
6.229914 33.683105 86.584063
6.786460 33.989066 87.851885
7.604548 35.036193 87.029836
8.499486 32.610958 87.728025
8.518310 33.554072 86.044206
10.449317 34.222724 87.733486
10.954974 35.280800 87.237110
9.390594 34.469797 87.658217
10.072404 34.333539 88.317219
14.176084 34.345291 87.324990
13.675912 34.256143 88.649665
14.638605 33.438588 87.576204
14.898344 35.064765 89.587185
15.411266 31.336013 86.437915
16.416852 32.651222 86.779520
19.454299 33.411700 87.441888
19.665718 31.983942 87.209551
18.435841 32.439094 87.127243
19.520399 31.368234 86.938438
-29.102330 -0.386748 136.838831
-59.813323 42.927404 101.260578
33.030151 21.177744 77.792875
36.586954 7.104348 82.253891
28.776530 -3.955511 87.557951
-47.448398 29.672152 92.026085
-46.554614 28.465194 93.031888
15.319941 19.033522 103.241571
33.488921 -1.931183 80.807468
-26.048222 7.140606 102.340009
-45.408193 28.197025 93.508757
-41.613537 5.395822 131.478760
-57.899719 40.989491 94.180721
-65.077312 38.160958 117.274161
-44.847144 28.375783 93.395767
-52.766497 -5.944838 126.474730
9.359826 17.009938 106.210741
10.807181 18.861032 105.386282
12.560864 19.419554 105.266584
13.897678 18.696675 101.244313
16.291998 20.418868 102.595535
-53.475587 4.698977 126.398645
-16.550773 20.969751 100.522030
-52.007454 21.798668 127.491280
-44.134139 5.620752 128.322072
-48.117407 -5.074292 110.250595
-38.976812 -19.462214 78.403796
-13.213793 -21.978225 148.571137
-33.149840 -6.079866 125.064996
13.107663 -14.603309 87.747955
-59.045684 30.979276 88.619672
-57.156808 30.566226 87.992886
-56.182547 29.640915 88.231018
-56.475182 30.818701 87.056300
-55.263741 30.997426 88.686603
-53.059316 32.373343 87.505663
-53.064563 30.374491 87.620956
-51.799056 31.394842 88.917841
-52.939503 31.379732 87.945910
-52.312167 31.062228 87.853584
-50.269037 31.153723 89.027160
-49.110586 31.096862 88.919567
-48.796317 31.880014 88.299912
-47.048467 30.824587 89.243531
-47.156827 30.834024 89.546748
-45.420866 32.075661 88.924881
-44.766989 30.948866 89.368192
-44.846592 30.999323 87.878362
-43.936469 32.691925 87.703767
-43.331283 30.312167 88.144029
-41.933158 31.279470 88.072210
-41.841351 31.471446 88.370295
-40.455759 33.174303 88.928060
-39.075942 31.078668 87.601165
-37.492742 31.571221 87.761730
-38.869514 30.125665 87.722215
-36.448601 30.761122 90.666127
-35.034652 31.696324 87.947116
-35.129423 30.932614 88.764340
-35.637847 30.170428 90.263367
-32.538766 29.562354 87.771257
-30.548985 30.917263 88.872965
-31.025059 29.986591 88.879922
-32.074236 30.764745 88.780305
-29.707436 30.543774 88.112258
-29.539554 33.307969 87.523154
-29.404915 30.253537 87.325581
-28.132652 30.178532 87.310678
-27.576070 30.808963 88.013345
-27.953166 31.768044 88.614507
-26.457197 31.026121 88.910803
-24.229693 32.711453 87.876639
-24.623266 30.590580 87.273462
-23.778225 30.741336 88.463959
-23.290075 32.655358 87.038025
-21.799763 32.974978 88.453654
-21.477211 33.754127 89.035703
-19.588858 31.984250 89.715047
-19.097916 31.902575 88.106191
-18.866389 32.899704 89.230394
-17.015873 31.707792 87.485061
-17.928621 34.682192 89.226461
-16.035179 34.162134 88.273147
-14.702396 33.665948 88.693299
-13.530562 34.091992 87.745566
-14.451851 33.697444 88.252802
-12.634219 34.291076 88.486938
-12.064855 33.812864 88.966563
-10.887818 36.465949 87.897978
-10.107115 35.504886 89.145280
-8.521264 34.013487 88.910794
-6.433911 35.107016 88.272312
-7.167671 35.635147 89.187695
-7.488478 35.477789 88.541609
-7.341983 36.282729 90.191606
-4.821521 35.025034 89.943712
-4.450216 35.910487 90.253436
-3.578733 35.613402 88.971761
-5.144526 34.258340 89.858159
-3.171824 35.519748 87.809365
-1.944263 34.968548 89.146769
-1.229507 34.739419 87.418892
0.685330 34.588917 87.689153
0.729034 34.573223 88.183837
2.602659 34.563062 87.767587
2.415710 35.184930 88.480118
2.179330 33.888788 87.658073
5.039462 34.388631 89.626795
5.502618 34.925084 87.834492
5.605860 33.430035 88.217273
5.972504 33.360268 87.442860
7.965003 32.008304 88.637558
7.660438 32.846205 88.642136
9.580892 33.488688 88.712680
10.011234 34.751089 88.725317
10.391480 32.919239 88.127150
10.962351 33.262083 86.955626
10.750565 32.854528 87.658367
12.955083 33.199312 87.767523
15.091903 32.394373 87.434992
14.951974 32.742464 90.082620
14.881887 33.813212 87.822724
15.874114 32.083389 88.012041
18.653589 31.452520 86.853356
18.416045 32.239577 88.904939
20.727847 30.917738 88.601720
21.013969 32.168478 88.805552
32.020600 11.865117 85.427906
36.663928 0.762407 75.660017
-24.368524 -4.826392 145.352186
36.385436 12.389561 71.478068
-44.576291 30.304785 92.760736
-42.788565 27.893918 93.340271
-40.996887 27.874487 92.358954
-2.948742 12.785107 105.774750
24.300707 23.402386 96.725811
-73.755186 6.745900 103.964169
-74.255213 9.101602 108.969521
33.043945 1.274102 81.839084
32.258225 12.487838 86.981510
-40.416538 26.856975 93.478419
-60.583907 -8.321600 130.017792
-59.235493 -7.324568 132.605056
-2.072942 36.859993 80.929839
-57.387120 23.925673 127.093011
-2.246803 20.269749 106.284762
-52.760037 5.383449 127.241144
-2.546501 -17.350236 86.710879
-54.433036 -6.450946 110.960503
-26.645868 -12.032389 136.218695
-51.805260 -7.790101 106.797834
-55.726162 -7.345542 102.110759
9.748426 -16.538383 87.112085
-7.092434 -17.416497 88.367217
-40.310304 26.701147 94.135629
-26.450139 -10.825343 131.333976
-53.749898 -7.701733 95.944048
-56.981991 32.060682 89.523773
-56.606900 31.061536 88.574639
-54.652992 31.717335 89.310951
-55.411112 31.888423 91.164952
-53.571168 32.055791 88.996637
-58.961057 43.517186 93.955738
-53.561863 30.689126 88.936342
-37.130524 3.960980 133.059590
-49.377881 31.310846 88.933361
-48.887787 31.870784 88.953645
-49.326579 30.566099 88.680379
-47.897130 30.006066 88.223403
-48.715574 30.833147 90.283680
-48.382362 31.216249 90.179235
-46.149411 31.000613 89.828534
-45.147677 31.993625 89.408286
-45.584103 31.353757 88.759259
-43.272412 30.263268 88.553253
-42.722510 30.421266 89.149978
-43.143340 29.660760 90.790338
-41.638299 31.000315 90.187757
-40.501573 31.105952 89.567878
-37.982565 30.371976 90.714419
-39.597553 32.684014 89.259016
-37.580530 30.718673 89.704921
-36.388477 32.491018 90.061783
-36.246715 30.334219 90.552079
-36.665546 30.837998 91.217218
-34.489404 31.944319 88.986876
-33.068289 29.758891 89.645204
-32.669563 31.025889 87.952842
-32.441732 30.118761 88.668390
-31.087593 29.637602 89.945735
-30.526146 31.756914 88.553440
-30.274941 30.151690 88.693763
-29.653691 29.844264 91.038114
-28.515853 29.448271 89.397243
-27.101330 30.268619 90.348400
-25.626800 28.847198 89.628156
-25.753420 29.261646 90.862888
-25.871843 31.348241 89.708179
-22.687695 30.184472 88.690883
-23.763070 31.923023 89.191574
-22.817851 30.562243 88.787146
-22.153817 31.656175 89.041799
-22.606194 32.536223 90.768788
-20.615586 31.742993 90.269533
-17.703446 32.205178 89.988620
-18.584681 33.431454 89.890346
-17.852107 33.104227 89.809426
-17.773650 33.685043 89.809640
-16.268752 32.402054 89.321044
-14.521063 33.410233 88.991622
-13.449750 34.058566 89.099849
-13.118198 35.082126 90.580092
-12.387564 34.774479 89.510270
-11.757763 34.134631 88.651849
-12.225129 34.015163 88.918264
-9.967645 33.109621 89.814202
-11.861745 34.737119 89.564130
-8.488744 34.471309 89.163432
-8.142576 35.188276 88.817615
-6.863669 35.874941 90.054357
-6.254525 35.291801 89.588563
-6.476973 34.698770 90.437896
-5.143038 35.863904 90.650160
-2.938075 34.699494 89.180927
-4.377651 36.777317 89.035222
-1.235488 34.312212 89.549123
-1.857636 35.110208 90.372937
-1.811691 35.060863 88.597241
-1.084170 34.106250 89.796752
0.701595 34.439435 90.452421
1.484169 35.364430 90.657774
4.185219 35.421057 89.224067
2.387130 34.393730 89.412935
4.763069 35.169848 88.660627
-66.685114 -0.483701 88.978236
-7.565816 29.825359 96.428666
7.436661 33.188052 90.339329
7.098571 32.474653 89.375647
8.739674 32.195392 88.940712
10.907716 33.306775 89.852154
10.489655 32.071658 89.048652
10.260064 33.754017 89.534152
11.942598 33.696080 90.073819
12.293139 32.070188 90.258148
13.510352 31.761561 90.044109
14.466583 31.896027 89.922099
16.045165 31.955262 89.447905
15.037511 32.188208 88.701824
16.020685 31.556522 89.872684
17.052035 31.095635 88.382820
18.153287 30.931491 89.872667
19.500491 30.012410 90.630860
-69.425662 2.712108 87.292015
-56.107575 32.507887 119.259560
21.337573 19.412223 98.493562
33.816069 -1.882304 79.321924
26.087533 28.928288 84.303057
-38.117950 28.104233 93.257142
-33.092968 -3.437603 141.697779
-35.293858 -0.081378 138.773666
-51.132629 -31.300384 130.833393
-29.456873 -0.383400 141.556989
-45.389710 34.431488 56.065869
21.352228 -15.814568 79.723460
-12.577584 32.901361 92.993214
31.275721 22.171273 87.162058
-60.938451 -7.588028 130.656221
1.443375 19.398103 106.212632
10.781567 25.551817 98.990872
-36.972844 15.489157 102.864103
-56.160399 6.503054 126.618915
-42.925291 -1.236777 122.156047
-22.633800 -20.898341 78.068872
-5.922635 -19.209069 88.571688
-57.337175 34.854232 90.004204
-30.863685 -16.496948 88.332150
-36.596683 -18.664959 76.116309
-38.998239 -3.630715 123.252662
-43.792312 -1.143370 123.702069
-55.879640 -6.619826 106.387378
-53.547950 -14.165740 77.486507
31.740250 2.822431 87.420101
-65.748411 -6.859558 75.706100
-37.013290 27.659681 93.319308
-38.919327 29.823056 93.541460
-27.539737 -1.050449 140.501206
-26.125246 -2.682409 140.654373
10.316482 16.034505 105.730545
-25.358281 4.791923 102.515575
-34.379937 4.305166 131.718914
-70.385163 -2.183824 98.900693
-50.126150 30.660906 90.512123
-50.288974 30.367850 89.656093
-46.853880 30.837479 91.052730
-47.868171 30.262772 91.191700
-47.475308 29.365448 90.060412
-46.446985 29.181482 90.344535
-46.263751 30.951662 90.634012
-43.848322 28.958546 92.060804
-43.948891 29.751372 91.030312
-42.606509 30.236211 91.322616
-42.058068 30.846848 89.634496
-41.959766 29.661391 90.235968
-40.989589 31.656840 91.196164
-38.894761 30.593189 91.305449
-37.490824 29.708316 90.936894
-37.095005 30.084536 89.743627
-37.997872 30.212201 88.793372
-36.143490 30.713756 90.359693
-34.506187 30.563873 89.788966
-35.229187 29.253814 89.737126
-34.501398 30.189951 90.885118
-32.674655 30.809768 90.279662
-30.945504 29.294856 90.376514
-30.003779 29.423743 92.365190
-31.207323 28.785101 90.272494
-29.465738 28.183928 90.188236
-27.413594 29.429187 90.991623
-28.297448 28.902010 90.863785
-26.711322 30.029724 91.018372
-25.823414 30.898797 89.938661
-24.083072 28.391049 90.151443
-25.485836 29.441096 89.533235
-24.234921 31.175841 91.540111
-22.278856 30.001178 90.854122
-22.558101 29.654984 89.443267
-21.200644 30.388135 90.906333
-20.930040 32.091678 90.099377
-21.046739 30.749601 91.310514
-19.704714 32.163374 90.190657
-19.730351 31.929693 91.820581
-18.831145 32.654787 91.071410
-17.678545 32.396884 89.927997
-17.124579 32.299643 90.007379
-16.054520 32.319222 90.701278
-12.992102 32.480448 91.143760
-14.833104 33.273458 90.586908
-12.812010 31.622332 90.241248
-11.549798 32.169325 90.111715
-11.112959 33.425074 89.379120
-10.850864 33.806978 91.706525
-9.331305 32.774513 89.663550
-7.225089 34.114817 90.290378
-8.500429 35.031237 90.863818
-6.903357 32.546644 89.908172
-6.340577 33.241662 90.741976
-6.017805 34.744049 90.309016
-5.720044 35.243939 91.670981
-4.171760 33.863958 90.316730
-2.284507 34.728928 90.813116
-2.231880 34.373146 91.461677
-1.189236 33.503944 90.355510
-1.018042 33.858944 91.675908
-0.025377 35.036342 90.786526
1.088944 34.789522 89.979857
1.751769 33.940943 91.312837
2.625473 34.013185 90.641281
4.049608 34.805779 90.594231
3.694923 32.329225 91.242498
6.386739 33.131061 91.499365
-17.352419 25.866065 99.540406
7.252389 33.465630 91.083829
8.610206 31.785649 90.149262
8.032060 30.779482 90.078673
9.602236 32.329954 90.598035
9.427738 31.928324 89.880040
11.500017 31.669065 90.902258
10.995697 31.110201 89.597182
11.805934 30.559095 90.198492
13.331564 30.310678 89.863419
14.867833 30.463007 90.983988
15.268180 31.337442 90.252074
16.380486 30.258532 90.113631
15.963527 30.816243 90.469467
17.139927 30.190929 90.624539
17.754633 29.219893 90.157238
-24.037733 27.492638 94.422599
-17.665926 7.952761 103.265203
-61.551674 -12.203814 127.476649
34.038440 -2.442247 79.730866
-28.623352 2.651604 103.023912
-36.864554 28.784316 92.572004
-73.686333 22.884975 110.529749
-64.314919 40.186073 110.843528
30.481024 21.269264 87.071604
-29.921597 0.852830 140.700761
33.938489 2.242326 85.812899
-70.908823 19.673924 90.765435
-25.347048 -4.032552 143.645556
-20.696015 -8.261958 146.134694
-37.115189 28.852507 93.667538
1.299812 23.251453 105.401880
-52.963982 -5.234156 124.083109
-53.822823 -6.711849 127.274043
7.817778 18.058894 104.654228
11.223521 17.538051 104.748491
12.950451 19.393396 103.793571
-56.568260 -16.346143 137.050075
18.354327 20.842914 101.555267
-23.649029 -20.032629 77.052673
-57.360258 -9.947599 87.609422
-34.255932 -18.064548 75.399852
-32.860230 -19.633472 76.532300
-35.661282 -18.519778 75.656374
4.683765 -16.781116 88.415322
-40.969942 -3.624835 122.760486
-26.742159 -12.255088 131.796851
-40.654204 -18.707537 75.040975
-22.770254 -20.590556 76.618116
-39.011591 4.223087 131.583264
-75.640065 19.567676 96.640927
31.025330 17.852571 87.286159
-27.705447 -2.133681 140.564247
-62.287435 43.052269 102.985592
-57.444935 42.533840 104.754822
-35.119126 28.266325 91.985893
-66.193032 43.423211 104.077459
-57.755517 43.610514 103.769619
-51.078438 28.970440 90.794592
-47.926032 29.060761 91.184910
-49.349779 28.055326 92.030745
-47.087431 30.076671 92.742021
-45.707127 28.923315 91.707579
-45.716667 29.087305 90.889279
-45.167277 28.871162 91.902684
-43.925226 30.253213 92.937043
-43.395937 28.364208 92.229435
-42.091945 29.847659 90.734092
-42.921029 27.719556 92.528603
-41.641566 30.222843 90.722627
-39.899515 28.454979 91.770065
-38.628451 29.297722 92.818978
-39.593592 29.626423 91.723526
-36.712618 29.110987 91.151445
-36.800987 28.488073 91.514334
-36.153154 28.001519 91.134690
-34.946899 29.191173 91.913996
-35.263463 29.446477 91.378591
-32.933266 29.637699 92.288779
-34.520282 29.487574 90.768622
-31.708221 28.867372 90.828467
-32.657092 29.248965 91.089458
-31.404391 28.158003 92.459900
-30.170888 27.077332 91.324032
-28.474244 27.307910 91.128105
-29.265382 29.888446 93.143516
-28.828009 28.627827 91.898391
-26.526640 29.428618 92.028887
-27.139096 28.817491 91.365216
-23.287615 29.085777 93.070562
-24.169448 29.257822 91.053464
-23.210643 29.861747 91.695278
-21.939329 30.354236 91.652542
-21.286480 29.564998 91.948001
-37.438835 -17.769746 77.857059
-38.311988 -17.175055 78.082192
-39.968069 -17.698824 78.365982
-41.552733 -18.190570 77.230889
-41.850657 -17.718006 78.452204
-42.998388 -18.151891 77.834803
-42.659008 -18.018588 79.394844
21.456536 24.300543 96.126769
20.490522 24.069426 97.409582
-8.626980 -17.894869 86.672223
-64.181497 -2.836507 110.732003
-32.554384 -18.345443 78.947913
-34.653895 -16.497687 78.611224
-16.142443 43.937647 30.242569
-15.379488 43.633558 30.392533
10.749963 -15.263481 85.704461
-49.113945 -6.790899 106.550151
-62.325255 -6.045755 105.086167
-34.729582 -18.373109 86.744179
-61.435877 -11.584352 70.779262
-59.584052 -10.514907 71.547328
-56.245397 -14.596563 70.737422
4.045500 -17.073302 85.050894
9.393862 -15.784028 87.142186
5.374042 -25.432967 71.226143
-46.068824 -17.997480 72.029237
-17.512403 -14.678109 134.521818
-28.030724 -9.859993 128.483429
-4.301355 37.911665 30.638927
-3.112613 39.736505 28.401526
-40.401704 -19.157779 70.571366
-55.514332 -14.185409 72.426420
-50.519335 -16.980577 70.271357
-56.749581 -6.224809 111.634062
-51.481833 33.385099 97.406261
24.263898 24.110699 93.273282
-37.269233 11.928748 109.531052
-25.758760 -10.866297 130.704834
-24.246728 -19.933366 77.363534
-65.342305 -4.246401 99.324233
-24.683320 -13.202991 133.908333
-13.918030 -18.594726 139.110150
-47.353871 -2.777251 123.135347
-55.753595 21.742980 126.823553
-55.920895 -14.913487 135.460373
10.653791 36.203453 29.861889
10.932825 36.409487 30.690105
11.888894 34.317493 29.988902
-50.545785 -15.117029 71.011381
-42.064406 30.936181 53.576382
14.259779 34.711598 30.699805
15.262745 35.752971 30.922596
-3.445761 -19.690698 85.661786
16.786648 31.944908 31.820673
-70.632257 8.561606 83.802922
-40.752303 27.784695 97.143310
29.540599 25.142581 83.064511
37.073881 9.729360 80.485351
21.544466 31.387801 84.743523
25.075230 29.380886 84.533829
-58.824690 -43.350211 142.279340
-53.962846 -13.321963 77.667798
-34.603507 -17.505980 76.966186
-24.829575 -20.520184 78.319088
-53.327505 -7.872540 112.258229
-4.274374 -19.243459 87.173337
-49.770585 -6.524377 102.718781
-0.966547 -16.783768 86.621093
-53.714166 -9.808306 92.109130
-2.569386 -19.530263 86.725892
-40.670193 37.093302 28.686117
-39.371720 36.302870 29.157441
24.717253 25.061344 93.046453
22.224929 25.577340 94.436598
21.973295 23.676652 97.867469
-23.843451 4.388723 101.502918
-20.789962 2.349865 101.286313
-19.240545 42.929540 29.621511
-18.467707 43.134861 31.011309
-60.991963 -5.646732 105.352024
-17.826258 43.106372 31.049299
-15.890370 44.015619 29.389701
-15.896880 43.792151 29.181101
-42.146754 -17.758945 72.314701
-41.179229 -17.264888 71.745985
-12.612982 42.200725 29.479078
-12.841512 39.733496 29.554539
-12.286209 41.682866 31.771701
-10.290641 42.356057 30.288293
-9.281129 41.051352 30.767343
-9.293241 38.061038 31.337690
-9.050151 40.960789 31.089831
-47.139409 -17.059449 71.092720
-7.275023 39.099482 30.281859
-5.581481 39.669179 31.335741
-6.075546 40.533748 30.653604
-4.522629 39.534041 31.151040
-3.013911 38.868964 31.066460
-2.703058 38.733944 31.040023
-1.531823 39.063739 31.185838
-0.169514 37.727777 32.003051
-52.033395 38.595325 98.755568
-48.264472 29.291160 111.431402
33.076708 19.107388 83.614883
1.024693 36.988548 32.980393
1.536596 37.312276 31.478734
4.380710 36.454493 32.187211
4.201844 36.556770 31.143340
4.994354 36.694892 29.988850
4.262835 -17.495429 86.314732
7.644590 37.213962 32.547358
9.208909 36.241362 31.991678
8.383026 36.501510 32.458187
11.427625 34.823539 32.031693
10.818389 35.620190 32.215938
12.584231 35.673316 33.037292
12.654788 36.063163 31.271429
14.363120 34.939254 32.171003
14.597435 35.213631 32.075948
16.610687 33.996120 32.545254
15.318185 34.206637 31.362054
16.077669 34.260861 31.765266
38.191012 3.602691 74.714751
-17.524411 -11.292009 135.656901
-41.102607 29.311930 100.729535
-13.936983 -13.546357 149.468099
-18.719397 -8.063130 149.011561
26.757555 30.836511 82.421208
24.258773 30.056662 82.145105
-51.221619 -23.991697 124.485278
24.194139 36.363331 75.608460
-36.221212 -18.188914 76.996115
-36.714096 -18.491606 77.997921
-43.259195 -18.206949 76.361196
-43.131421 -19.244211 77.021145
-49.448973 -17.033351 76.672562
-48.873667 -16.287294 75.523651
-51.065442 -16.607665 77.232997
-40.182343 8.536156 124.947861
1.727246 37.975624 30.463607
-70.663586 0.502581 82.959988
-47.589396 30.879982 106.109327
-62.746456 -3.814601 102.843214
-64.461638 34.838751 88.589157
-44.217767 -18.351397 77.946946
-53.553461 -8.092245 97.654610
-46.403022 -18.195395 78.067011
-40.322668 24.560285 98.010740
-49.589711 29.987919 121.618418
-12.900731 -17.636265 150.139878
-39.528509 24.751718 103.460141
-44.444230 31.162047 101.928547
0.545152 19.558754 107.105496
-9.016736 16.384994 104.459212
26.107666 25.152643 92.272902
-27.339141 -11.296831 132.036128
-44.088396 38.563549 30.204718
-43.349784 37.409019 28.704459
-40.651931 39.110557 28.720528
-40.539523 36.524423 28.766636
-39.122721 37.285967 30.402055
-39.187694 38.030322 28.919824
-39.381297 38.434021 29.991335
-37.633025 36.302515 30.673045
-37.884447 36.880082 28.618655
-36.451887 35.300611 29.734358
-34.779473 36.903651 30.748166
-35.195057 10.378980 105.031947
-2.559171 -26.172459 79.355001
-54.272921 5.381929 126.235436
22.992946 26.126678 95.222935
-32.498339 -19.039584 77.013937
-24.827503 3.109959 101.970491
-23.468673 2.781276 101.183151
25.451602 21.810836 96.228278
-53.795442 -16.599225 135.117179
-19.308731 43.901385 30.578721
-18.650086 44.022688 31.324947
-17.035399 44.064942 31.302550
-17.151326 43.815575 30.437272
-16.016465 42.397714 31.026439
-13.887737 42.716274 32.248742
-14.953959 41.366428 32.304495
-14.014840 42.545002 32.117919
-14.365283 41.150173 33.049109
-12.809245 41.356968 32.560248
-11.453956 41.811573 31.340549
-9.870680 42.075726 31.239762
-9.220342 39.787077 30.961960
-9.023396 41.119345 31.280093
-10.137663 40.118256 31.904928
-8.211545 40.890307 31.463641
-6.420934 41.154316 31.503461
-5.242311 40.345502 30.652390
-5.139820 40.397936 31.893084
-4.824091 39.661603 34.840192
-3.875609 39.600870 31.711227
-2.745697 39.674462 33.163905
-1.686098 39.222943 33.337892
-1.021810 38.527658 33.729143
0.808161 38.762285 31.661965
1.614763 39.209358 32.082807
1.610549 37.743552 30.866754
2.438496 39.159678 32.416918
2.678597 36.503234 32.326016
3.387324 37.815879 32.596175
4.763450 36.808505 33.528194
5.339285 37.671426 32.015788
5.442028 37.724461 33.161057
6.963055 37.220223 30.619233
8.806157 35.773509 31.463281
7.696360 37.791477 33.929467
9.934688 37.738095 31.922173
10.417928 34.856315 33.123028
12.618754 35.910412 33.766620
13.523949 36.151678 33.866463
13.219452 36.522343 33.223786
14.497898 36.149897 32.437182
16.494576 35.640837 32.908591
16.875444 34.271019 33.886029
15.006125 33.857981 35.013085
16.911179 33.191268 34.394732
17.324665 33.347237 32.804643
18.729201 33.451824 33.276947
18.409384 31.926541 33.140925
19.801293 38.596097 76.268106
-12.763110 -17.890737 147.609021
25.255877 33.034077 78.406796
14.652460 37.545620 83.132119
-71.386827 4.114735 112.651651
21.618881 26.009024 32.847775
21.433357 25.845347 33.326187
-49.234159 -16.587759 71.957820
-61.829224 -6.029566 101.146706
-33.580677 -18.664969 76.531136
-51.556716 -15.803351 70.771312
-50.672418 -12.393711 90.098995
35.136857 0.115830 71.185741
-24.922155 -3.539422 125.180645
-73.100912 22.556636 113.104597
-44.216318 30.185499 104.416029
-46.087714 -18.201421 76.379126
-45.280813 -17.658940 77.519182
-45.471531 -16.730617 76.572934
-47.202991 -17.072601 77.634960
-51.493805 -48.817594 134.880001
0.171054 -17.591672 85.623332
-38.953586 -3.564930 122.727880
-31.304420 -16.741472 77.069820
-37.991923 -19.021450 78.938826
-40.469707 -16.399523 77.946874
23.889689 28.201395 89.018809
-61.599518 -9.177529 124.681240
-45.732320 24.536589 115.951150
-46.497971 26.461281 117.290988
-65.542615 26.846725 122.304163
-55.431429 37.629533 109.267098
-29.930969 1.586436 105.320078
-45.828951 38.068655 29.808616
-44.302788 38.436818 29.503950
-43.575190 38.543945 31.113696
-41.363171 37.513542 30.584445
-40.939625 37.634031 30.760189
-39.898276 37.550073 29.583903
-40.656277 38.773764 29.428179
-38.899209 37.582166 30.914189
-37.481185 35.817763 32.110522
-37.363768 36.742386 30.188735
-37.375846 36.722490 30.187015
-36.207052 36.000870 31.030627
-35.671346 36.281976 30.929076
-67.341515 -2.162881 84.702697
-71.975087 31.831259 112.572229
-42.046594 24.172786 109.460801
-43.072904 24.637914 108.657983
-70.758400 25.205642 90.352586
23.406628 28.296255 89.551210
25.268849 22.183207 96.290955
-68.557957 20.019401 123.513116
-21.665355 44.114651 32.672913
-18.888748 44.305622 32.966866
-18.722693 44.580723 33.238976
-18.824282 44.519058 32.123501
-18.167653 46.063729 32.917534
-14.972566 44.011499 32.396266
-14.044093 43.640707 31.986548
-14.565142 42.863447 33.070837
-12.946602 42.635992 33.878045
-13.551174 41.652108 31.822990
-12.225795 43.094964 32.623166
-11.405964 40.571917 31.271934
-11.488144 41.502412 33.485776
-9.367565 41.801553 32.811754
-9.306442 41.208312 33.683390
-8.359335 39.604971 32.216827
-6.042256 41.323098 34.071875
-5.953327 41.259675 31.762270
-5.011552 40.080542 33.452134
-4.818294 39.930958 32.783868
-3.584842 38.800063 33.507345
-3.478708 39.716101 34.110425
-2.628521 39.420368 33.767038
-2.433465 39.632922 32.998922
-0.087793 37.201816 33.397128
0.288938 37.882149 34.263541
0.511715 37.635924 33.917790
-41.457902 27.553239 101.134247
-11.666489 -13.191340 138.680921
-19.336452 -8.801507 137.402333
-45.586986 24.183853 119.368636
19.891272 38.344903 73.982276
16.911292 27.588404 97.420948
30.545707 -13.045902 68.706587
8.435584 35.168863 34.863546
9.157655 35.723473 34.166790
10.014238 37.570968 34.654646
10.257868 35.712765 34.271750
12.579443 36.108142 36.265173
13.862705 36.198894 34.796755
13.732155 36.425626 34.478801
14.851678 36.962506 35.022664
14.687327 35.948445 33.441018
14.788704 35.043839 33.212398
17.045005 33.804660 34.358438
15.912012 35.075973 34.782576
16.302837 33.808858 34.241050
18.535556 33.284039 33.820553
18.802191 32.329313 36.444663
20.019567 31.323178 34.984036
20.261233 31.822926 34.884605
21.168852 31.612772 33.591687
22.647957 34.490520 82.194816
29.990592 28.503392 78.521873
32.374280 24.639269 78.365245
21.653855 27.049829 33.611822
22.090247 25.895766 33.355402
24.362821 25.700603 34.673988
23.259535 26.109229 33.769932
24.306057 23.445575 34.824373
-52.135229 -15.660905 70.728427
-16.801974 -3.463007 128.497719
-9.041722 -16.039682 141.620910
16.649214 36.974106 80.298356
-45.324756 30.415734 105.285582
-54.957820 38.739829 96.271898
-29.339158 -20.050310 76.380981
-32.836857 -19.673151 73.931016
-44.530732 -18.274128 75.268424
-41.579993 -16.559395 73.970045
-51.673008 -15.984685 76.253818
-56.337008 -14.205403 76.856284
