ply
format ascii 1.0
element vertex 1543
property float x
property float y
property float z
end_header
40.152490 6.087133 59.042693
-40.013318 -12.731737 93.399172
25.417539 -9.268446 87.145970
-12.068136 -5.292044 100.532915
-21.823932 -5.563422 99.372697
25.438039 -5.799824 91.618248
-26.157542 -25.349924 29.005710
-55.479312 -47.382019 147.748635
6.130854 -9.071655 100.565189
38.610917 -2.207653 51.162317
-43.547649 -7.569652 99.974414
-27.638476 -9.215700 97.171718
-38.002809 -10.566382 98.114265
10.851253 -13.187651 93.731497
-9.661714 -23.561527 145.092375
-8.587023 -24.122744 145.617132
-39.785920 -18.675048 79.121494
-63.054798 19.390390 57.980472
7.023592 -13.275554 95.293833
11.473416 -14.415136 92.265681
-5.227868 -18.154403 89.443599
-27.144826 -11.968935 94.183202
-25.583200 -24.571075 34.180897
-24.597248 -24.277418 34.910499
-23.723059 -24.423563 34.411549
1.964605 -15.625567 93.217493
16.710878 -12.634321 90.281467
9.698378 -14.569063 92.185564
9.183642 -14.960601 92.569811
-28.714193 -15.285457 89.816984
-30.044011 -15.234995 89.712565
-30.989236 -15.497558 90.311762
8.148831 -15.635881 90.373781
9.940574 -15.375664 89.436992
12.600054 -14.585175 89.207543
18.339058 -12.789354 87.753015
-10.579304 -26.817027 77.942120
-31.483371 -17.533303 37.722149
-0.522437 -20.311420 80.706964
23.028541 -15.437992 79.316895
-14.560072 -10.149612 97.356948
-41.198047 -6.426260 101.424229
-18.812934 -15.864266 90.210122
-1.673934 -6.015579 102.479440
11.246328 -18.582732 82.048080
-19.627761 -12.491005 93.262419
-28.698793 -24.353668 32.599303
-18.533188 -13.672885 92.870146
-17.555108 -14.060087 93.182608
1.818607 -17.074749 88.132951
-21.396019 -23.687895 30.737769
11.067641 -12.808802 94.759013
-0.044301 -20.232768 80.849537
-52.271331 -1.391468 124.212012
-51.387874 -0.941502 124.035616
-50.757502 -0.768796 123.390838
-50.016386 -0.245626 123.354598
-49.695903 -0.241335 123.348197
-48.070046 -0.419044 123.504144
-47.217324 -0.545744 123.608712
36.719255 1.342167 55.594674
18.637024 -12.396729 88.462211
29.880601 -8.377876 81.764839
-12.955581 -26.123299 78.507273
27.825137 -10.779999 81.361379
25.055336 -12.210776 82.550717
24.090924 -12.477130 82.817942
23.744329 -13.162743 83.226119
22.515487 -13.575856 83.784483
21.319571 -13.917615 83.740313
5.797818 -16.983106 82.670820
14.652342 -17.169228 82.944217
15.384173 -15.199573 85.345986
12.114984 -15.795692 85.364757
9.093605 -5.406148 101.848807
-9.009295 -30.494624 71.779102
2.185420 -16.722170 86.540900
-3.528280 -18.367847 88.057852
-3.812665 -18.249362 88.307867
37.717458 5.935534 60.701287
11.222251 -18.644475 80.942726
-8.546267 -29.956629 72.598679
38.478917 4.891823 59.566127
-1.140078 -9.364079 99.354267
-0.154834 -11.282019 97.631441
2.582512 -13.121780 96.651167
9.659268 -13.399652 94.298284
-12.524198 -14.729959 92.374782
-4.917469 -18.899991 82.346045
-31.072087 -18.349962 80.576264
24.289875 -7.843064 90.663095
0.778741 -20.119958 80.520776
1.446973 -20.183240 80.530092
-3.888274 -18.219822 89.288165
16.287553 -20.745119 73.338808
2.502483 -20.052739 80.728524
-32.230080 -22.611264 32.665057
1.822213 -15.021735 94.384014
-30.093588 -23.152481 33.952588
-29.514597 -23.673428 33.917744
-28.188693 -24.020563 33.951546
-27.181662 -23.860456 34.195886
-26.236575 -24.151863 34.202476
3.345689 -19.589738 80.220231
3.891186 -17.313924 85.634548
-30.257927 -10.458290 39.786326
-31.116463 -10.510522 39.463885
-31.577222 -10.709233 39.310209
-33.531654 -10.240498 39.333973
-34.211616 -10.343053 38.481293
-30.081422 -14.329880 92.011703
-24.755017 -13.493044 93.037246
-25.701109 -13.877489 93.181401
6.161036 -14.683702 93.824413
9.602693 -13.719493 93.349844
-17.495016 -14.730125 92.213977
0.181117 -14.591446 95.217171
-21.588869 -16.765708 88.517673
24.070538 -11.471246 86.176975
44.061527 -0.099287 53.197023
-8.695484 -13.617661 93.110226
-4.352045 -18.295545 89.247447
25.372273 -13.727088 77.725225
3.998027 -19.747124 80.225077
-25.825865 -9.095995 96.918009
-48.310913 -9.596589 95.925867
23.953220 -9.295741 88.702589
-19.027586 -15.433760 91.275377
8.780431 -15.280491 91.665636
-5.898260 -15.032580 93.021788
4.761739 -19.494413 80.083377
5.862127 -19.484189 79.933378
8.269152 -14.315622 93.168764
17.956306 -13.790349 86.768647
-45.219860 -8.994991 98.080057
-10.438146 -14.224436 92.754231
6.397830 -19.493185 79.920511
-51.141313 -1.952180 122.910154
-51.265987 -1.169084 122.353361
-49.854692 -1.174455 122.180991
-49.559987 -1.122586 122.244417
-48.721875 -0.429117 122.066978
-47.602630 -1.057830 122.353730
-46.390564 -1.367566 122.650573
17.917456 -11.993865 88.131682
26.773821 -14.625063 73.008109
-11.146746 -29.307831 75.506495
17.518823 -1.908344 100.275543
-7.129880 -19.774634 83.906344
-5.698812 -18.854357 84.084567
-1.885160 -18.495353 84.080635
38.625544 -0.978150 53.048242
3.331504 -17.722376 82.780143
6.773233 -17.224729 82.609887
15.308124 -17.586546 82.999198
16.873371 -17.467328 82.618735
18.538408 -16.716382 82.077609
21.258084 -15.310697 81.207706
25.944107 -12.791190 78.113747
29.443889 -10.409009 76.620435
32.544368 -8.479262 74.676592
-13.395843 -15.491272 91.665026
38.235592 6.660059 59.666381
9.515847 -18.778346 80.588576
-7.898421 -29.964779 72.649077
-25.317354 -21.337454 37.935855
24.753204 -16.332036 72.265118
-0.949793 -10.857870 97.378431
-51.269016 24.757380 52.930231
-50.730889 28.334497 55.304732
-12.107952 -4.722471 101.660491
7.490311 -19.416605 80.428824
-20.432323 -16.977451 88.515756
-8.162274 -14.079139 93.349309
11.350443 -21.160909 76.865138
-0.779454 -13.116370 95.915394
8.066182 -19.300734 79.690977
17.873088 -12.118269 89.611968
18.790583 -11.762550 89.511191
19.779527 -11.705445 89.173132
20.364776 -11.651553 89.172252
-15.470183 -16.053547 90.558539
-15.986033 -16.168999 90.602242
19.276150 -13.913372 85.464229
18.105702 -14.358999 85.788148
18.330334 -9.816813 93.935178
19.179854 -9.924121 93.157500
-32.189189 -12.934303 93.818524
26.517658 -6.956107 89.622028
27.087192 -6.493657 89.183399
-31.232706 -12.967740 94.001429
-12.706166 -26.620156 77.212986
46.434374 1.604068 52.694715
9.929830 -20.804318 77.964068
-1.317930 -19.489385 81.427028
16.815977 -9.838609 95.044724
16.467092 -9.935106 95.331319
26.386060 -4.281058 91.951837
25.537165 -5.094852 92.063252
-1.838009 -13.786329 94.834058
-2.762281 -13.704414 94.312469
7.645431 -23.308375 77.247154
-19.560382 -18.438736 86.226700
-43.803037 -9.350544 29.687326
-30.516892 -17.866234 38.002167
8.689529 -19.109402 79.717767
-2.959292 -18.110691 88.859681
-1.368808 -17.512551 87.765801
24.735265 -13.741820 78.882007
22.098566 -17.248231 51.350006
9.920798 -19.311168 79.419095
-9.497394 -20.959349 29.635343
16.797291 -13.317202 86.751130
21.046776 -12.197733 86.924041
20.137595 -10.189597 90.870171
2.812899 -9.470860 99.591115
9.086770 -13.910508 93.005771
14.810983 -14.096147 87.406153
-25.552753 -11.768312 93.955014
-7.889676 -25.078409 78.805309
10.259031 -19.197097 79.212983
-51.369058 -2.942984 122.667387
-50.565912 -1.881316 122.136748
-50.141104 -1.811039 121.190688
-49.506825 -1.720140 121.188819
-48.850594 -0.971557 121.242436
-47.817537 -1.317747 121.189626
-46.909960 -1.523111 121.314656
17.397546 -12.604075 88.813889
-1.026334 -25.703345 78.202260
5.590181 -18.223534 80.868956
-10.088361 -19.070614 84.033790
-5.995882 -19.132657 84.272764
-4.963342 -18.788224 84.260584
-0.465219 -18.459250 83.895698
2.648949 -17.797663 82.982170
4.984300 -17.427500 82.756316
-7.425887 -14.051634 93.345320
16.365633 -17.365651 82.577422
17.459832 -16.672683 82.176769
3.372572 -7.010225 101.763408
4.890241 -7.002691 101.842804
8.267280 -22.890389 76.971095
-51.178455 -8.688972 95.181697
-4.944487 -7.201155 102.161031
-3.753000 -7.287589 101.879009
-18.228885 -5.204366 100.059606
-43.813754 -13.397090 91.929273
11.410844 -18.765958 79.539247
-29.640217 -21.904508 35.619259
-42.044059 -13.766926 91.623988
-35.230301 -14.330855 90.422306
-2.935114 -9.907728 98.789741
-28.660892 -23.170245 34.984998
12.161609 -18.925591 79.726962
13.189649 -19.085534 79.400613
-13.035801 -4.209107 101.301235
-30.657337 -6.137421 101.260216
-46.610685 -13.286453 92.050795
-45.334311 -13.173292 92.593056
8.336819 -21.114765 78.130239
-11.918163 -27.310225 77.393424
0.427445 -22.849731 79.502101
14.094247 -22.210894 72.010477
-21.816279 -11.300045 95.506070
-20.418467 -11.392495 95.323167
16.996406 -10.244351 94.429175
17.879629 -10.313265 93.749210
-23.581269 -23.589960 35.874946
4.841794 -14.114032 95.381019
5.212695 -17.900757 81.860001
-0.859864 -18.708537 82.128963
-5.631039 -19.165426 82.807996
-10.684183 -19.601871 83.083516
3.634700 -12.117653 97.131329
20.238931 -6.807788 95.260282
6.907196 -7.809809 101.043074
-27.999790 -22.650196 36.108413
23.522528 -8.158059 90.719980
-20.564195 -17.603473 87.294567
-24.074782 -14.518128 90.943067
-5.438646 -14.271001 93.117706
25.011685 -5.209107 92.591075
23.904254 -5.303466 93.085631
10.184598 -12.647854 95.482872
-45.238537 -6.757886 35.216063
-23.082399 -16.973106 88.214677
16.228991 -16.185102 84.261172
13.435923 -16.604838 85.245885
-48.771884 -8.554588 28.389427
-13.551431 -22.034966 29.149057
-5.386550 -13.607118 94.449163
-8.387733 -12.997464 95.274395
-47.404539 -7.887749 31.409494
-51.611448 -6.240859 30.156692
-27.396162 -6.811952 99.009090
20.635200 -18.840537 52.658181
12.148317 -10.038236 97.171971
14.796149 -10.644046 96.028265
10.088020 -12.193258 96.222389
25.193975 -7.928528 90.374395
-19.353747 -26.966700 75.862096
-9.900750 -20.778266 28.377151
-38.888142 -12.784198 93.920556
32.151767 -1.302281 84.548251
26.713179 -6.209540 90.511067
-5.290016 -25.982573 79.024470
1.050599 -25.323220 77.959479
-15.081686 -4.147269 100.888136
-50.690323 -3.475927 121.395588
-50.171954 -2.668334 120.714675
-49.843329 -1.998583 120.355523
-48.765010 -1.692729 120.185009
-47.873947 -1.804846 120.040423
-47.351765 -1.450244 119.678297
16.572757 -13.033741 89.137679
27.960762 -14.750261 72.640723
42.927756 -1.859811 51.294295
-10.049646 -19.436174 84.137587
-17.654022 -12.735971 93.958309
-50.283335 -50.009428 141.448086
-1.380787 -18.460378 83.904466
-46.305692 -11.630705 94.250751
3.969613 -17.873771 82.483511
7.445812 -17.567208 82.358675
11.774984 -21.930011 76.370586
26.808507 -12.609401 76.639013
-10.714840 -9.163957 98.132786
38.167480 5.041221 60.320068
-18.711314 -8.766604 97.398944
-15.508987 -4.251117 100.603640
-3.748257 -13.604416 94.307680
-18.395655 -12.389083 94.062050
8.841463 -13.280954 93.948678
-49.023775 -6.597966 33.554588
-12.414878 -19.088674 83.969228
2.729009 -17.369242 86.034549
-16.396266 -3.827370 100.502651
-22.435327 -10.216617 96.342416
17.569672 -2.876435 99.764804
6.705696 -21.384140 79.163609
0.990824 -17.086323 88.085304
-15.741732 -21.991419 79.192704
39.785549 0.244505 55.230970
-4.509253 -13.102084 95.507737
-47.321064 -9.017990 96.560263
-41.746939 -10.099490 97.589645
27.485052 -10.522208 83.381343
26.982563 -10.953790 83.572353
-35.570272 -11.031392 97.987583
24.641743 -15.849371 73.587478
28.303057 -10.037861 82.983628
-45.866164 -6.169046 100.506490
-15.189801 -10.926183 96.217930
8.484438 -13.197267 95.038844
-33.568275 -13.586755 92.767219
-40.912048 -13.498331 92.883076
-41.595554 -13.920510 92.414116
-43.233741 -13.471487 92.898288
-43.123557 -13.495729 92.883648
-26.892092 -5.820826 99.396768
8.844944 -7.703929 100.524322
-42.683208 -6.040494 101.545260
-10.680975 -31.103925 72.202177
-1.083579 -8.491515 99.835748
-4.621067 -22.707485 79.853466
32.018294 0.712412 85.921823
-5.784824 -22.784687 79.793400
19.500246 -8.731708 94.320805
16.918847 -18.167622 78.777634
17.559483 -17.947962 78.599120
1.201104 -24.213113 77.949843
44.548392 1.517562 55.718753
8.477583 -16.593660 85.159167
23.216869 -17.180511 71.943418
18.741496 -17.806972 77.899272
19.431486 -17.431482 78.193141
16.712340 -3.404293 99.853733
-50.458763 -1.528142 37.324629
20.088191 -16.727656 77.436937
22.594000 -3.081992 96.531607
7.598781 -13.489766 94.405072
20.693242 -16.953704 77.530816
-26.625100 -8.995234 97.437369
-13.692391 -6.872506 99.125978
32.824766 -6.565186 75.724207
3.751101 -14.411075 94.637554
22.435474 -6.403725 93.392012
21.697576 -6.586011 93.521906
-46.414162 -6.571941 35.133891
-47.012663 -5.658845 34.429751
-47.950904 -5.611919 34.463207
13.083422 -16.482420 84.618557
10.893929 -16.384100 84.717914
-2.971282 -14.657563 92.752798
12.139462 -20.460547 76.511702
-30.195856 -15.163591 38.648122
21.916499 -16.632775 77.266205
-24.558408 -24.317498 31.277211
-51.706699 -6.472866 28.822655
-38.157194 -11.280804 97.035423
-38.780354 -11.290411 97.289963
22.772547 -16.438158 77.415403
9.772373 -11.431146 97.625711
13.713657 -9.774169 96.878278
22.973434 -15.782966 77.009055
22.623488 -4.192160 95.637175
-32.909059 -22.965346 29.958842
21.839979 -10.437542 89.957169
-2.774599 -14.214339 93.883105
31.266742 -1.545094 84.779123
-4.768917 -13.749623 94.670927
-49.290377 -7.382541 31.780628
-0.158609 -22.603175 79.880786
-0.900257 -11.835700 97.188604
20.088262 -9.262912 93.103728
23.680428 -15.606330 76.235222
-50.143565 -3.266493 119.621021
-49.560088 -2.692387 119.221567
-49.353561 -2.064175 119.146911
-48.387185 -1.878584 118.669173
-47.701278 -1.639411 118.322825
15.211025 -13.193230 89.205000
28.834485 -13.838114 71.699280
4.502580 -18.785054 80.534558
27.907985 -10.397984 80.523149
-15.502709 -18.220222 86.524798
24.462952 -15.421432 75.739597
25.113551 -15.273138 75.994019
-26.943150 -21.803759 37.387234
-11.357772 -16.207234 90.357956
21.067073 -13.884622 85.233045
4.981806 -6.022018 102.218472
-13.363352 -16.000181 90.587867
26.439264 -10.741241 82.390617
-30.519428 -12.463865 39.520004
-31.750476 -11.666997 38.672519
25.938472 -14.908413 75.785997
-44.100475 -8.958167 97.722103
-45.302379 -7.334023 33.988932
-46.382664 -7.135050 33.835589
-49.842106 -6.105290 32.940114
26.641378 -14.599767 75.445066
-47.656021 -10.257296 95.879684
-4.274494 -19.033319 82.157163
-29.254072 -22.392564 35.699017
-27.163928 -22.831722 36.561764
-23.472991 -23.047156 36.413419
-9.449318 -16.081563 90.517653
27.168128 -14.028624 74.662260
19.148274 -20.472447 49.216808
18.685997 -20.893199 49.703247
3.067411 -18.431288 81.839061
-33.604529 -11.583163 37.995090
9.496870 -10.636084 98.967216
-30.910543 -22.299761 34.581143
-27.630769 -15.414774 89.763114
-44.583041 -8.200474 98.878029
7.308938 -17.969939 81.624965
-23.097041 -20.583989 76.172573
-21.943843 -20.722720 76.342975
-21.599277 -21.540756 76.731212
-20.243602 -21.540859 77.365805
11.307878 -5.314953 101.497746
29.860555 -8.757360 80.778345
-19.348368 -22.280971 77.749797
-26.133061 -15.972576 87.778131
-3.527141 -8.917488 100.279919
-31.516443 -13.626654 92.762818
-32.315807 -13.044580 92.966649
-46.374242 -12.232721 93.476906
-47.538213 -11.727826 93.279877
-49.312025 -11.428143 92.589554
-31.071937 -7.681719 100.822554
-30.764229 -7.108303 100.303727
8.640016 -11.883566 97.476391
7.609844 -11.940743 97.721624
0.460892 -27.842230 74.465146
43.648310 5.682794 58.873350
-3.060204 -8.125883 101.191905
-3.111734 -28.847419 74.721663
27.721638 -13.948961 74.641586
28.575462 -13.106150 74.036842
3.084277 -24.414945 78.228666
-10.239537 -27.879568 77.278360
-9.327515 -27.820984 77.405920
-49.868471 -50.573219 139.979407
16.632161 -4.579537 99.169923
15.421798 -5.113776 99.686331
15.806473 -4.678733 99.643414
17.787147 -4.197309 98.922670
14.846559 -5.268726 100.058765
13.568263 -5.305100 100.142177
-18.991977 -6.224207 99.399653
-17.112749 -6.120207 100.249885
-15.998466 -6.161999 100.010112
-15.395416 -6.318690 99.994939
-3.958557 -8.388195 101.506388
-5.143619 -7.681196 101.563764
-6.898091 -7.224245 101.022549
-12.908677 -7.062008 99.060973
-5.971868 -29.219117 74.700499
29.585627 -12.400318 73.689623
29.809291 -12.423130 73.120848
23.720080 -6.040016 93.362927
27.074594 -3.960897 91.309299
27.342766 -3.565626 90.980331
-48.861542 -5.777905 34.425576
-49.539198 -5.349719 34.149639
-11.074160 -4.759971 101.602788
28.896643 -11.451969 75.361426
2.060498 -17.461005 85.460991
-18.099206 -22.426035 78.129301
18.258024 -11.660311 90.306206
15.831247 -18.125799 81.755853
30.724684 -11.630158 73.106115
-14.425138 -21.958242 79.109659
29.163502 -13.983674 70.347593
27.250975 -14.968674 71.258799
7.823941 -23.954471 76.419351
40.630311 0.436052 54.838112
2.783654 -16.160129 92.464406
-39.604937 -9.788210 98.661354
8.543708 -11.124173 97.869024
-33.891126 -8.708498 100.530902
-25.808591 -3.334012 100.460411
21.615944 -2.962799 96.678040
-41.224353 -9.182355 31.351773
21.095953 -10.591091 90.023494
-30.048460 -23.002559 34.886924
25.391781 -7.037508 90.957408
-17.135994 -22.919252 78.217566
-64.639740 23.099871 62.118647
-23.148901 -14.351246 90.606534
-49.164518 -11.204468 93.557261
35.419491 -4.045151 48.115130
31.046747 -10.995829 72.436562
-5.292969 -6.300872 102.574274
2.426155 -14.869805 95.357288
-49.279280 -2.977896 117.974353
-48.411238 -2.578003 117.109465
-47.793378 -1.666413 117.187933
-47.065516 -1.714552 117.118993
19.411216 -19.454574 72.124714
-12.196136 -17.170821 88.338626
-27.902233 -25.289642 29.958720
-12.515249 -16.962756 88.564912
-6.997750 -23.001294 80.124948
-38.058245 -14.849128 89.734422
-36.463567 -14.732016 89.599003
-25.689836 -14.939121 89.850696
7.410909 -15.125696 92.728976
-7.370142 -16.983992 91.292119
35.874002 -0.078788 56.448965
28.204528 -14.961903 69.172918
29.211926 -7.738289 84.452628
20.948582 -19.324167 49.258549
-31.415642 -11.881967 94.771917
13.945778 -15.946090 86.059660
2.054496 -13.615518 96.099050
-25.808774 -22.820280 36.746771
-20.509981 -13.713582 91.877146
-7.841677 -19.455056 84.333798
13.430427 -17.922066 83.130818
-43.237839 -9.629417 97.970575
10.097768 -15.196933 89.569283
-11.149678 -25.707827 78.523317
-14.930703 -24.346479 78.259373
24.869996 -1.449991 95.325606
-45.138954 -5.707483 36.366814
17.046817 -21.064772 70.705599
-25.684593 -14.590599 90.642936
25.307827 -8.149545 88.987662
24.450628 -8.893505 89.821847
7.567917 -13.457526 95.357912
6.148594 -13.350334 95.277508
-42.776334 -11.692159 95.576882
-8.411832 -17.793275 89.237114
41.634109 6.342489 58.800522
37.447079 0.131455 54.779271
-25.645421 -25.069365 28.369327
25.653156 -15.857899 72.079728
-28.040574 -9.651199 96.886122
19.004594 -10.687220 90.191516
-12.350074 -17.959950 87.332971
-24.957527 -16.600188 87.931075
13.876179 -18.195837 83.148752
-30.355555 -13.735661 92.385563
-36.988926 -12.645197 94.246313
-48.511543 -11.688080 93.366846
-8.808614 -31.243307 69.245578
5.100138 -26.272041 75.538391
3.201552 -24.885638 77.712617
6.929531 -24.062571 76.722211
-11.214200 -9.149343 98.437703
-38.221412 33.533752 57.989347
-37.546517 -15.205758 28.797022
6.516234 -17.763473 81.903189
-37.392727 -7.958365 100.997373
-36.278978 -7.901768 101.352392
-35.515274 -8.086301 101.172908
-2.737671 -8.322131 100.132173
-5.102010 -27.480381 76.762238
10.073338 -6.268769 101.398046
-53.242124 -48.059532 147.181636
-49.462053 -50.176771 139.560513
-11.627759 -15.274252 91.025411
-20.400115 -23.738464 29.259793
-16.200058 -22.988382 78.372260
-15.072038 -22.855034 78.720330
-14.398158 -23.131336 78.453780
-13.283586 -23.103398 78.928826
-12.617438 -23.999147 78.967011
-11.598943 -23.542597 78.890413
-15.208316 -17.707101 88.333481
10.735816 -14.537422 91.915092
12.036104 -17.113434 84.196994
12.817236 -16.913279 84.171001
11.822514 -18.527842 82.063792
-5.221091 -13.194714 95.406557
-6.045556 -8.182910 100.899931
-7.996188 -7.552781 100.806524
-17.945425 -23.799662 77.873837
-19.005646 -23.636872 77.544302
-9.883008 -9.795783 98.264224
-19.965928 -5.658330 99.989121
-18.393729 -28.732891 74.657210
8.026882 -11.234039 98.126395
7.215503 -11.544775 98.598645
-50.764288 -5.116576 34.024132
-52.200695 -4.757378 33.642221
-29.311119 -5.885752 100.883883
-29.278816 -24.334014 31.151479
-12.823997 -17.720340 87.279825
1.753145 -18.840863 82.010280
9.893798 -17.480735 29.042310
-11.061530 -23.550428 79.464117
-8.982074 -6.577589 101.457855
18.951625 -17.133927 80.328599
-28.964044 -8.875735 97.338917
-27.973457 -8.925236 97.827613
-13.559294 -22.043155 79.315956
-25.074636 -7.385344 98.165603
-24.064976 -7.668052 98.063953
5.950923 -24.647838 76.665047
17.046427 -18.928995 74.876923
-22.292844 -16.712197 88.171178
-6.111845 -11.048516 98.168942
-31.409621 -8.514975 99.865705
-32.230381 -8.286096 100.064668
-32.604602 -8.440500 100.607276
-56.105165 -47.405624 146.811172
-13.995903 -19.662797 82.580435
41.833372 -2.537365 51.120127
6.798345 -25.391404 74.824473
-3.617497 -15.340605 92.520629
20.176621 -18.884285 73.169833
-40.569802 -11.115141 28.066581
-29.238445 -20.530825 37.285445
11.756657 -14.677868 89.329659
-2.081913 -16.622022 91.100075
-14.523196 -17.388348 88.186797
20.499407 -6.434083 95.137521
-19.436154 -14.080527 92.060503
-49.190799 -3.152891 117.219186
-48.862242 -2.804554 116.714760
-47.784789 -2.605349 115.987369
-46.880171 -1.893067 115.928739
-46.146791 -2.180651 115.830350
-45.711366 -1.933078 115.608957
14.755718 -13.365953 89.465797
-50.317687 -10.895743 93.186877
-0.236815 -25.645372 77.904217
31.573723 -4.924715 83.568319
-4.968522 -25.054174 79.130617
25.833876 -1.273315 94.559466
28.416504 -7.705945 85.865826
20.469070 -19.188715 51.733895
6.229331 -9.790195 99.920476
4.592490 -9.629963 99.409929
-3.719365 -26.384246 77.270243
27.252589 -8.071286 86.281928
5.155095 -9.742757 99.853277
6.812598 -9.993620 99.427106
8.100833 -9.616778 99.685596
8.698972 -9.591380 99.239585
9.714726 -9.503713 99.298936
-29.757443 -14.861996 91.118058
-43.192349 -8.253032 99.231760
12.791886 -18.039511 81.663838
-51.968184 -4.438903 34.560450
-50.949372 -4.664573 34.620079
-48.446451 -5.227471 35.751375
-46.146908 -5.779284 36.384051
15.830598 -6.645868 98.214081
16.903583 -6.063894 97.871498
-0.898349 -14.307363 95.075419
1.092984 -14.258700 94.836862
7.635155 -14.255089 93.493446
6.928090 -14.803541 93.425423
-23.109489 -13.318287 92.717270
37.523594 2.691576 59.026308
-41.800582 -11.821830 95.937060
-13.595220 -26.572291 77.498295
12.321052 -11.385116 95.216069
-10.202280 -30.685382 71.740581
13.845473 -4.172403 100.506971
-46.883841 -4.790010 35.543237
-11.486750 -12.841181 95.124291
-10.527555 -12.870693 95.425861
-52.874800 0.550362 36.820179
3.591568 -15.645959 93.130629
-44.837947 -13.242181 92.567818
27.299192 -2.429949 91.497456
-7.715683 -31.452671 68.851034
-35.428926 -10.261997 99.195827
-25.722759 -24.907139 31.886785
-49.830288 -7.301383 29.166890
22.580380 -17.801636 73.327388
-23.191943 -20.093928 77.398505
-39.843406 -7.373369 101.201019
-38.798622 -7.364153 101.392540
-37.868892 -7.787799 101.422531
42.532883 -2.464330 49.779289
43.274813 -2.166445 49.250354
44.012804 -1.771067 49.271299
44.320329 -1.481572 48.595528
38.245436 3.525389 58.267865
38.752034 3.953834 58.160230
-19.684513 -8.965349 97.737128
26.984629 -4.998789 90.780101
-1.684229 -27.967906 75.805440
-2.897107 -28.113833 75.451616
-3.548824 -28.208738 75.931286
-4.453144 -28.408692 75.701817
-5.173605 -28.187684 75.813775
-6.023277 -28.256325 76.089959
-6.526663 -28.231150 76.110356
-7.697508 -28.636470 75.539323
-8.390311 -28.411503 76.037790
-9.635907 -28.899680 76.041983
-10.246549 -28.507434 76.175226
-11.061130 -28.560046 76.430837
-12.015763 -28.361146 75.557742
-12.893689 -28.543393 76.339765
-15.053963 -13.356122 93.947438
-48.165138 -7.150993 99.573655
-10.800429 -6.497532 100.071779
11.277817 -6.341053 101.107209
-11.446164 -24.643907 78.665988
-12.460957 -24.588867 78.918615
-13.730242 -29.273394 75.336870
-31.387743 -24.452771 29.226484
-33.055278 -23.502228 28.482176
6.512610 -11.202272 98.528105
-38.211698 -10.215802 99.254597
-36.914719 -10.052526 99.472543
39.501471 3.768022 58.064626
-9.773370 -23.876210 79.794583
-8.420469 -23.549508 79.813275
-18.519502 -14.283246 92.504735
-32.345295 -23.033080 31.308808
-29.568389 -23.957219 32.376276
23.072703 -11.567313 85.980695
-11.749001 -29.460187 75.204296
-21.319024 -13.107155 92.583226
11.911555 -4.629888 101.222645
-4.514036 -6.309028 102.291091
0.122282 -10.915350 98.019785
-31.850225 -9.161677 99.628056
-25.589217 -7.782094 98.211104
0.663783 -7.797050 100.877903
1.762494 -7.693491 101.233573
-27.063583 -24.852846 31.576494
-13.966570 -30.275482 72.664015
-14.786389 -30.548436 73.203327
40.197565 3.875984 57.530741
40.899491 4.266722 57.741446
-34.673292 -8.543940 100.435151
41.797729 3.412135 57.768886
43.263931 3.767624 57.884988
-51.370782 0.130974 36.769491
-0.073096 -8.364851 100.058151
23.435922 -10.519382 88.045361
43.652193 4.049432 57.717898
-7.976134 -24.058500 79.552986
-12.174569 -9.991280 97.174598
21.378133 -14.478643 82.776988
-7.064379 -23.634579 79.794295
-28.587758 -16.383965 88.130575
14.609643 -8.457042 97.202930
44.460544 3.944139 57.929840
-49.257579 -3.935257 115.929470
-48.981608 -3.518501 115.485671
-47.702709 -3.590211 115.479745
-47.224091 -2.973076 115.191313
-46.123780 -2.731850 114.967325
-45.814548 -2.461938 114.831142
-44.967612 -2.294415 114.288654
-71.008564 19.065420 90.900643
-74.032969 16.770448 92.865306
28.906965 -7.474053 85.675147
-9.792354 -14.591523 92.084354
45.249512 3.988767 57.607939
-35.570731 -6.627248 101.988348
46.204128 4.278667 57.074765
46.928446 4.728515 57.045789
47.285575 5.218946 56.931122
-39.201537 3.979064 109.168423
-23.193890 -12.862653 93.546277
-30.233542 -8.788684 99.185152
-33.076108 -12.504597 94.577235
-14.840571 -26.500557 77.108119
21.949010 -5.517372 94.682669
-9.148142 -31.220998 70.685306
-8.763308 -31.218204 70.469267
14.411229 -14.715878 86.215322
-48.027441 -7.368977 98.360335
-48.958287 -7.400296 98.206709
-27.907562 -8.350571 97.354092
14.852063 -6.833578 98.758497
13.197349 -7.203753 99.676785
21.490446 -18.692758 70.227601
0.587672 -25.189299 77.737675
15.240348 -6.598136 98.542355
13.713089 -7.200002 98.945830
11.562940 -8.156078 99.679842
23.800694 -7.307879 91.619622
12.452563 -7.645152 99.105074
-1.861066 -14.605438 93.846543
10.660104 -22.219982 76.722275
-31.254925 -9.357722 99.428366
-13.769370 -16.073905 90.515240
-16.817086 -16.028826 90.741335
-17.912148 -16.110359 90.262589
22.078921 -10.279387 88.455173
21.399622 -11.345136 88.770379
-0.156093 -15.082746 93.189603
1.325797 -15.533735 93.441932
-27.739752 -19.414877 38.330055
31.217870 -9.787969 74.019167
21.077928 -18.070124 74.023125
6.303898 -15.845791 91.728095
-33.685687 -10.715823 98.019248
23.162168 -18.195155 63.307004
22.259021 -19.277449 63.638027
-40.718926 -7.332363 101.240157
21.166615 -19.891681 64.975897
40.392541 -3.103075 50.439815
40.978491 -2.993168 50.128675
42.185191 -3.159405 50.342045
4.590328 -26.503103 74.188986
10.558840 -6.263332 100.826438
2.716455 -26.817850 74.621931
1.733281 -27.148297 74.299906
0.827310 -27.342711 74.921625
0.387983 -27.411325 74.973018
-0.407945 -27.360628 75.275930
-1.214777 -27.437073 75.056330
36.890641 -1.477332 52.125593
37.629414 -1.301008 52.075346
38.598002 -1.552176 52.303799
39.529492 -1.888861 52.253001
40.539170 -1.594012 52.131069
40.765588 -1.740344 51.867052
42.047973 -1.409225 51.824184
42.746066 -1.579136 51.678200
43.766605 -0.934911 51.854273
44.034407 -0.448637 51.481720
44.808734 -0.415113 51.251300
45.418022 0.108488 50.390249
4.194591 -10.980229 98.366539
14.319787 -14.010454 88.622272
-13.732860 -28.837636 75.565450
-14.933291 -28.350700 75.964720
-35.837637 -8.721609 100.622009
11.507063 -7.060384 100.353277
-0.608533 -28.626253 72.986164
-1.211769 -28.583502 72.978382
-2.096072 -28.915262 73.247319
-1.692681 -8.332452 100.238935
-8.790609 -20.889440 29.468631
-8.188373 -20.503131 27.811998
-33.155394 -12.692883 37.954966
-24.348784 -23.854114 27.853491
-30.421583 -9.531419 98.140471
-29.994844 -8.929774 97.940096
-47.962996 -8.000675 97.015742
-49.230573 -7.996948 97.245687
-42.840470 -9.577659 98.568342
-32.579163 -12.369432 94.562130
15.548791 -10.373680 94.971496
17.795937 -19.969260 73.034527
-23.874662 -24.466136 32.796391
-6.240128 -24.051627 79.567614
3.867832 -26.443211 75.508203
-6.989514 -17.931245 88.930993
-17.959107 -17.601826 88.793124
-10.805216 -10.598342 98.029261
18.015431 -17.800026 80.971482
-10.330455 -18.017698 87.411860
1.799942 -10.954043 98.062700
-23.152076 -7.821743 98.300671
1.252828 -7.590403 101.264650
4.181577 -7.867082 101.180240
-11.208717 -30.551631 73.362758
-10.443889 -30.944583 73.363903
-12.828481 -30.798806 72.862998
12.784018 -23.796657 70.079578
13.887458 -23.802412 69.892048
32.149687 -9.796199 73.694227
-35.544086 -5.557116 102.613500
28.391988 -9.505953 81.459794
-46.434485 -8.596210 97.831392
43.958021 -1.612706 50.507706
-31.842949 -9.899257 39.387313
-29.592226 -14.013757 39.188232
-30.362522 -13.714743 39.062627
14.061531 -8.728431 97.355267
-27.977141 -20.786944 37.658223
16.415114 -18.033258 81.319339
-48.146106 -11.291395 93.981689
1.372170 -18.147435 84.614775
15.837581 -20.305464 74.470211
-20.641269 -19.159458 81.303912
-49.037145 -4.218494 114.950731
-48.957073 -3.880634 114.440177
-47.879959 -3.744987 114.551141
-47.232635 -3.662324 114.450650
-46.294596 -3.324518 114.061760
-45.457687 -3.144500 113.616621
-45.128368 -2.499795 113.145416
-44.631846 -1.741446 112.855217
-43.925326 -1.409093 112.420102
-43.228413 -1.084963 112.455177
-19.926857 -19.440677 81.400768
-57.512106 26.647932 57.289214
-18.910592 -19.729713 81.919358
-40.949224 0.505315 110.186249
-70.852511 35.542503 92.285085
-39.872660 2.734242 108.749226
-38.959666 3.262556 108.392328
-38.367426 3.799515 107.667312
-37.611046 4.429456 107.150876
-2.782984 -9.577576 99.199977
42.488570 -3.094751 48.678822
41.746726 -2.865345 48.882726
40.377289 -3.647799 49.383923
41.012361 -3.346381 49.042706
-7.481715 -30.655869 70.252322
-35.314314 -9.207052 99.975008
-1.974441 -28.614755 74.546415
-17.032592 -23.038954 28.371577
17.982805 -19.462034 73.864879
-13.203308 -28.875604 74.903153
-29.058879 -9.255547 96.843926
-58.305733 42.059670 93.257792
-20.699663 -20.705910 77.886095
-10.101228 -5.135466 101.795360
11.056410 -24.037552 73.659764
9.929597 -8.258686 99.829796
-15.786943 -26.251149 77.423646
-22.810007 -24.065458 30.906393
-31.986476 -9.493593 98.323018
21.970376 -4.828393 95.449512
-17.754725 -21.339387 78.695656
-40.714220 -5.416351 102.455115
19.521252 -19.364421 69.409630
15.482420 -7.356496 97.931574
-20.442971 -26.386583 75.819839
26.695378 -15.660526 71.612597
-29.321312 -19.247122 37.851106
6.989536 -10.510249 98.750582
21.824983 -17.982655 73.977038
24.862840 -16.808964 62.047466
-16.384140 -27.460007 76.587152
35.473460 -2.773988 49.604683
36.553275 -2.866432 50.176440
37.686010 -2.949172 50.089392
38.397154 -2.897391 50.280312
39.168865 -3.297378 50.335008
6.520479 -26.109077 73.655088
6.165218 -26.273839 74.282227
5.036010 -26.748111 74.547994
-10.060327 -29.282145 75.225988
11.000735 -11.714629 95.648686
-1.370247 -28.401512 73.983137
-18.616494 -19.651437 81.481871
33.937053 -2.904362 53.526296
34.114222 -1.673152 52.522889
34.923070 -1.348565 51.707145
35.801986 -1.052050 51.606525
-9.067312 -5.449155 102.249233
38.928299 7.440735 59.431820
1.375587 -26.721918 75.940217
-3.497427 -18.862725 82.165812
30.490192 -10.328048 75.686865
26.346887 -12.040629 78.127265
21.622388 -15.322672 80.447384
18.859835 -16.332727 81.814288
35.911797 -2.126301 50.859402
-4.993424 -9.252521 99.226029
-6.212474 -9.895208 98.826733
17.621886 -14.940312 85.032584
20.633283 -14.114321 84.338287
2.263290 -25.264625 77.617108
24.836509 -7.038373 91.232768
6.939838 -13.794474 94.519294
-15.638835 -28.350020 75.847793
-16.617666 -28.028597 75.697828
-8.099253 -19.677361 83.325158
-29.698872 -9.802774 97.253641
-26.349280 -9.483524 96.760367
-2.951521 -29.227343 73.567537
-9.806468 -6.855636 100.134232
-5.293455 -23.846810 79.540236
-11.020318 -15.207769 91.240132
-42.854165 -9.616274 31.340484
42.105968 -0.021001 54.127872
-11.558043 -13.183331 94.202498
14.867467 -19.641370 76.812787
29.314469 -6.765626 86.362416
13.622906 -9.003808 97.816451
15.954209 -7.838465 96.573223
-22.092377 -9.751736 96.784182
14.515556 -12.488643 91.870628
12.925621 -21.297061 75.880861
-22.468501 -24.010485 32.449578
-1.278103 -16.367018 90.614375
13.212520 -14.294700 88.702775
13.141275 -5.711785 100.526368
-4.453001 -24.127512 79.240637
-3.623850 -28.112591 74.818922
-3.869638 -24.049879 79.559202
-19.219453 -28.425155 74.569511
-24.621461 -24.551774 29.886233
-22.429155 -13.531695 92.452923
-13.227378 -10.139125 97.039929
-51.689166 -50.344666 141.680567
-30.850240 -14.569335 38.218358
2.622731 -11.336400 97.869820
-34.499696 -12.790564 93.468140
3.516402 -8.297391 101.213980
-12.102853 -30.289452 73.380556
-19.599228 -29.477891 72.286564
-18.662993 -29.841057 72.320462
12.221607 -24.221722 70.513306
-45.185907 -9.619381 28.393418
-3.035276 -24.274645 79.216668
18.599260 -13.491395 86.481393
-25.226513 -22.869196 36.650354
-34.127755 -12.062731 94.655643
-23.110860 -15.165665 89.861805
-3.579233 -16.716615 91.413962
16.078941 -14.315332 85.968073
-6.619222 -9.875743 98.664405
-26.503460 -21.091587 37.935440
-27.334434 -21.219794 37.990549
-2.055180 -9.931289 98.167580
27.473223 -10.886585 79.872537
-31.466209 -9.885652 97.057776
-31.891547 -11.027583 96.448329
-50.522071 -5.108157 113.984679
-49.476018 -5.159230 113.879914
-48.646931 -4.704333 113.626066
-48.017659 -4.631561 113.509685
-47.377160 -4.536721 113.329846
-46.702170 -3.850985 112.778938
-45.906647 -3.379259 112.411200
-45.407538 -2.671379 112.112170
-44.626306 -2.584987 111.285520
-43.511954 -1.673492 111.397004
-43.491964 -1.708505 111.002455
-42.853607 -1.222723 110.735289
-41.905009 -0.690635 110.014787
-40.977339 0.054270 109.753357
-40.807112 -0.195769 109.033684
-40.373380 0.558714 108.651560
-39.571054 1.395977 107.910478
-38.773193 2.130754 107.653084
-38.520845 2.909235 106.610686
-37.979854 2.939399 106.385150
-6.903180 -12.388059 96.088341
21.379744 -19.857359 66.131502
21.992274 -19.051730 65.635498
22.065430 -18.530128 65.053884
38.940245 -3.611691 48.907036
38.047020 -3.676304 49.162913
37.404079 -3.656675 48.868011
36.624983 -3.759012 49.338659
35.848157 -3.309961 48.874210
35.114099 -3.059893 48.924173
-43.522593 -8.921895 31.200012
0.646574 -6.089753 102.066987
-14.127843 -24.380833 78.429294
33.090077 -3.444122 48.793694
34.144010 -3.467303 48.949705
-7.913306 -12.351412 96.380464
43.053529 6.020828 59.002204
9.227798 -8.234404 100.524687
10.666940 -8.016728 99.810350
-9.090192 -8.268163 99.811704
-9.905514 -7.556750 99.705987
-7.899856 -8.453130 99.854820
-6.455025 -8.474224 100.784142
-5.065360 -8.490077 100.326048
-8.368086 -22.655990 79.992870
-49.328313 -10.526259 94.570575
-32.571413 -13.067659 38.715314
11.504952 -12.592430 94.639424
-16.036129 -29.528717 73.710679
-10.956405 -12.191549 96.002682
34.130538 -2.649103 49.955416
34.854646 -2.594850 49.857074
10.193840 -24.991861 72.622260
9.811770 -24.806703 73.132832
13.836284 -6.288891 99.730340
8.132187 -25.512964 73.300035
7.295637 -25.422678 73.829163
-24.764485 -12.052058 94.375009
24.708769 -9.479295 87.327283
-9.767633 -29.477342 75.330447
-51.391250 -10.030867 93.131033
-11.627738 -11.929864 96.013706
-41.823744 -10.271409 28.822322
-21.926785 -23.868437 30.606556
18.854086 -20.343011 50.661543
-18.679587 -12.028916 94.378464
-17.770806 -12.421562 94.795244
-17.003480 -12.318789 94.731389
-15.910169 -12.643649 94.806911
-0.790055 -26.466687 77.305371
0.044597 -26.666871 77.290302
1.011221 -26.298609 77.240666
1.676880 -26.323361 77.455703
2.358311 -25.793233 76.754751
2.829841 -26.339032 76.666907
4.123851 -25.676747 76.768725
4.720706 -25.942395 76.641743
5.226028 -25.598216 76.115536
6.037789 -24.802242 76.015230
6.641362 -24.693384 75.782519
7.439514 -24.609264 75.549952
8.248212 -24.234290 75.110152
3.282597 -16.187039 92.229338
-14.135035 -14.058682 93.254897
-21.650467 -24.093443 29.687383
-27.036676 -18.722801 80.339799
-17.628226 -27.939280 75.504996
-18.431679 -27.777881 75.845953
-17.527189 -19.945029 81.814606
-14.958286 -12.557528 94.998350
10.191203 -16.456737 84.689198
-9.230707 -7.300617 100.664778
-5.524068 -29.127724 73.926838
-6.556388 -29.685084 73.641005
-13.068266 -12.662556 94.845932
32.056035 -3.875939 47.955487
-34.702619 -14.487864 90.954446
37.203246 -0.218953 53.943306
28.591382 -8.344965 84.597949
27.531197 -9.326807 85.264092
20.936446 -5.919463 94.906859
-14.406294 -8.879201 97.460423
-16.339659 -21.565723 78.426652
19.642792 -20.301190 50.160705
-35.586074 -12.664767 95.232324
-25.983303 -20.076730 38.695770
-12.241240 -21.664115 30.386832
-7.522851 -20.575257 29.147332
-11.326046 -31.241923 71.819721
-12.194497 -12.861349 95.198333
-9.377270 -12.936502 95.260231
-28.523060 -16.681360 38.802329
19.658395 -16.717821 80.393737
6.641571 -15.760725 90.501179
-6.438996 -18.166595 89.138846
17.157047 -11.290237 92.294009
28.207966 -8.983331 83.828213
-16.214999 -14.230349 93.396201
-19.520037 -15.850123 90.564897
20.353070 -13.911486 85.148627
28.920369 -9.058486 81.233033
21.838717 -7.890446 91.966277
27.928045 -14.476637 70.770762
5.096123 -24.589843 76.684367
16.007488 -3.671516 100.462606
-17.563101 -26.080495 76.697069
-34.514706 -14.027698 91.598721
-17.005490 -30.070199 72.948167
41.082206 0.212239 54.652555
-8.897680 -14.951816 92.567440
27.485073 -7.433807 86.914300
-2.105493 -23.708822 79.110216
-21.402188 -18.153436 86.227857
-10.207084 -17.347457 88.471489
-35.026139 -15.124815 89.440316
-9.614520 -10.718563 97.732551
-1.029737 -23.837943 79.217078
-29.225113 -11.787765 94.866559
22.436021 -13.204975 84.704594
-16.261712 -19.383169 83.916249
10.217688 -17.911191 83.330013
-10.528939 -25.989214 78.669955
26.081747 -11.127325 84.350930
-50.203901 -5.755351 113.252373
-50.149404 -5.814407 112.655058
-7.957760 -13.596656 94.292436
-47.892289 -4.794651 112.453517
-47.554047 -4.470884 112.114091
-46.689291 -4.181624 111.832565
-46.403791 -3.598739 111.528001
-45.500269 -3.703506 110.847758
-44.856700 -2.440448 110.446055
-44.023646 -2.627692 109.895203
-43.209389 -2.293597 110.063020
-42.698275 -1.863693 110.095320
-42.094955 -1.235240 109.267333
-41.460140 -1.066322 109.003846
-41.059271 -0.156500 108.496179
-40.362603 0.508744 108.024107
-39.584725 0.764944 106.940442
-38.654799 0.992409 106.817573
-38.281733 1.817036 106.255180
-37.683625 2.204199 106.497732
-32.989217 -14.085378 90.697322
17.176361 -20.080652 73.817425
23.047425 -18.150084 66.162237
23.444540 -18.061525 64.571832
24.247260 -17.162748 64.127698
-22.902174 -11.952587 94.557365
9.279821 -7.259157 100.635002
5.632637 -7.454783 101.237856
-15.640049 -29.577060 73.563622
44.755897 -0.922542 49.794454
5.023908 -7.567979 100.842337
-4.298232 -28.792377 74.838107
17.121848 -21.649199 70.073284
-16.971916 -9.638649 96.948655
1.588564 -12.562936 96.384474
38.417841 1.625105 55.766183
-24.597682 -23.413099 35.437163
26.830611 -15.259439 69.727921
39.491409 1.346356 55.815940
40.463331 1.032981 55.905484
-2.893458 -23.186733 79.769462
-19.770088 -22.762689 77.324121
-19.241930 -28.883723 73.342137
-18.430142 -29.377674 73.479378
-17.553701 -29.378245 73.388427
-1.753876 -6.383322 101.839861
8.362612 -6.447039 101.424995
3.977422 -7.166916 101.445691
-25.477697 -13.981684 92.007032
15.423109 -18.356568 81.808356
5.232553 -10.635376 99.283574
7.807697 -10.360916 99.073331
-14.757627 -22.326636 29.212271
17.971841 -18.818238 74.826530
12.106574 -6.067820 100.955419
-23.282536 -19.486195 78.328019
-22.235509 -19.557670 79.088788
-21.092149 -20.067106 78.646653
-20.364019 -20.032306 79.143710
-19.376993 -20.119450 79.010880
-18.630027 -20.204532 79.067052
-16.381340 -19.568963 81.527577
-17.450517 -20.320371 79.113356
-16.632219 -20.702348 79.316079
1.420820 0.801506 106.363196
2.445830 1.438132 106.639178
3.406880 1.128518 106.466812
4.213791 1.330219 106.394082
4.888250 1.396862 106.304436
-15.325286 -20.717607 79.450210
-15.260743 -21.090084 79.691706
-13.615665 -20.830169 79.613435
-12.819225 -21.049976 79.743505
-11.794206 -21.053214 79.825307
-10.409458 -21.394934 79.919417
-22.312887 -12.945023 93.912142
19.545863 -19.152310 73.815151
-11.877235 -14.287461 92.249538
2.640919 -13.742252 95.817213
-40.578083 -10.674264 97.765689
17.842360 -6.875627 97.248390
-0.722214 -27.936836 73.882395
8.788625 -24.285201 75.234956
9.636077 -23.695546 74.918389
-13.098864 -13.883734 93.413284
-10.336751 -21.650182 80.540333
-29.127858 -25.315757 28.365949
-9.016127 -21.282982 80.554090
3.815931 -15.835310 91.930410
-8.041409 -21.647159 80.422217
-19.132158 -27.515042 75.197392
-13.627353 -4.272291 101.187265
-3.885670 -27.487238 76.841383
19.550674 -15.987452 81.942818
-6.889994 -29.423285 73.729837
-7.847505 -29.698368 74.525216
-8.662907 -29.721676 74.351492
-9.482686 -29.362290 74.079425
-47.910161 -6.230713 101.681535
36.517619 -3.945694 47.687879
27.775459 -8.787916 84.789766
15.073922 -12.554430 92.082182
-34.779052 -22.641861 28.935194
-21.220467 -9.767287 97.044047
-7.679024 -21.855309 80.622705
-6.763075 -21.852355 80.776050
-44.331994 -11.200790 95.831619
-43.279312 -11.551513 95.708495
-5.597000 -21.957689 80.577314
0.603991 -8.909531 99.542532
-4.623204 -21.675858 80.997690
-0.356938 -23.288309 79.192906
20.806894 -16.915992 80.101465
11.049426 -14.726634 89.553554
-3.839220 -22.100794 80.620789
-56.316126 -45.797054 147.951576
-3.055575 -21.201110 80.737707
17.210775 -11.858086 91.187566
-21.591711 -15.372892 90.354778
0.554658 -23.682405 79.041432
1.026679 -23.530453 78.767978
-47.879547 -8.474843 28.416335
-2.283808 -21.938484 80.335878
-16.363544 -26.034607 76.897240
-38.863306 -10.137441 98.717454
41.218542 -0.429717 53.836141
-17.506668 -30.002409 72.591421
-9.029703 -13.053736 94.288751
27.310437 -8.042752 87.590299
26.366265 -8.341429 87.945403
28.207968 -6.907388 86.532011
-0.020507 -9.294576 99.192414
-1.380622 -21.711851 80.235943
19.590331 -12.820450 87.444807
-17.072710 -7.008110 99.033484
20.798976 -19.611593 69.838712
-0.683070 -21.751465 80.506767
24.400859 -10.993594 85.521213
29.678913 -14.337825 70.113386
32.650988 -6.356350 76.661004
32.168849 -7.200083 77.431202
25.197981 -11.500075 84.674165
-14.504792 -6.511568 100.036573
-9.437537 -26.946632 77.504470
-7.045233 -13.075581 94.158289
-38.376708 -13.009538 94.720630
-51.243627 -9.580434 94.185127
-40.844239 -11.482524 97.412024
-47.255422 -4.260695 110.508798
-46.168060 -4.023707 109.728925
-45.497051 -3.401934 109.867140
-44.677554 -3.273818 109.721022
-43.749357 -3.342711 109.591892
-43.271581 -2.795015 109.574973
-42.757008 -2.737352 108.927311
-42.366940 -1.888043 108.154008
-41.350698 -1.820043 107.751508
-40.580039 -1.332600 107.743334
-40.090126 -0.523956 107.069339
-39.575329 -0.162962 106.828328
-39.149044 0.496779 106.066947
-38.347875 1.066679 105.530702
-37.836930 1.328428 105.785520
-36.716906 1.712830 105.070715
0.279633 -21.324987 80.323376
1.134037 -20.574341 80.385783
1.770823 -21.485081 80.384050
22.280380 -18.608444 66.981697
21.888031 -19.302356 67.524521
20.741598 -19.247955 67.894015
20.345803 -20.076675 68.022739
19.288302 -20.405688 68.626180
19.125655 -20.463962 68.790871
18.310300 -21.033827 69.006792
17.850559 -21.294922 69.011066
15.918558 -21.631579 69.595923
15.253673 -22.162992 69.938164
14.175219 -22.598467 70.807742
37.458553 1.379612 55.591903
8.161325 -12.766836 96.230027
2.418307 -21.531651 79.514094
-12.524243 -21.521727 28.985886
3.568541 -20.755525 79.661312
-15.400153 -19.337263 81.335442
33.075585 -3.099800 50.005154
8.253631 -18.124715 81.649452
25.361368 -13.500369 78.909479
4.545785 -20.830864 79.822236
-14.554542 -19.832670 81.715408
-15.032942 2.979890 103.614819
-13.747410 -19.502593 81.319700
-13.206437 2.207260 104.242446
-11.894359 2.106798 104.174997
-11.198904 1.588143 104.153175
-10.613410 1.558285 104.833533
-9.348058 1.306148 104.888594
-7.892376 1.172409 105.057725
-7.389339 0.861299 105.039539
-6.797938 0.901510 105.544325
-5.428555 0.718445 105.318906
-4.536974 0.598740 105.256432
-3.499949 0.436809 105.772455
-2.960836 0.367886 105.237750
-1.774112 0.603859 105.544023
-1.278750 -0.195211 105.711810
-0.056384 0.018735 105.570051
0.671686 0.051990 105.924771
1.633085 0.352130 105.972629
2.060144 -0.179273 105.955825
3.729427 0.393021 105.891231
4.168244 -0.045583 105.900302
4.924335 0.103226 105.879329
5.902783 -0.127807 105.818033
6.651159 0.773792 105.748877
7.419106 0.291382 105.412730
8.237544 0.954866 105.166557
8.822097 0.674159 105.220148
4.771448 -20.675955 79.788420
5.913718 -20.759705 79.556003
6.272986 -20.439194 79.052451
7.548849 -20.254870 78.709403
36.130665 0.377419 54.875240
7.879374 -20.023776 79.127015
23.400259 -16.515926 52.073309
-34.820754 -12.394849 94.740471
13.006790 -19.669878 77.210044
15.603816 -6.049171 98.918139
10.617693 -23.541654 74.718524
11.378659 -23.511729 74.546975
2.117823 -23.076987 78.680632
-30.404663 -24.937533 28.227164
27.743512 -12.791394 76.679285
-3.425354 -26.172269 78.448601
23.157984 -13.312045 83.502774
15.500471 -22.135242 70.985250
-27.791950 -23.937355 35.205017
-10.960139 -16.812166 88.731431
22.624799 -14.657833 80.216442
26.975659 -11.736036 77.526131
31.114415 -9.127819 75.102653
-12.441927 -15.617993 91.197459
-10.114036 -29.983040 74.419803
-11.322938 -29.802794 74.369532
37.170749 -4.337525 47.921372
37.830667 -3.879869 48.275726
38.997126 -4.181904 48.097992
0.860024 -18.853067 82.362289
-30.086190 -10.351911 96.102831
9.173318 -20.111635 78.821168
22.704062 -17.113719 52.269920
16.037481 -13.829980 86.669324
-12.980175 -19.038996 81.517724
-9.320437 -19.541707 84.407537
26.090857 -7.291133 88.763654
21.671577 -15.504846 79.610633
-36.759470 -14.219917 90.460165
-56.848585 -46.600629 147.147288
-55.758018 -47.414377 147.880262
-48.094461 26.286570 52.666787
10.106536 -19.702230 78.809955
10.967389 -19.668495 78.711520
14.202312 -4.423812 100.564966
0.968363 -9.773663 98.706809
-41.327642 -9.784617 29.964917
-42.792259 -10.044752 29.679175
-44.137035 -12.242125 94.700683
-12.125722 -31.095631 71.919304
-34.003210 -10.370300 98.579538
26.121038 -0.137610 94.512010
-25.908495 -3.778632 100.551064
13.499074 -10.585159 96.251996
18.151412 -9.215969 95.045446
-29.261769 -15.504566 90.180419
-11.905293 -19.291445 82.500308
-27.550143 -25.556467 29.074755
-28.352979 -13.644033 92.649494
29.996557 -7.690820 82.711867
3.477763 -9.645736 99.695302
2.749105 -23.252635 78.880140
-16.971669 -13.252337 94.074967
-19.697134 -25.260069 76.611564
33.217289 -6.217902 76.440117
23.745904 -11.755482 85.153215
24.782918 -11.996341 84.740251
16.629162 -2.384356 100.597592
43.520000 -0.100793 53.578708
-6.107694 -13.766555 94.054926
-38.991424 -12.664919 94.914074
-50.349040 -10.353111 94.374558
-41.458231 -10.944593 96.927026
-47.154354 -4.489947 109.499396
-46.703309 -4.917935 109.116985
-46.012140 -4.219002 108.900214
-45.375880 -3.904138 108.334627
-43.825286 -3.922734 108.071434
-43.202635 -3.216202 108.078596
-43.034019 -3.028985 107.778823
-42.293287 -2.535212 107.522170
-41.055707 -1.870466 106.794116
-40.684934 -1.349218 106.540564
-40.319423 -0.702161 106.134671
-39.681767 -1.092254 105.481544
-38.918234 -0.802952 105.176437
-37.907073 -0.041936 104.871981
-37.077046 0.186749 104.787587
-36.500606 0.260710 104.591679
-35.367202 0.340675 104.525438
-34.968610 0.320317 104.516542
11.491462 -19.400053 78.607034
25.047810 -16.397717 65.988749
-12.076496 -19.244750 81.270119
24.847572 -2.494880 94.564769
-26.416143 -4.915606 100.294556
-27.791031 -5.548731 100.564276
-11.282820 -19.506459 81.181349
-29.713172 -11.260552 39.825592
-39.389507 -12.668997 93.664228
-8.882800 -10.337438 98.621837
12.698927 -4.719289 101.464515
11.885253 -19.277015 78.523286
14.118638 -23.403569 70.809556
13.134862 -23.454784 71.304750
12.934232 -23.847926 72.061650
11.539140 -24.162332 71.798079
11.127544 -24.362553 72.328493
39.486466 -0.206067 54.032968
-14.343830 -15.885690 91.637698
12.779944 -19.288840 78.556991
-17.928057 2.526217 102.840076
-16.336817 1.859356 103.046238
-15.672606 1.595157 103.315903
-14.309615 1.270619 103.197960
-13.616315 1.090995 103.139771
-12.825312 0.921538 103.600944
-11.923150 0.380212 103.939600
-11.232505 0.522827 104.016839
-10.031337 0.644031 104.144249
-9.040242 0.164760 104.564056
