ply
format ascii 1.0
element vertex 1542
property float x
property float y
property float z
end_header
49.143228 8.263827 54.164388
48.947239 7.445952 54.147274
48.675461 6.621240 54.127961
48.436444 5.817023 54.098542
48.145353 5.001161 54.074909
47.845379 4.186913 54.044431
47.551354 3.367066 54.024873
47.132075 2.562882 53.981600
-64.209070 -2.302562 118.889387
-73.582336 9.907775 120.151705
-71.022086 10.076790 86.665628
-70.247582 9.252086 88.851257
-73.688439 22.254375 94.558990
-73.630579 23.070441 94.542692
-58.438098 -34.179415 131.208606
33.476705 -3.898413 52.779667
33.163041 -4.711602 52.752612
32.936329 -5.517734 52.737699
32.610603 -6.326025 52.713577
32.202815 -7.142572 52.673972
31.678329 -7.951426 52.627195
31.101281 -8.791654 52.560860
30.559030 -9.589384 52.520358
29.741416 -10.409443 52.444489
28.925432 -11.233169 52.362752
28.333389 -12.065125 52.303181
27.818112 -12.886977 52.260886
27.190538 -13.700109 52.208813
26.635004 -14.486675 52.165051
25.850802 -15.228175 52.106214
23.831255 -16.242838 51.920003
23.028554 -16.947585 51.852853
-66.576508 0.124651 117.801462
-59.405251 -26.819747 126.675994
-67.123323 1.772119 120.063693
-32.960206 -10.464695 97.720084
-73.360432 18.891425 112.357764
-72.184414 18.006172 123.496972
-70.254997 8.440829 87.735625
-64.369203 -3.863599 113.225659
-58.600594 -45.584451 147.315595
-73.333539 3.503346 96.649273
-75.796975 28.766277 96.844855
-74.421382 12.490027 92.324466
11.280679 -14.692932 90.774479
-3.553700 -6.248607 102.704979
-16.085231 -17.384140 88.743687
-70.812406 -1.413104 99.873930
-50.820262 -38.783089 135.483701
36.686043 0.150663 71.342352
-50.902896 -42.054197 139.307329
-51.207922 -39.596628 131.604659
-50.387048 -43.674349 136.754984
-28.549181 38.900845 30.574351
-64.053501 -38.341481 142.576807
-70.918509 0.251836 105.463500
-68.737363 4.185348 118.976584
-50.401880 -16.770746 125.296326
-50.398946 -18.400433 125.293066
-19.794525 -6.840756 98.894391
-48.613201 36.295449 28.603455
-70.191352 3.587324 84.372430
-70.347736 19.820358 91.148530
-73.109761 3.513165 99.950533
17.551363 -20.893940 70.460848
-74.261657 21.325605 116.852890
-73.096640 28.677369 112.401770
-58.139673 14.611195 51.556302
-39.539339 12.546013 111.714788
-40.522301 2.790360 111.671597
-50.965645 -5.358424 121.506110
-50.950895 -4.548185 121.515890
-42.770760 14.175618 122.949342
-50.226915 33.103225 60.246987
-49.553135 -49.497150 139.326072
-73.334273 23.771113 115.752741
37.005004 4.216983 74.811324
-41.364689 10.886174 117.930220
-7.862615 -16.105278 135.779519
-50.766885 -11.878508 122.766799
-50.868098 -12.692618 122.761095
-55.528735 30.648835 60.147892
-62.103467 13.242936 55.469571
-50.507575 -27.378786 127.804665
48.141686 16.430922 55.206432
48.442148 15.617057 55.233406
48.667475 14.811911 55.263314
48.864117 13.993564 55.277412
49.099141 13.163563 55.278635
49.233685 12.384657 55.297704
49.258214 11.533876 55.308053
49.240612 10.717810 55.302838
49.164579 9.895795 55.303408
49.058395 9.077937 55.292896
48.939497 8.263419 55.276597
48.729654 7.449774 55.254839
48.462848 6.625665 55.240985
48.166867 5.808361 55.215070
47.921411 5.011291 55.177828
47.570179 4.173491 55.168538
47.230844 3.379893 55.120784
-56.525633 -41.540468 133.483876
-60.061999 -8.040260 117.656405
-75.176818 32.803578 102.358636
-72.248956 15.746793 91.172163
-30.869761 -16.102100 88.424236
-73.928679 21.488264 94.524763
34.384287 -2.309301 53.997654
33.997605 -3.081671 53.970028
33.665687 -3.893344 53.946151
33.507754 -4.691376 53.946069
33.246245 -5.518744 53.909642
32.926876 -6.329994 53.884054
32.444033 -7.161120 53.828231
32.019049 -7.969606 53.793434
31.578175 -8.769080 53.762304
31.062654 -9.580012 53.715120
30.362307 -10.413517 53.643406
29.579653 -11.179710 53.594918
28.725775 -12.059013 53.495090
28.044335 -12.909958 53.425332
27.477310 -13.683974 53.388090
26.741270 -14.491890 53.325015
25.884458 -15.272507 53.252976
23.551654 -16.287822 53.038325
22.667787 -17.014734 52.964655
22.037442 -17.663985 52.879903
20.859061 -18.580613 52.807864
-26.988029 -3.891315 100.784201
-51.152018 -50.174842 143.015237
-29.170317 -4.750523 101.586087
-57.671172 -38.241001 126.603465
-70.232098 7.630516 87.729920
-75.067781 31.167616 103.460414
-75.924430 9.989838 103.368328
-73.769035 4.331570 96.668016
-75.815800 29.579246 96.846484
-75.304190 9.158207 105.596333
-23.064329 -24.373098 29.532795
-75.900471 9.207184 97.837433
30.653235 -7.125573 82.182727
-55.826997 -43.968374 130.014741
-50.703972 -40.412694 135.480442
-50.808446 -39.597443 135.480442
-51.111516 -8.621905 124.029118
36.317371 12.355565 77.069888
-50.255764 -44.486992 136.754169
-50.962711 -36.346056 131.627477
-73.003983 29.490256 112.405845
-36.465850 1.956097 119.200688
-41.294280 30.004718 54.431928
-58.405094 -22.978518 120.169634
-59.809291 15.446086 53.496638
-14.505988 -7.143207 99.133164
-19.961258 43.417892 29.154507
-26.815184 40.421169 29.286851
-42.514222 14.151578 117.901698
-50.801519 -26.559460 132.946025
33.460488 12.356787 84.955101
-1.292381 -16.936013 89.847095
36.896375 1.779217 71.360117
-7.139809 -22.570648 141.972948
-61.285527 20.882368 56.798469
-40.842322 1.968068 111.668338
-41.305607 1.153860 111.656114
-7.963625 -12.863833 95.207671
-61.650206 26.095279 60.604739
-56.110917 -24.104662 120.198971
-72.718026 20.046173 93.019597
-40.705252 33.372477 59.072517
-50.970779 -30.636692 134.201825
-40.613736 14.977830 112.924952
-50.678791 -48.587613 144.433206
-26.531834 6.423010 103.170301
-50.837946 -25.746654 132.929727
-59.319113 22.133929 55.828464
-25.381568 41.091852 28.882404
-53.765482 18.962160 50.905503
-63.444019 -19.496507 130.139424
47.941133 15.613390 56.317175
48.134107 14.858932 56.362974
48.382007 13.997720 56.379028
48.622247 13.167556 56.371693
48.823044 12.384576 56.397445
48.853034 11.536973 56.408120
48.845210 10.716099 56.403068
48.773986 9.895225 56.411625
48.678721 9.074922 56.405920
48.548007 8.264234 56.377887
48.336534 7.451062 56.356047
48.054489 6.629707 56.337711
47.808870 5.833819 56.292401
47.452504 5.000493 56.284496
-69.048664 -2.099947 78.757271
-72.589920 7.674506 80.099371
-0.549471 -16.699277 89.617286
-61.180565 -21.079661 122.192277
-50.247126 -46.114968 140.606319
-68.353289 20.673258 88.815400
-68.949814 2.750314 87.637019
34.901928 -1.460948 55.149795
34.535130 -2.280421 55.160226
34.272235 -3.073668 55.147269
34.016186 -3.873183 55.138712
33.765433 -4.707291 55.102285
33.546382 -5.518133 55.082564
33.228968 -6.326799 55.055264
32.740176 -7.156385 55.004983
32.340537 -7.977128 54.964970
31.935357 -8.798662 54.924631
31.470198 -9.579523 54.896924
30.785742 -10.424519 54.826025
30.037152 -11.217848 54.766291
29.140653 -12.065777 54.680643
28.315949 -12.882006 54.607951
27.649096 -13.655777 54.557426
26.816162 -14.462879 54.483105
25.867263 -15.249281 54.400553
23.620271 -16.237785 54.184516
22.998565 -16.913358 54.148741
22.353389 -17.700657 54.097727
21.563401 -18.439631 54.045164
-45.980260 -5.588095 102.500433
16.149529 -16.784355 83.581138
-33.872026 -5.731823 102.537920
-24.686274 -11.263158 95.351912
20.938761 -1.548911 98.233486
-69.996177 6.797019 88.817030
-74.138685 5.147432 96.679425
-75.852472 30.391807 96.844855
-74.597488 5.964802 96.694093
-74.980258 6.769084 96.705502
-75.305494 12.488316 93.471066
-76.166870 10.026346 97.849657
31.767971 21.342067 84.875238
-72.488707 1.873871 98.829197
-39.820488 -4.724445 132.535303
-61.192463 -20.266855 122.190647
-50.869728 -10.248250 124.035637
-50.896458 -9.439927 124.031563
35.697865 8.281918 80.474726
-50.805268 -34.710665 131.639701
-59.609308 14.576153 52.887075
-50.928240 -6.178010 118.971694
-36.679605 2.791721 119.186834
-41.416600 -3.143646 132.541008
-59.221567 15.949139 53.055927
-40.005313 8.471714 114.213348
-40.073441 7.655917 114.219867
-62.845293 -29.316107 134.643514
-67.542357 1.763506 116.693979
-50.307185 -15.142119 126.570053
-76.588756 15.725686 96.779661
-44.349922 23.157557 117.895993
34.831355 21.332125 74.679062
-72.737666 2.696700 99.936679
-43.266235 19.874306 116.646714
-42.746068 20.707159 112.899689
-39.291928 10.103520 111.728642
-41.793910 0.357450 111.629221
-43.016134 16.620066 119.181130
-39.903121 11.728398 112.954289
-39.775423 10.916081 112.962438
-50.564376 -13.517159 126.562719
-59.814017 41.663033 93.368385
-58.969674 41.793421 93.440098
-49.381920 18.349907 49.351849
-50.703972 -49.384691 144.412833
37.013316 2.592594 71.369815
-7.290750 -20.996376 141.942796
-52.029529 34.435872 29.881257
-13.219548 -16.897630 151.937849
-27.426703 39.981680 29.607605
-56.998859 22.311502 54.522384
-50.898006 -42.853149 132.892240
35.332371 -0.655167 76.978616
35.019684 -1.469733 76.954576
47.945941 13.168615 57.451550
48.168823 12.343667 57.482843
48.174527 11.429321 57.502320
48.205250 10.720010 57.448453
-74.133632 14.932683 92.341580
33.488277 19.699912 81.504709
34.110880 17.251226 81.546270
34.278999 16.429292 81.541381
47.354794 6.634857 57.404692
47.024505 5.836793 57.352618
33.912527 1.772975 83.800352
34.196040 3.402059 83.807687
-28.280174 -6.329652 100.016542
-64.642855 -3.732527 88.493505
-67.245317 22.288032 88.787693
-67.850399 21.482153 88.802361
-70.050859 16.589344 86.659924
35.362197 -0.651614 56.378376
35.030197 -1.458373 56.350750
34.734298 -2.278709 56.321249
34.508074 -3.087726 56.305277
34.308336 -3.899701 56.284007
34.098249 -4.718130 56.266405
33.851734 -5.517041 56.252225
33.447287 -6.334501 56.214168
32.966563 -7.165626 56.164702
32.555270 -7.983900 56.126564
32.138028 -8.797521 56.091522
31.621855 -9.615950 56.045560
30.977412 -10.412784 55.992509
30.147819 -11.225264 55.920469
29.331916 -12.050701 55.848756
28.502160 -12.865789 55.777287
27.666780 -13.672402 55.704759
26.732876 -14.486430 55.624733
25.621237 -15.333789 55.522868
24.185829 -16.163383 55.389464
23.600713 -16.898771 55.355971
22.876896 -17.715733 55.292488
22.124069 -18.494312 55.241555
-21.125052 -3.468157 100.348216
-5.163364 -19.596335 81.582127
18.718824 -1.557680 99.758211
-34.705449 -5.784581 102.594149
-73.167865 27.879720 110.156652
-69.711524 5.977922 88.795027
17.568883 -5.097852 98.473074
-75.837966 32.025487 96.855449
-72.294591 1.893388 96.627270
-61.619239 -28.527911 133.461873
-76.326188 14.053542 104.518187
-76.295383 10.831900 97.852917
-7.762624 -20.862402 138.385649
-72.197452 1.059541 98.815343
-71.839211 0.245341 98.810453
-51.693047 -41.222729 130.299150
-50.817165 -34.710176 134.211604
-50.653610 -13.509824 124.034007
-32.091904 1.121247 121.851639
-50.879670 -35.526486 131.632367
36.364636 -0.657604 73.605480
-63.154639 37.317039 90.583787
-75.409071 23.843153 103.440856
-51.151448 -29.001953 134.225458
-50.347198 -29.005050 131.659259
-56.723170 34.576691 90.384130
-40.105304 6.842826 114.212533
-51.621741 -15.154098 130.365973
-25.157138 -24.605434 31.405004
-74.420078 30.410225 93.519961
-50.287301 -16.772213 126.571683
-50.990989 -32.262386 134.237681
-39.409277 11.732636 111.723752
-64.611235 33.587128 89.385847
-50.962385 -31.458300 129.065353
-75.191649 6.746469 100.007578
-31.872852 -1.347014 121.838600
-51.058709 -18.399862 122.724423
-51.389243 -29.838147 126.479597
-53.304805 33.806098 63.775286
-42.936109 15.796096 117.906587
-40.242375 13.358167 112.947770
-40.457759 14.176270 112.947770
-65.012749 39.590353 94.459569
-38.026431 -6.816129 102.053039
-67.274165 33.892236 90.063865
-7.951776 -18.234840 136.112823
33.852141 -5.528287 75.703830
-41.686584 11.708514 117.925331
-8.188120 -24.113545 145.231018
-72.506961 22.976073 112.368358
-65.522810 18.008535 60.765605
-50.537891 -45.297353 134.165153
-8.189017 -20.987330 144.413648
-51.176058 -19.229130 131.643776
-71.202022 7.497211 114.512425
-60.765116 -21.946334 128.965118
-50.694927 -29.003746 132.941136
-39.267969 6.841245 110.486697
-44.016618 21.522002 117.901698
33.188956 20.516874 81.488166
-71.071715 6.722372 119.020590
30.452764 -6.399311 83.616994
31.240633 -4.747589 83.643887
32.730071 -1.457868 83.695227
33.410615 0.144014 83.776720
-72.992901 13.149709 123.443187
-72.406155 12.534278 83.416523
-70.526123 14.956642 86.671333
-70.168045 15.764966 88.876519
-70.987533 12.515290 86.672963
-70.845574 13.334126 86.680297
-72.916461 26.220941 114.632219
35.521678 -0.633083 57.541436
35.244685 -1.461902 57.511529
35.042502 -2.279565 57.493600
34.811145 -3.086870 57.475101
34.549962 -3.918705 57.441690
34.332051 -4.729302 57.426124
34.005918 -5.537960 57.399721
33.594788 -6.356243 57.363946
33.159292 -7.160582 57.327926
32.670011 -7.992098 57.282861
32.235901 -8.795076 57.246923
31.607186 -9.604867 57.192893
30.807827 -10.445136 57.126477
29.963320 -11.247185 57.052644
29.169339 -12.093811 56.986636
28.442344 -12.906617 56.922664
27.680471 -13.687070 56.854292
26.804101 -14.453181 56.780215
25.596382 -15.302577 56.672889
24.692060 -16.145291 56.587078
24.126828 -16.910424 56.548613
23.425830 -17.751345 56.477796
22.638775 -18.494801 56.433872
10.949901 -9.005816 99.103826
-23.758401 -3.408024 100.322139
-24.595817 -3.456341 100.366145
-69.752352 5.860182 116.738800
-76.049928 14.049630 105.632189
-70.356863 -0.569869 105.447201
-69.585537 5.171334 88.793397
-69.185490 -0.629350 95.354357
-75.905931 31.208281 96.857078
-72.865935 2.693669 96.637049
-76.652076 12.462320 97.870845
-76.534727 11.652855 97.866770
-50.881219 -11.066517 125.301215
-73.223769 3.505285 98.852014
-72.934552 2.692169 98.830826
-50.552478 -22.476361 125.284917
-50.686289 -41.224848 135.477997
-61.892076 -10.517909 124.415392
-56.307477 30.961114 61.252034
-50.791821 -21.666489 131.669038
-51.413446 -18.299219 131.622588
-8.914952 -12.762212 134.547353
-22.521589 -24.125198 74.785572
-26.185491 -0.460921 125.614147
-64.103782 20.595270 59.761944
-40.255006 6.029686 114.204384
-40.156400 3.548778 116.598633
-25.341229 -11.377329 131.008949
-75.556980 31.214474 95.744706
-31.306805 -9.531687 98.387507
-73.010747 13.310086 91.215354
-61.066720 30.873510 88.324000
-57.059979 30.116933 60.362299
34.687358 13.984925 81.565828
-44.251560 21.520861 119.154237
-31.850849 -0.512384 121.820671
-8.111493 -17.700412 135.937615
-59.782969 -24.377173 127.825038
-46.520311 -4.081323 111.584400
-39.789439 7.662437 112.959179
-50.961978 -28.200800 126.512194
-40.836210 15.794140 112.920877
36.811459 14.802539 72.510546
-39.724164 -8.381665 100.453342
-50.864268 -13.506565 122.760280
-7.927540 -15.219863 135.808042
36.783426 0.962915 71.356368
36.725566 15.617464 72.506390
-73.049049 13.365908 80.152667
36.971837 12.354831 72.520733
-41.946382 12.550495 120.449153
-40.435349 11.735814 114.212533
37.015598 11.543085 72.526193
36.326987 18.874637 71.330046
-12.669963 -8.784156 130.817442
32.944560 18.874719 83.766940
33.202728 17.256849 83.803612
-68.543900 -3.711078 76.500500
-29.672555 -8.123130 143.064132
-72.920943 25.421418 112.388731
-62.389261 -7.228025 121.118206
-74.637745 29.536055 104.571972
-63.360733 -3.114211 91.822473
32.407035 -9.595251 72.144401
-75.800398 13.294847 94.567954
-72.353510 11.722042 83.418153
-73.001865 19.709365 112.359394
-75.195072 27.103504 102.334188
-70.794478 14.138050 86.672963
-71.091599 11.701587 86.671333
36.392425 0.979703 58.754208
35.981458 0.160948 58.718758
35.644243 -0.643204 58.693251
35.444667 -1.463075 58.672634
35.254546 -2.281618 58.651771
35.024737 -3.091434 58.635473
34.738943 -3.911851 58.606462
34.505222 -4.718342 58.588452
34.115444 -5.544879 58.552514
33.694453 -6.355623 58.516005
33.233124 -7.141838 58.478355
32.731620 -7.966306 58.434350
32.129309 -8.795239 58.383906
31.494971 -9.598429 58.328083
30.581196 -10.429164 58.252621
29.652263 -11.246533 58.174877
28.943604 -12.074986 58.116284
28.295332 -12.865708 58.056550
27.583332 -13.693182 57.995105
26.840120 -14.490097 57.931052
25.964239 -15.257349 57.862680
25.010288 -16.151729 57.761629
24.461273 -16.936013 57.721453
23.749844 -17.766421 57.656096
22.987074 -18.542393 57.601252
10.559796 -24.328441 73.735868
11.715278 -8.804285 98.910689
-20.506443 -8.730127 97.594585
-57.166897 26.144582 56.662947
-58.238523 -34.171103 130.058747
-65.010386 25.575765 86.485530
-70.620654 10.072227 87.758442
-60.120185 -12.541123 71.589437
-75.690383 32.829981 96.867672
-71.525139 1.015730 96.562076
-68.977195 1.062206 113.276184
-75.175595 23.869393 97.899367
-75.251954 24.684563 97.907517
-73.974640 5.128844 98.874832
-73.586655 4.325344 98.862608
-13.321577 -8.347927 130.382272
-50.594365 -42.043277 135.475552
-9.936868 -11.101314 133.376306
-59.806113 37.989026 90.686467
-72.169256 18.095488 91.939007
-50.646113 -32.269231 131.651110
-20.236214 -25.766212 75.795998
35.006319 1.784286 80.406842
-70.943527 0.199371 96.530294
-25.294127 -1.283890 125.605182
-46.686230 31.823549 57.659682
-40.377163 5.217116 114.200309
-50.252423 -46.931767 141.885751
-24.569984 -13.876703 139.494762
36.634865 16.433530 72.500115
-69.846720 5.188651 87.698138
-50.215343 -17.593250 127.832372
34.532767 14.808733 81.578052
34.399445 15.617709 81.556864
34.803403 13.172364 81.579682
-50.904281 -40.411553 132.902834
-77.101344 17.334918 101.194923
37.109233 10.727915 72.531001
-73.234363 30.315693 110.163171
-51.223405 -8.619868 118.936652
-73.504429 17.291320 92.559165
-70.363138 24.630533 91.690455
-52.479775 -33.903889 126.454334
-42.855105 16.626912 121.695988
-43.049302 17.447786 121.698433
-50.861660 -14.323364 122.757835
-50.948613 -15.137392 122.745611
-50.956436 -15.954273 122.741536
-50.710573 -28.190858 132.934617
36.520124 17.243891 72.490255
-43.030314 29.745328 54.298687
-44.116201 20.709848 120.408407
34.899483 15.616975 80.430557
-8.795076 -21.795002 146.914652
-8.405624 -23.532992 146.974957
36.346871 18.062891 72.481372
35.305560 -3.904810 68.949895
36.093185 19.678072 71.308777
36.745288 16.434915 71.359954
-51.396658 -8.634536 125.274323
37.212973 9.915843 71.389699
35.331311 -3.914557 70.090627
35.717178 -3.089576 70.122898
-72.026807 1.060763 97.720084
-55.364039 -44.802776 132.317718
-51.098152 -19.213972 122.735017
-74.056377 14.837174 110.099607
-21.561852 -27.377400 73.508585
37.589631 3.435878 59.990937
37.299273 2.613986 59.972846
36.975422 1.805083 59.947665
36.547098 0.997175 59.916046
36.198391 0.157460 59.878559
35.884156 -0.655876 59.848652
35.692160 -1.440649 59.856475
35.435866 -2.275449 59.817033
35.128558 -3.089225 59.787695
34.823369 -3.906823 59.759499
34.510519 -4.720477 59.732525
34.160020 -5.514743 59.700091
33.667316 -6.341134 59.659752
33.145113 -7.151870 59.613057
32.565945 -7.995888 59.567829
31.961271 -8.825718 59.520481
31.359531 -9.567381 59.456021
30.264353 -10.422563 59.371839
29.283591 -11.285731 59.295888
28.719908 -12.058362 59.241207
28.082473 -12.860166 59.185955
27.410649 -13.716571 59.128910
26.840854 -14.490505 59.078629
26.200730 -15.289213 59.025903
25.388250 -16.119540 58.953294
24.680896 -16.949378 58.887774
23.940944 -17.752893 58.828284
23.179397 -18.529680 58.771728
11.990152 -23.700948 73.131682
-72.692193 8.486872 80.109232
-75.629671 30.369967 101.235670
-73.100145 13.953469 123.463560
-73.111798 19.707409 113.482360
-10.041911 -6.059512 101.124840
-70.646732 10.882669 87.764962
-56.067237 -13.940512 71.710127
-75.095896 8.353306 105.587368
-41.715514 12.578691 45.483482
-32.885559 -9.850893 98.684955
-75.224246 23.060336 97.885514
-75.472146 22.240685 97.893663
-75.027116 6.738402 98.900910
-74.559431 5.927951 98.891131
-75.491868 25.490360 99.011740
35.175579 13.982562 80.436180
-50.888797 -37.155765 132.915058
-50.583363 -42.855676 135.473107
36.120077 18.871541 72.462873
-24.078829 42.487085 29.197291
-50.861579 -33.901770 131.639701
-50.757187 -33.084156 131.647035
-9.513922 -14.342922 133.744652
-73.979204 15.585030 122.417196
36.403508 13.984681 75.926711
-25.108894 -2.023124 125.460126
-68.688386 35.706340 91.025476
-40.721795 3.590730 114.189715
37.159351 6.655589 74.820858
-69.940599 3.497356 90.982285
-71.258333 4.338383 92.175335
35.736492 20.511333 71.286774
-70.102525 2.776286 83.258427
-50.857993 -7.799352 120.237272
-42.511777 -0.511088 111.565657
-63.956606 23.391847 61.544510
-14.784285 -7.598783 129.635801
-50.431869 -17.590071 129.114249
33.547930 11.539906 84.951026
-50.657929 -32.265075 132.940321
-51.277761 -15.141304 121.454770
-51.898489 -37.153646 138.044195
-51.661428 -39.596465 130.299150
-67.118596 26.747871 89.948960
-50.090252 -47.753048 141.900420
-43.197863 18.259043 121.689469
-32.632362 1.972102 121.815782
35.309471 -3.906513 71.230381
-51.519712 -22.484999 122.689381
-56.140255 15.812150 50.650269
-56.816153 15.413489 50.937611
-8.738195 -15.329307 134.548168
-50.382729 -47.005273 134.106478
-50.566984 -44.484466 134.179007
-50.687674 -42.856409 134.185526
-50.705032 -42.041077 134.192046
-50.592735 -45.328321 141.855599
37.123250 3.403803 71.378534
-50.665915 -18.406708 130.392051
-73.913847 14.015078 112.326797
-51.382234 -6.997556 124.012819
-60.922804 14.295493 54.546669
-59.535069 -13.005386 118.555268
-50.407584 -24.111508 126.548865
-43.947675 18.247471 124.174989
37.925543 6.676199 61.162473
37.854645 5.858788 61.162881
37.801349 5.051890 61.152776
37.649039 4.229354 61.145116
37.496241 3.427484 61.130854
37.274826 2.617262 61.113822
36.983979 1.798254 61.093286
36.685635 0.979776 61.064275
36.448247 0.175290 61.050258
36.181441 -0.654825 61.019862
35.960922 -1.464281 61.001526
35.565113 -2.284267 60.965262
35.237269 -3.093275 60.939103
34.824102 -3.908070 60.899823
34.440436 -4.738364 60.869915
34.057991 -5.513847 60.834059
33.559013 -6.338078 60.792253
32.962569 -7.167614 60.744254
32.350235 -7.990526 60.694625
31.808717 -8.786357 60.645567
31.073492 -9.588813 60.581351
30.023543 -10.390618 60.494643
29.131689 -11.242051 60.421788
28.610137 -12.052005 60.377538
27.990142 -12.868152 60.324323
27.370881 -13.684300 60.271761
26.780549 -14.522205 60.216346
26.383926 -15.273159 60.192468
25.745106 -16.070889 60.142188
24.954140 -16.916618 60.068926
24.106292 -17.711006 59.998516
23.257466 -18.500505 59.929248
-29.090861 -7.198476 99.303483
-72.799763 9.296092 80.119418
-71.792679 6.685049 112.267307
-59.218389 -27.634591 126.669474
-66.500557 -4.538170 83.038398
-14.633850 -5.327506 100.482679
-70.702473 11.698572 87.773111
-38.405127 -6.238160 129.669213
-74.105110 10.059840 92.336690
-74.288713 10.870120 92.344025
23.370252 -4.220634 94.684489
-49.759067 -49.391862 140.617728
-75.445824 25.502503 97.915666
-75.729418 8.384436 98.926173
-75.474021 7.562552 98.914764
-75.627879 26.309197 99.019074
36.272224 13.165681 77.059539
36.180219 13.981747 77.054893
-50.510998 -43.673779 135.471478
-50.522652 -3.766958 120.291057
-51.498932 -21.667792 132.941136
35.690856 6.653307 80.471140
-50.121709 -45.283500 136.761504
-9.686115 -13.732706 133.539291
-48.082685 19.775700 49.677086
-51.408475 -26.559868 134.210789
-50.670316 19.967533 50.483780
-40.514641 4.407611 114.192975
-65.942008 19.681739 62.051964
-71.717380 6.803604 91.124897
-70.413011 4.319615 91.009178
-41.762943 11.716664 121.702507
-42.050937 12.553591 121.708212
-73.114895 31.137138 110.178655
-50.703809 -41.226559 134.194490
-50.817328 -39.598910 134.196120
-52.192840 19.424630 50.742192
-50.913490 -42.040751 132.901205
-50.837946 -45.313000 132.845790
34.339711 7.467613 83.832949
34.181289 4.207530 83.845988
-8.445148 -22.601289 146.921987
-8.490213 -24.060330 146.680769
-76.175101 19.766084 104.554859
-42.742564 19.077635 114.158748
-55.644454 -43.408765 127.622121
-74.814095 6.737937 103.335731
-54.494840 18.658845 51.089432
-29.839859 0.323517 123.102548
35.267095 6.653250 81.590276
-60.486086 34.495443 89.416815
-57.495312 15.054596 51.201240
-53.361361 26.919087 55.039047
-70.797004 21.403105 91.908040
36.407257 15.614286 74.779949
-47.949526 37.780324 30.235097
-50.799889 -40.412123 134.193675
-50.818877 -38.784474 134.197750
-42.390191 14.187516 119.188464
-42.113524 17.419589 114.141635
37.200016 4.222403 71.383424
35.827927 19.691111 72.443886
37.939804 9.928148 62.313392
37.921224 9.115179 62.309154
37.853830 8.301232 62.306383
37.878522 7.489151 62.303939
37.829790 6.674495 62.302064
37.789858 5.862284 62.297256
37.709344 5.047783 62.291878
37.600388 4.239076 62.281691
37.400569 3.422733 62.265311
37.207024 2.606122 62.252109
37.009812 1.789404 62.232062
36.859377 0.987004 62.225135
36.602676 0.157712 62.197591
36.391692 -0.657579 62.177951
36.136457 -1.453997 62.163038
35.733069 -2.269786 62.127426
35.326096 -3.086642 62.089287
34.906084 -3.898812 62.054898
34.426174 -4.730443 62.011625
34.019445 -5.488307 61.975442
33.455517 -6.336244 61.929807
32.751178 -7.169163 61.869339
32.159787 -8.003027 61.823459
31.525857 -8.808034 61.769266
30.769362 -9.596229 61.705621
29.745898 -10.419874 61.619891
29.235103 -11.237895 61.572625
28.733272 -12.069445 61.530819
28.128517 -12.818279 61.493088
27.435586 -13.656755 61.429443
26.857967 -14.503951 61.374680
26.423775 -15.304859 61.339801
25.879161 -16.099655 61.297751
25.138394 -16.896570 61.236632
24.060167 -17.777341 61.146093
-38.032298 -4.811756 136.055779
-67.220543 -4.560124 78.647094
-19.270121 -12.267227 150.280292
34.648730 -1.808954 53.835321
-55.259565 -47.909106 147.139572
-67.171077 -3.718535 83.071810
-71.384728 5.220743 82.231622
-70.558638 12.512601 87.767407
-70.460522 13.355314 87.807338
-70.527019 14.151170 87.796744
-73.928842 9.242796 92.322022
-2.630651 -19.459509 81.464859
-75.809525 27.945810 97.935224
-75.568878 26.310990 97.918925
-76.189280 10.015915 98.944916
-75.996143 9.202783 98.935952
-75.658031 27.121514 99.024779
-69.720733 -2.219521 102.067708
35.751650 1.779323 78.161643
-50.264809 -45.303547 135.469033
-50.392101 -44.489111 135.470663
35.635767 5.031028 80.447996
35.682789 5.839214 80.467310
-50.134014 -46.114886 136.750095
-30.034707 -18.423821 79.193338
-40.587903 8.466254 117.964447
-74.084329 32.600498 93.400167
-40.700770 13.358656 114.192975
35.529257 20.508806 72.422290
35.136544 21.332043 72.396539
-43.360685 19.062559 121.683764
-43.897720 20.703981 121.677245
36.562826 4.221221 77.068666
34.410609 -6.363699 72.310156
-74.463351 17.244380 115.720144
-57.522449 -39.933518 135.778704
-76.800555 14.900982 97.876549
-73.863566 10.722700 120.208750
36.138169 18.061668 73.616888
-74.397424 17.808716 93.491439
34.299780 5.843109 83.815836
33.700973 0.963323 83.784054
31.642147 -3.926675 83.661000
35.928570 18.875860 73.601568
-63.636667 -18.676611 130.147574
-59.689008 -8.919271 117.482011
-50.373031 -25.745758 131.654370
-39.853085 6.850829 117.965262
-42.999265 21.511897 112.882576
34.820924 -4.734632 73.490983
-38.840296 10.919586 110.480992
36.324460 17.244869 73.628786
36.551743 13.989163 74.793721
-50.653529 -30.635388 132.949285
-11.107263 -27.780870 76.915378
35.813665 18.870726 74.743685
-21.314767 -4.634502 126.966107
-58.943026 -44.833009 144.962092
17.637989 -5.976162 97.799946
-70.954610 1.987414 78.885622
-59.103240 -34.608718 122.215910
37.809498 11.554575 63.448256
37.843399 10.741199 63.451271
37.888953 9.924562 63.453227
37.895554 9.114038 63.452005
37.841443 8.298787 63.448501
37.818055 7.487000 63.446382
37.739170 6.669223 63.439373
37.704536 5.858959 63.435217
37.636571 5.043236 63.427639
37.522074 4.229982 63.420793
37.395679 3.420851 63.407428
37.264884 2.611777 63.399524
37.087637 1.791955 63.381758
36.899879 0.973077 63.365460
36.755719 0.170376 63.355273
36.487608 -0.655102 63.329359
36.215342 -1.444715 63.311104
35.832979 -2.269631 63.275003
35.419079 -3.082201 63.240613
34.970544 -3.877453 63.205246
34.468062 -4.696094 63.161403
33.904460 -5.544341 63.112181
33.342243 -6.330581 63.067034
32.653387 -7.168429 63.008197
32.110810 -7.965744 62.964761
31.492037 -8.781712 62.913991
30.766510 -9.595496 62.854176
30.072112 -10.437069 62.788249
29.573704 -11.266744 62.741553
29.075378 -12.016067 62.722321
28.323121 -12.812656 62.665439
27.568337 -13.680714 62.582317
27.142132 -14.487490 62.549557
26.623595 -15.300785 62.505959
26.040353 -16.057035 62.463338
25.088277 -16.955408 62.380542
-75.567085 8.364470 102.238842
-72.550559 17.438577 77.943162
-67.984209 -3.732674 78.690692
-57.677040 -37.450605 132.345426
-71.987854 7.499933 112.276272
-20.613117 -14.666040 146.685658
-67.778033 -2.926631 83.112556
-69.448792 1.130081 84.329239
-75.209496 27.917533 102.339893
-66.621411 -0.643986 114.404040
-70.318969 14.948900 87.775556
-73.590240 8.418337 92.281275
26.615038 -1.201224 93.417281
-51.015844 -44.497994 141.869453
-75.726240 27.129582 97.927890
-76.567650 11.642261 98.960399
-76.379891 10.826114 98.953880
-9.735092 -11.959104 133.311927
-72.875062 10.939144 77.926048
-72.392056 18.261895 76.839101
-50.104351 -46.961756 135.442955
-50.214284 -46.119124 135.456809
3.399369 -27.188419 72.907985
34.845698 0.961065 80.408798
-50.923024 -20.853520 131.660074
35.378577 -1.487882 75.844160
-58.865282 -19.746933 120.080807
-41.318727 15.784605 114.155488
-50.187880 -19.217476 126.563534
-38.393473 8.476930 109.232527
34.619882 -1.474183 78.085447
-41.644534 14.979949 115.416177
-41.298925 14.164861 115.423511
-41.131213 13.367049 115.451219
-40.918599 12.547398 115.447959
-40.325660 6.843209 115.460183
-40.361109 6.026386 115.458553
35.743582 -0.655330 75.855813
-70.011498 15.783546 87.760887
30.254411 -12.869782 70.830986
-50.760610 -11.879649 124.034007
34.962313 12.351572 81.571533
35.075099 10.723189 81.582127
33.140467 -0.643131 83.721305
34.083662 2.591632 83.797093
-31.655593 -18.176817 79.161719
4.573758 -26.244492 75.550705
-73.117828 3.502629 102.172833
-39.134973 4.442221 117.841393
-50.406688 -46.121731 141.877602
-40.753414 -6.492131 101.784929
-63.482727 -6.174303 86.218234
-69.111739 -0.464043 82.088195
32.353902 19.697549 84.897241
-58.629443 -32.542231 130.066081
37.255838 17.255219 64.552316
-61.593406 -12.115732 121.089684
-72.111641 1.052280 99.919566
33.463911 -6.352502 75.683538
37.619702 13.997801 64.576112
37.640483 13.184669 64.576927
37.695245 12.366811 64.579453
37.732569 11.553679 64.582795
37.795889 10.736553 64.586299
37.813002 9.925214 64.588581
37.840547 9.111512 64.592411
37.837531 8.297728 64.588988
37.770789 7.482836 64.582632
37.786354 6.671871 64.587358
37.725805 5.856645 64.579372
37.653440 5.039626 64.570815
37.599084 4.231318 64.568289
37.437077 3.411104 64.553131
37.295362 2.604875 64.540337
37.101084 1.789502 64.523550
36.953908 0.983517 64.512467
36.753192 0.170613 64.491604
36.529821 -0.637336 64.475550
36.238975 -1.454282 64.448658
35.838113 -2.272728 64.416550
35.412885 -3.078908 64.382242
34.906247 -3.897623 64.341088
34.470017 -4.700112 64.307187
34.025883 -5.496595 64.274183
33.438811 -6.328380 64.225287
32.800644 -7.132532 64.175577
32.368245 -7.939642 64.149499
31.888580 -8.775029 64.101092
31.350078 -9.574552 64.064828
30.580055 -10.429571 63.977387
30.109762 -11.200979 63.962718
29.407134 -12.032202 63.894509
28.657892 -12.828140 63.840154
27.940676 -13.649095 63.773248
27.361917 -14.499795 63.711966
26.735321 -15.311542 63.662989
26.048095 -16.057442 63.609611
24.947783 -16.912461 63.517769
-75.576294 23.846820 102.323594
-72.602796 16.641417 77.941939
-68.513422 -2.942123 78.728831
-57.952484 -36.630709 132.349500
-73.907083 18.875208 115.731553
-60.568882 -43.993881 146.062241
-68.401451 -2.133514 83.159007
-68.659945 -1.304532 83.170416
-69.357276 0.318733 83.216051
-72.761543 24.604945 112.381397
-71.837908 1.851917 105.509950
-73.280569 7.621625 92.299204
2.483231 -8.589471 100.307470
-38.905001 9.286802 110.507070
-74.919301 25.461268 104.556488
-75.170298 23.845027 104.567082
-76.683614 12.451644 98.966104
-8.075759 -20.172813 143.179852
-52.045013 -27.382779 135.450290
-63.932892 -8.573906 78.429264
-47.753048 27.834818 53.701429
-13.113608 41.951109 29.300542
-23.533074 -24.108166 73.661139
-50.543188 -31.452758 131.652740
-51.139876 -34.703249 135.504890
-54.181338 23.707060 53.595815
-40.908005 14.178715 114.197049
-41.065286 14.980438 114.174232
-40.942314 2.771812 114.182381
-38.583188 7.659055 109.250456
-42.008235 15.789902 115.399064
34.483301 22.129855 74.650376
-51.443924 25.773954 53.526954
-60.151478 14.020130 53.407812
-40.820319 37.470652 29.252787
-41.782012 37.392175 29.050197
-40.386779 5.216041 115.457738
-41.671997 16.599367 114.144079
-51.047463 -24.113871 132.937876
-26.121275 40.780877 29.047915
-73.769850 13.196323 112.326797
35.155451 9.907530 81.580497
35.241588 9.092850 81.578052
34.274191 8.283141 83.845173
-59.669857 -25.188594 127.822593
-67.756275 21.495028 87.694878
-41.464110 -16.463193 84.912725
-59.072273 -40.773054 140.350433
-51.237748 -45.305421 143.158664
-76.708469 19.797784 98.999516
37.273848 5.038664 71.391003
37.364793 5.851772 71.398582
37.406844 6.660536 71.402738
36.728500 18.877490 65.652383
36.960998 18.070714 65.671045
37.201157 17.243810 65.685714
37.343768 16.437279 65.696960
37.445634 15.624880 65.705028
37.458265 14.812889 65.706494
37.516695 13.996579 65.708858
37.585883 13.177090 65.711710
37.607478 12.365670 65.713503
37.635674 11.552212 65.715866
37.710077 10.735494 65.720674
37.732243 9.922688 65.722141
37.801186 9.107030 65.728579
37.818870 8.295365 65.729883
37.802082 7.480782 65.727519
37.739251 6.667234 65.721082
37.708203 5.856653 65.719289
37.638690 5.039275 65.710732
37.592320 4.231391 65.706413
37.424772 3.412319 65.691744
37.282975 2.607287 65.676913
37.097009 1.788369 65.661511
36.949345 0.986018 65.645538
36.681153 0.162219 65.626306
36.425837 -0.635658 65.600147
36.062136 -1.466563 65.576514
35.728180 -2.272508 65.549458
35.317621 -3.085615 65.515884
34.926620 -3.910327 65.483612
34.591686 -4.711667 65.459817
34.177459 -5.527106 65.427383
33.608968 -6.313940 65.390467
33.146987 -7.159596 65.347357
32.738465 -7.977682 65.310441
32.371667 -8.761257 65.299113
31.890617 -9.594518 65.247366
31.404596 -10.363155 65.240276
30.732202 -11.205950 65.160902
30.076269 -11.993738 65.125453
29.271612 -12.818360 65.048198
28.532801 -13.620898 64.986019
27.688457 -14.519842 64.881627
26.987133 -15.247814 64.842511
25.875575 -16.090039 64.742031
-72.867973 15.014664 76.842769
-56.421078 -46.479320 143.838311
-72.694312 15.821277 77.940961
-68.036609 2.576116 116.705388
-57.330778 -38.233911 128.885255
-62.262215 -5.641945 122.275399
-56.807026 -40.721387 133.484691
-63.307111 -26.848596 133.533586
-58.937973 -34.194654 133.505879
-68.893014 -0.506549 83.193233
-72.554878 2.690344 102.159794
-73.253839 28.692445 110.160727
-64.251039 -2.310296 91.862404
-65.273036 -1.640354 91.874628
-76.752393 13.276674 97.874920
-50.413696 -15.184658 77.719302
-22.471634 -10.621486 147.867300
-76.854340 13.268688 98.972623
-50.681236 -33.079593 132.934617
-51.792875 -29.009043 135.467403
-51.918618 -28.193711 135.460069
-51.632661 -30.632862 135.498370
-73.044404 15.019880 75.751666
-41.494507 10.918445 119.202318
-50.455909 -30.636285 131.653555
-51.618074 -9.448239 126.538271
-48.633574 33.578082 60.148299
-60.695603 13.418308 53.960086
-59.432632 36.866874 90.386575
-62.510604 22.961975 59.057360
-70.560676 3.568784 82.197395
-42.958030 19.081058 115.413732
-50.730457 -4.543051 120.246237
36.763705 1.788581 70.211725
-50.737629 -18.400677 124.013634
-50.846829 -33.081141 134.206714
-51.581972 -7.827370 117.643367
-40.522301 4.388240 115.439810
-42.748513 14.967317 117.899253
-50.299525 -15.956229 126.568424
-51.297890 -22.487118 132.924837
-54.217358 -42.647136 126.790898
-50.844628 -21.661518 123.997336
34.243387 9.095213 83.830505
-51.172065 -29.019963 126.492636
36.453626 13.174238 75.937550
-56.531419 -7.280514 115.309422
-57.262243 -45.625605 143.847275
30.852321 -5.573939 83.634108
33.675384 13.987615 83.815836
-62.619070 10.151030 55.594907
37.408392 7.472918 71.401271
36.088132 20.494056 66.750413
36.315496 19.689236 66.765734
36.613840 18.873660 66.785536
36.844382 18.065906 66.802324
37.050884 17.253182 66.816911
37.188607 16.446732 66.829298
37.323477 15.621865 66.835084
37.337982 14.809548 66.835084
37.393886 13.992586 66.838833
37.466985 13.177335 66.840870
37.512376 12.365099 66.847308
37.530712 11.551641 66.848530
37.599899 10.732397 66.851219
37.642846 9.921547 66.855864
37.713826 9.105970 66.860672
37.739333 8.293001 66.863117
37.740555 7.480212 66.863525
37.726783 6.665629 66.861080
37.697609 5.854991 66.856027
37.605196 5.042348 66.849427
37.497219 4.231171 66.838344
37.372454 3.421266 66.824897
37.189992 2.605355 66.808680
37.043876 1.803934 66.790507
36.732901 0.961008 66.777469
36.475629 0.162252 66.750169
36.161638 -0.652307 66.725639
35.856775 -1.468454 66.703229
35.609608 -2.269924 66.711949
35.323896 -3.091621 66.661586
35.009172 -3.903849 66.636568
34.683202 -4.710412 66.613669
34.264167 -5.522395 66.580909
33.845866 -6.334794 66.550757
33.500175 -7.140396 66.533154
33.138023 -7.973828 66.489963
32.792413 -8.771933 66.471383
32.317312 -9.604134 66.419146
31.859813 -10.393144 66.396328
31.337528 -11.199023 66.356886
30.790387 -11.987137 66.323393
29.908476 -12.837348 66.232773
29.240074 -13.602970 66.194879
28.318476 -14.414880 66.110779
27.217268 -15.269573 66.003861
-72.842954 16.636365 76.850429
-72.888183 15.828937 76.850021
-30.234608 -19.095808 37.620272
-72.772545 14.193872 77.938516
-70.680062 -1.395974 102.097045
-56.611526 -41.510561 128.860807
-67.068560 0.942257 116.683385
-64.695254 -1.487556 120.027022
-63.251778 -3.134820 118.878793
-63.115033 -18.704400 133.571073
-71.390106 6.028822 83.338290
-72.645172 23.790590 112.379767
-73.260196 29.507370 110.165616
-66.809088 -0.691276 91.921079
1.619443 -8.559645 100.277318
-75.846197 28.755194 97.937669
-75.915791 29.573949 97.946633
-70.418145 1.817926 111.093001
-76.943901 14.084265 98.980773
-51.733222 -29.903016 135.523633
-51.535277 -31.450313 135.488591
-51.073867 -32.274691 129.057204
-51.686609 -20.748476 132.919948
-50.702913 -24.116560 125.250690
-51.106301 -20.030038 131.686152
-50.199697 -22.480110 129.108544
-39.495985 6.039465 117.962002
-51.137838 -7.805472 118.945617
-53.192182 17.015631 49.961739
-41.296317 1.959405 114.171787
-42.881672 18.255947 115.403953
-40.148495 5.221827 116.676866
-39.134158 3.608063 117.647441
-50.528030 -29.008473 129.088986
-50.418178 -28.191673 129.093876
36.088866 14.796265 77.049922
-51.432923 -7.033168 117.650701
-40.593200 3.585563 115.452034
-40.867259 2.751659 115.427586
-50.073709 18.148458 49.440105
-50.228464 -20.038024 129.107729
37.164485 5.844234 74.820288
32.478260 20.518993 83.757161
-7.410739 -21.819205 143.196965
-50.233435 -19.225952 129.105285
34.273539 -3.089812 76.898917
-22.616854 -2.062436 126.800677
-51.371803 -10.259170 126.549680
-50.003544 -47.747344 140.603059
35.433748 22.147050 67.838827
37.357867 8.282000 71.395729
36.034999 20.511903 67.885603
36.336358 19.696408 67.908258
36.560707 18.885883 67.923335
36.791901 18.054008 67.940611
36.939647 17.251470 67.950553
37.111352 16.434427 67.960658
37.155032 15.626999 67.965303
37.213380 14.806614 67.967014
37.279471 13.990222 67.969459
37.327144 13.178394 67.976060
37.394620 12.362899 67.977364
37.419230 11.547730 67.981113
37.489558 10.731338 67.984209
37.534624 9.919754 67.989832
37.603403 9.103607 67.993011
37.631518 8.291045 67.996515
37.698016 7.477848 67.998471
37.645617 6.663755 67.996596
37.598595 5.854404 67.989017
37.505123 5.041044 67.981602
37.360556 4.219656 67.972800
37.221937 3.412359 67.958376
36.991639 2.603832 67.937188
36.740887 1.802418 67.913637
36.445069 0.983777 67.886255
36.156586 0.172055 67.854066
35.967279 -0.656618 67.855533
35.808042 -1.482829 67.843309
35.663882 -2.290077 67.830596
35.434073 -3.094327 67.821224
35.177861 -3.892244 67.798732
34.803322 -4.720794 67.764913
34.455593 -5.520684 67.744051
34.084476 -6.351125 67.705424
33.736748 -7.150045 67.685865
33.406785 -7.958279 67.661907
33.018636 -8.781793 67.624502
32.609136 -9.596963 67.589623
32.097527 -10.413599 67.547736
31.575649 -11.222167 67.505767
31.068766 -12.044834 67.462006
30.336963 -12.851691 67.403575
29.575497 -13.627336 67.350361
28.735962 -14.456767 67.354272
-45.354969 -5.887237 101.251968
-23.335455 -22.488259 74.827296
-75.851901 10.796532 104.492109
-69.924871 -0.466919 77.708300
-72.704091 15.010345 77.939739
-75.229788 25.476262 102.330929
-73.724866 11.595321 110.080864
-63.238413 -12.151181 127.891862
-37.403176 -5.610864 136.046815
-60.378597 -7.241227 117.644182
-72.359052 9.131803 112.296645
-69.677786 1.123912 83.242129
-56.198522 -47.269961 144.997949
-48.728921 -15.990129 75.411923
-72.849963 6.791054 92.252753
-70.066913 -1.455717 97.604364
-75.987586 30.387407 97.951522
-76.004374 31.202658 97.956412
-1.300865 -22.743167 79.947306
-76.962481 14.896908 98.984032
-76.511094 15.682251 104.530411
-50.956110 -31.450395 134.209159
-51.362595 -33.072910 135.518743
-51.495509 -32.261327 135.509779
37.273766 9.096599 71.391410
-75.511589 23.056261 98.992182
-50.691911 -33.895088 132.928912
-49.920585 -46.940242 136.750910
-51.464216 34.971115 29.396377
-50.874455 -33.084645 130.354564
-24.604537 -2.909868 125.477239
-51.029290 -6.992552 118.961100
-47.124985 28.848421 54.340656
-44.068854 20.692246 119.150978
-37.062945 -8.564779 100.598398
-51.698588 -36.343367 129.037646
-51.566652 -35.531783 129.039276
-7.087548 -21.007622 140.742412
-50.302133 -27.377319 129.093876
-16.201602 -7.183228 99.173910
-50.948694 -5.364235 117.705301
-42.164701 31.636116 57.386927
-51.618889 -30.654621 126.470633
-7.967561 -19.357480 141.946056
-43.094530 19.074783 116.663012
-50.841613 -10.247843 121.499591
-50.408562 -26.559868 127.810369
35.873725 0.962100 77.024578
-36.761668 2.818524 119.070300
-50.911941 -39.595732 132.908539
-48.595762 18.603186 49.254140
-38.057806 2.815533 118.122542
-8.463402 -18.579390 141.918348
35.733314 21.328295 69.003680
36.015930 20.502613 69.024461
36.311014 19.686547 69.046627
36.540578 18.879120 69.065778
36.742843 18.064113 69.079631
36.895804 17.242832 69.089085
36.956353 16.439561 69.092996
37.044854 15.622924 69.098864
37.116812 14.806777 69.101145
37.146068 13.995030 69.105953
37.212973 13.177335 69.108317
37.300251 12.360454 69.113288
37.333989 11.548137 69.117281
37.388997 10.729301 69.117118
37.425505 9.918613 69.121519
37.495100 9.101570 69.125267
37.520933 8.289171 69.127467
37.585149 7.476968 69.130972
37.545299 6.663926 69.130564
37.503086 5.853410 69.124045
37.389730 5.042233 69.112962
37.263743 4.234708 69.098538
37.094646 3.416646 69.088840
36.849679 2.611353 69.067733
36.632420 1.824633 69.045568
36.481985 0.969117 69.042145
36.309221 0.147045 69.020223
36.173536 -0.660040 69.021364
36.033206 -1.470605 69.011585
35.862479 -2.288374 68.991701
35.628189 -3.094938 68.975321
-55.625222 13.398750 127.376829
-31.693894 21.440510 100.412596
-28.770759 5.598689 103.903734
-57.368917 12.779489 127.376829
-29.533529 5.319137 104.114799
-75.642629 27.930897 100.126557
-62.472628 -27.691309 133.489580
-32.922149 7.682614 104.883273
-68.974914 11.130651 125.210759
-62.625019 32.790946 120.953591
-56.015571 8.526477 127.043525
-30.297113 5.041590 104.325865
-31.063794 4.763219 104.501888
-51.136534 -48.742611 145.202495
-51.696877 -48.793300 145.878068
-60.043256 -10.474881 118.808709
-75.053682 25.518557 95.715369
-56.520906 13.081092 127.373569
-25.848112 17.501489 101.168846
-60.535959 6.917824 126.787638
-31.939757 4.429622 104.554044
-32.746777 4.137390 104.684432
-50.993271 -47.403853 144.461729
-51.433330 -47.557059 145.328809
-51.925871 -47.747832 146.068760
-52.511965 -47.985057 146.645727
-53.223476 -48.336616 147.029557
-75.781084 30.373961 100.146930
-75.700325 29.557243 100.142040
-37.372372 18.069736 105.609371
-43.522692 15.408844 124.029933
-61.288298 14.965036 127.205695
-39.705584 19.537334 109.234972
-33.552412 3.841067 104.810745
-34.357965 3.546757 104.918315
10.733864 19.979187 104.621682
-51.822864 -46.514362 145.322289
-52.311249 -46.694216 146.058166
-52.890823 -46.917343 146.641653
-53.560936 -47.155138 147.054819
-54.271224 -47.422189 147.344118
-54.969045 -47.575231 147.441094
-33.724606 7.387571 105.023440
-30.262968 20.730873 100.720637
-60.387480 15.277885 127.225253
-40.197472 19.344768 109.972479
-35.154310 3.246465 105.046258
-35.942505 2.945415 105.169312
-51.437649 -45.197199 143.452852
-51.852120 -45.346167 144.332970
-52.292587 -45.505811 145.198421
-52.793440 -45.680450 145.873993
-53.355493 -45.883121 146.507190
-53.956989 -46.111137 147.033631
-54.629302 -46.359608 147.418276
-55.383597 -46.633667 147.613858
-69.917293 -2.217427 100.948816
-36.696066 2.665008 105.364894
-37.391849 2.392253 105.672121
-31.024760 20.473765 100.963485
-40.699058 19.146252 110.696947
-74.821510 32.887678 94.619295
-51.499584 -44.038621 142.396709
-51.882761 -44.177728 143.351801
-52.320620 -44.334438 144.163466
-52.793114 -44.506061 144.954758
-53.287936 -44.682411 145.680041
-53.833365 -44.881579 146.314868
-54.402916 -45.081561 146.900799
-55.064554 -45.307621 147.342488
-55.700603 -45.550225 147.712464
-56.624809 -45.958828 147.846111
-57.337379 -46.058656 147.755655
-10.117537 15.946694 105.237766
-36.721329 14.691384 106.212416
-70.073269 10.757986 124.697356
-41.198770 18.948877 111.423045
-53.415961 2.351237 125.923818
-49.318519 25.134890 125.381893
-51.932390 -43.015482 142.293214
-52.336430 -43.155649 143.188816
-52.800774 -43.324420 143.985812
-53.298367 -43.504519 144.707021
-53.856509 -43.714280 145.327994
-54.361600 -43.896172 146.041868
-54.929765 -44.094117 146.623724
-55.543078 -44.308035 147.139572
-56.207730 -44.532302 147.519327
-56.904491 -44.761051 147.822479
-57.904730 -45.218713 147.662753
-58.513234 -45.354969 147.544589
-46.608323 14.256051 126.521158
-28.137073 22.749605 98.836531
-47.798113 19.739925 126.284015
-27.100000 18.248449 101.189219
-55.406578 24.174501 126.198448
-11.100091 15.596195 105.022625
-51.933449 -41.851118 141.294931
-52.377502 -41.998293 142.182384
-52.819599 -42.151173 143.004643
-53.307087 -42.324426 143.736445
-53.806880 -42.505747 144.456024
-54.376268 -42.720317 145.063143
-54.927157 -42.926085 145.691450
-55.496790 -43.125416 146.269232
-56.083291 -43.336644 146.829900
-56.704427 -43.554229 147.335154
-57.427510 -43.822339 147.679052
-58.314800 -44.168846 147.567407
-59.208610 -44.556424 147.446798
1.000231 29.523505 98.967734
-43.954113 12.873205 125.086890
-46.227998 17.935111 126.134069
-8.444170 -24.098469 146.256193
-75.550542 27.118743 100.121667
-62.877646 -18.666750 129.011568
-52.223400 14.605246 127.243996
-44.004231 15.224019 124.820410
-12.080609 15.240725 104.812375
-40.991209 21.456401 109.948031
-64.676185 29.635557 122.306367
-29.396458 16.200136 102.762024
-4.805318 42.375522 79.941357
-52.366012 -40.825535 141.194695
-52.805501 -40.971814 142.029178
-53.302931 -41.142296 142.764240
-53.795145 -41.321091 143.549828
-54.357851 -41.537372 144.159391
-54.895783 -41.730183 144.802367
-55.461341 -41.925357 145.385853
-56.023557 -42.141964 145.994602
-56.647871 -42.367210 146.474593
-57.272674 -42.589929 146.957843
-57.984185 -42.832613 147.331079
-58.685917 -43.058755 147.500583
-59.910015 -43.674594 147.216175
-60.412498 -43.737506 147.080897
-52.507727 28.888027 123.968813
-13.013209 14.901471 104.659169
-34.374508 20.468631 100.245536
-44.153688 11.615042 125.657338
-59.607678 27.623182 124.590601
-51.200017 29.381790 123.101733
-56.422219 27.472910 124.845672
-61.500178 25.709820 125.206684
-67.385566 23.769973 124.160321
-34.482160 7.107481 105.233691
-35.203042 6.846216 105.500986
-40.809481 17.893061 111.429565
-35.893039 6.573754 105.831031
-21.121222 19.212261 100.221088
-66.344581 24.108492 124.461843
-36.598275 6.318137 106.233604
-69.416847 8.593709 124.459398
-37.104506 6.096298 106.797532
-37.637223 5.887099 107.440507
-14.042215 14.537770 104.375575
-35.696072 2.724066 136.401307
-62.672448 24.079563 125.558732
-49.891003 10.711128 127.068787
-56.535982 22.573581 126.621394
-55.684630 22.873718 126.578203
-36.594119 2.458205 136.430644
-37.469756 2.111764 136.388268
-8.711954 -23.363407 147.713279
-9.261050 -23.486868 148.423893
-70.926740 5.046447 113.372345
-50.515969 15.211306 127.155169
-45.004714 20.764856 124.909237
-42.845571 23.151689 111.277174
-58.538741 18.299138 127.261925
-30.453253 -1.224971 141.292486
11.047773 15.434677 105.672935
-13.301203 7.701317 104.730067
-52.789447 -39.797833 141.154764
