ply
format ascii 1.0
element vertex 1632
property float x
property float y
property float z
end_header
15.147889 48.932806 32.666344
16.265656 48.249655 31.775362
16.973254 48.840662 31.247405
17.800434 49.039213 32.529883
18.536237 49.334759 32.262565
20.059453 48.444638 32.580528
20.490797 48.644976 31.789945
22.914418 49.667395 32.080713
22.902079 48.950138 31.528193
24.221517 48.956735 32.383764
25.234963 48.897833 32.230875
26.333670 49.076187 31.726338
26.810449 48.955824 31.508351
28.689472 48.572796 32.394571
29.097420 49.476678 31.589044
30.084308 49.154546 31.978015
31.103038 48.893207 31.820356
32.456320 48.810930 31.855871
33.480686 48.936931 31.155533
33.938990 48.673707 31.714248
34.199601 48.678658 32.271916
35.643354 49.593447 32.359786
36.302717 49.330070 32.076226
37.429150 48.536700 32.585566
39.163786 49.728624 31.703594
39.643318 49.245444 32.175587
41.540875 49.163122 32.144190
42.251302 48.486734 31.838632
42.736108 49.438146 31.210387
43.984108 49.038209 31.831112
45.375480 48.350529 31.876380
46.103275 49.362091 32.128428
46.718891 49.544895 32.064730
48.663386 49.081065 32.553612
49.095151 48.559387 32.757545
49.711120 48.137520 31.007721
49.480357 46.765161 31.599308
49.078921 45.685530 31.785773
48.891674 45.122093 31.796269
48.620368 43.713323 31.782516
49.569464 42.680782 32.286224
49.550458 42.246403 32.940265
49.014685 41.045469 32.169096
48.777134 39.781378 31.950069
49.054188 39.383946 31.680426
48.706219 37.439832 32.496955
48.845868 36.684527 31.742536
48.880427 35.118370 31.761892
49.049208 34.806458 31.835470
48.975991 34.335522 32.088587
49.429264 32.526420 31.639786
48.656401 32.117415 31.129339
49.473842 30.761427 32.347569
49.452963 30.346256 31.067707
49.230316 29.019958 31.838512
49.122944 27.516386 32.041403
48.493789 27.323739 31.276809
49.306563 26.226439 32.362541
49.025093 24.711002 32.006651
48.832789 24.183181 31.370145
49.255867 23.162349 32.613881
49.276726 22.158234 31.796477
49.837189 21.117957 31.990535
49.080916 19.158328 32.078563
48.364661 18.917920 32.818938
48.375685 18.464154 32.139837
48.498196 17.228003 32.139085
48.490341 16.525122 31.248884
48.780466 15.812941 32.021591
49.379084 14.062534 32.048119
48.757564 12.943953 32.391307
48.705512 12.604936 31.336134
48.351970 11.124345 32.002388
49.171695 9.726527 32.142219
49.043506 8.966394 31.528773
48.860987 8.037721 31.726288
48.995977 6.628158 31.897759
48.807308 5.960148 32.311131
49.241373 4.595381 31.129717
49.850982 4.081250 32.727094
49.173376 3.402757 31.181664
49.459702 2.161735 31.934089
49.203408 0.670413 31.711307
48.039343 1.259707 31.781220
47.891898 1.244252 32.200888
45.324858 0.616338 32.330697
44.800463 1.224551 31.667642
44.546635 0.167838 31.881262
42.899578 1.415918 32.694410
42.214612 1.182953 31.064375
40.826296 0.369560 32.559561
40.578656 0.694540 31.199074
39.356985 0.519811 32.358233
37.786512 0.792393 32.061808
36.890041 1.733040 31.363811
35.752351 1.390040 32.236835
35.269527 1.502056 31.099498
33.052960 1.673231 31.545974
33.354546 1.098339 32.577433
31.334992 1.133012 31.229463
30.156774 0.997188 32.327567
29.889306 2.098224 31.676697
29.520588 1.166299 31.671923
28.668454 0.775372 32.380878
27.548494 0.539990 31.678693
25.431102 1.229236 31.926698
25.371384 1.019854 32.037011
23.782971 1.032306 31.989692
21.993559 1.622714 32.185038
22.454115 1.147007 31.977041
20.557446 1.724156 31.671169
19.497096 0.977263 32.528534
18.313382 0.517458 31.577662
17.869732 0.706830 31.738322
17.526300 1.143663 31.642111
15.420619 1.689191 32.886687
15.741283 1.574971 31.998943
13.781758 1.056098 31.620265
12.915484 0.664169 32.247032
12.200117 0.734067 31.994854
11.641780 1.397276 32.001567
9.660360 0.673594 31.973836
9.739472 0.941545 32.160143
8.213160 0.801585 31.862986
6.443649 0.903805 32.067603
5.402916 1.361759 32.058376
4.701659 0.463833 32.051891
3.763552 0.471352 32.019128
3.771258 1.797284 32.279509
1.397841 1.376797 32.417689
2.198631 1.534815 33.369728
-0.104892 1.662405 32.871228
0.889363 2.634146 33.188147
0.846957 4.324475 32.652969
1.107446 5.077226 33.010658
1.172092 6.126549 33.145268
0.643463 7.514775 32.381522
1.166360 8.007379 33.223379
0.312048 9.575235 32.349480
0.657606 10.272594 32.422294
1.606283 11.210114 32.449168
1.373770 12.200461 33.138944
0.584476 12.723656 33.218236
1.610357 14.634414 33.154348
0.927162 15.392559 32.625949
1.016988 16.260498 32.886399
1.190362 16.702448 33.186881
1.068887 17.334680 33.473969
1.926180 18.858656 33.198722
1.027350 20.176565 32.951784
1.055105 20.848719 32.727560
0.884642 21.627826 32.232639
0.426591 23.428168 33.182740
1.155039 24.948561 32.331052
1.222395 25.619619 32.883737
1.219123 25.994399 33.167535
1.248354 27.449015 33.666191
1.401558 28.062905 32.890855
0.690524 29.561730 32.775345
1.223657 29.720843 33.266224
1.241836 31.214293 32.848986
0.822571 32.395922 33.245573
0.989054 33.154976 32.775594
0.674548 33.484650 33.587453
1.155743 35.554055 33.174709
0.863537 35.899686 33.015155
1.766871 36.753903 33.607313
1.186443 37.967995 33.146307
0.877848 38.795225 33.332245
0.709445 40.100514 33.321831
-0.065963 41.536528 32.894904
1.089650 42.459353 33.181629
0.686322 43.337386 32.758397
1.092941 44.021326 32.605831
0.398119 45.010244 33.372999
1.313085 46.041264 32.273654
0.733155 47.820839 33.249753
1.162417 48.631102 33.193543
0.693885 48.339066 33.141619
1.971995 48.790710 32.893761
3.484147 48.913235 33.267514
4.027358 49.394191 32.968864
5.129393 49.211786 33.170127
6.500453 48.864635 32.966677
6.822428 48.831570 32.937642
8.183882 48.685597 32.841050
9.426662 48.953566 32.911276
10.456216 49.663574 33.151946
11.253417 49.589587 33.137852
13.071487 49.065057 33.258623
12.490935 49.339234 33.501357
13.662877 49.362164 32.837565
15.117357 48.663164 33.065257
15.818621 48.648110 33.140895
17.196685 48.548986 32.405121
17.450084 49.310763 33.038648
19.031826 48.866667 32.976494
20.342021 49.238389 32.650342
20.595941 49.711309 33.721957
21.863414 49.469813 32.074138
22.191523 48.822110 32.924287
23.666522 48.385302 33.606067
25.122101 49.351274 32.313414
26.517057 49.163799 32.795994
27.501783 49.052026 32.942176
28.102746 49.415862 32.891113
28.758454 49.105912 33.417910
29.426932 49.446172 32.634901
31.316381 49.349697 33.061225
32.151248 48.678145 33.047803
32.775335 48.504258 33.047055
33.901922 48.491272 34.116637
35.028695 49.514782 32.785973
35.693809 48.975635 33.595963
36.727899 49.161909 32.944714
37.886473 48.785370 33.327899
38.773276 49.312922 33.877313
40.554956 49.173025 32.883073
41.093494 49.111543 33.203794
42.230987 49.184605 32.439003
43.862374 48.743398 33.761902
43.852111 49.508800 33.819646
44.882214 48.901827 32.284235
45.473486 49.688234 33.205310
47.187747 49.273020 33.477973
47.805414 48.962612 33.532642
48.699082 49.306184 33.257212
49.261257 47.890784 32.933168
48.448104 46.830168 33.137875
47.968041 46.540756 32.622433
49.670628 44.823937 33.103028
49.533650 44.279680 33.271099
49.269243 43.475809 32.874051
48.263958 41.541212 32.997672
48.837899 40.795004 32.938502
49.914769 40.663673 32.815934
49.327468 39.010185 33.227436
48.711971 37.929949 32.393246
48.776295 36.861075 32.403533
48.855287 36.206553 32.238030
48.878036 34.515425 33.026716
48.606593 33.719462 32.538080
49.799615 34.092012 32.817099
49.390356 32.517183 33.522819
49.153301 30.922440 32.566054
49.612432 29.758873 32.758464
48.621883 28.887182 32.567479
49.019194 28.092679 32.699664
49.040829 27.078415 33.085137
48.531744 25.785245 33.790406
49.269585 24.826649 33.035371
48.920956 23.509219 32.544331
49.509250 22.949430 32.869638
49.278693 22.523007 33.046495
48.770376 20.716292 33.049786
49.572722 19.905037 32.523599
49.464124 18.666779 32.660005
49.361338 18.285068 32.974945
49.350951 17.057340 33.144896
48.846523 16.424972 32.728736
48.412272 14.469690 33.523954
49.266644 14.395273 32.546895
49.352214 12.821800 33.215088
49.404050 12.326061 32.654600
48.580669 10.884443 34.037499
48.766338 10.446406 33.108120
49.322024 8.948132 33.291003
49.293537 8.243367 32.921126
49.341752 6.745613 32.726246
48.651011 6.434009 32.779554
49.332986 5.110785 33.318896
49.157893 4.265674 32.751581
49.289551 2.511307 32.876750
48.014346 1.899945 33.639094
48.637007 1.055644 33.316018
48.616330 1.036727 32.901997
47.446417 1.856070 32.498681
45.326602 1.076699 32.701318
44.704661 1.001510 33.209347
43.056100 0.599851 32.794272
43.077405 0.857254 33.556635
41.952139 1.500132 32.662704
40.721663 1.022794 33.235074
39.645194 1.109025 33.154289
38.655531 1.147552 33.286389
37.292839 1.190935 33.234246
36.431293 1.877375 33.876293
36.193350 1.396133 32.106516
35.087866 1.140959 32.519888
34.445655 1.149251 32.781570
33.208848 1.136065 32.873141
31.946577 1.250549 33.369920
30.871194 1.358377 33.444100
29.454669 1.172156 32.875163
28.746537 0.684615 32.419474
27.930532 1.728666 33.310345
26.856293 1.358164 33.606332
25.271623 1.093800 32.937082
24.661779 0.304653 32.980029
23.561528 1.199154 33.099790
23.134144 1.136367 33.686707
21.968911 1.203933 33.008018
20.780178 0.334906 33.316492
19.581183 0.824821 32.425938
18.593703 1.250789 33.274238
17.094104 1.276504 33.061931
17.546515 1.635891 32.795082
15.609994 0.955827 33.051640
14.006804 0.728618 33.099239
13.846729 0.993442 32.968109
13.226873 0.444866 32.700682
11.647305 1.234656 32.997376
10.889469 0.708361 33.119793
10.037918 1.222517 33.643172
9.032806 0.694411 32.647612
8.452244 0.884636 32.911516
6.399169 1.269734 33.337429
6.497494 1.103755 33.008215
5.582159 0.994195 32.599470
4.217901 1.112860 33.613365
2.632349 0.500517 33.626339
1.513867 0.537321 32.333708
0.806217 0.839026 33.920902
0.827704 2.020338 33.249811
1.115940 2.771130 34.787767
1.373735 3.468998 33.587192
1.384222 5.335442 34.093475
1.405490 5.474202 34.022849
0.980970 6.658040 34.422117
0.940677 7.807672 33.653123
1.062025 9.346784 34.344469
1.179887 9.335750 34.113011
0.598316 10.405874 33.732928
1.269612 11.507012 33.134309
0.978793 12.835298 33.269444
0.289283 14.344617 33.969502
0.755390 14.207506 34.517467
1.030502 16.334362 34.675875
1.175991 16.723936 34.043089
1.247622 18.136801 34.442683
1.142562 18.291519 33.869353
1.306346 19.672865 33.662272
1.090557 21.001816 34.272854
0.834982 21.782059 34.136022
1.424003 23.590543 33.783677
1.020116 22.938443 33.928841
0.967995 25.163171 33.682795
0.535638 25.799079 34.962579
1.321612 27.227821 33.561927
0.693694 28.297952 33.967544
1.345065 28.460112 34.074180
0.486134 29.820957 34.076894
1.092260 30.844290 33.937618
0.839647 32.218123 33.624304
0.964108 32.598790 34.503529
0.440572 34.714680 33.566157
0.776066 35.006120 33.357172
1.383480 36.117915 33.307630
1.922244 37.038726 34.546687
1.277784 37.906951 33.851644
0.258947 38.834902 34.100150
0.812883 39.709177 33.409610
1.166922 40.731911 33.481963
0.724288 42.069147 34.896869
1.824412 43.440289 33.885085
0.975782 43.228578 33.503559
1.514029 44.948532 34.298716
1.114266 45.905449 34.581339
1.029233 46.482252 33.353317
1.733551 47.508179 34.559254
0.518653 48.967348 34.020446
1.801070 48.883666 34.111347
2.371787 48.846828 33.978661
4.110790 49.183841 33.946716
5.172157 49.110471 34.512105
6.213363 48.913473 33.786347
7.425176 48.739969 34.499443
7.484556 48.664999 34.043347
9.571919 48.936641 33.791120
9.261189 48.842230 34.282479
11.216764 48.832745 33.927648
11.226507 48.883292 33.746350
13.323564 48.620393 33.574004
14.098651 48.676756 34.419701
15.481508 48.643434 34.272776
16.271338 49.027740 34.472225
17.515473 49.461017 34.483340
17.762142 49.668295 34.184473
18.364391 49.228858 33.793600
19.197868 48.266489 33.072808
21.811555 48.509185 33.350002
22.453376 49.130530 34.525768
23.305233 48.732123 33.692650
24.210499 49.277203 34.694710
24.608128 49.095603 33.117334
26.054801 49.326448 34.596972
26.893343 49.079897 33.611023
28.182061 49.545653 34.154494
28.773781 48.584012 33.770520
30.988655 49.505434 33.633206
30.501714 48.863760 34.534829
32.313529 49.572051 33.858277
33.262992 48.479637 33.710874
33.887553 49.274611 34.003937
36.224542 48.635165 34.054847
35.825371 48.513926 33.192061
36.948574 48.762284 33.369177
38.874172 48.737358 34.534137
39.677727 48.848470 34.090208
39.404069 49.290074 34.530788
41.446448 48.925618 33.715554
42.170133 49.324564 34.446752
43.217244 49.433589 34.114721
43.776325 48.785090 34.373474
44.472768 49.387149 34.532476
45.452785 48.464402 34.023523
46.529841 48.512586 34.459062
47.757295 47.983053 34.227984
48.528105 48.903164 34.190857
49.403167 48.524107 34.081652
49.098721 47.270229 33.937531
49.089890 45.988797 33.624035
48.512587 44.832441 34.229096
49.291841 44.295263 34.404576
47.995579 42.756592 33.898909
48.742700 41.769122 32.833989
49.238202 41.678250 33.659159
49.800922 39.576503 33.298396
48.834144 39.481822 33.941482
49.347430 37.769726 34.718830
49.898635 36.362607 33.530117
48.749858 36.559175 34.335204
48.719282 35.555336 34.189234
49.925610 32.886179 34.195987
49.047152 33.624038 33.685206
49.456269 31.496228 33.918067
49.123129 30.685972 34.163546
49.299804 29.675157 33.906882
49.263061 29.163750 33.967211
49.174805 27.818611 33.760168
47.883552 26.560850 34.530223
48.787310 26.092679 34.204441
48.818540 25.096596 33.834704
48.647294 23.641165 33.997525
48.688270 23.071728 34.892734
48.796166 22.415248 33.538092
48.518014 21.591702 34.088061
49.017785 19.556988 33.571687
48.683082 19.242633 33.465968
48.695293 17.964716 34.040475
48.346774 16.868634 34.250931
49.351253 16.305167 34.035840
48.260922 15.030218 34.031276
49.318637 13.708744 33.907476
48.998747 12.639411 33.977058
49.253835 11.544078 34.196814
48.739350 10.656203 34.302311
49.214781 9.831250 33.223527
49.375897 9.721428 34.073703
49.089954 7.942079 33.724914
49.065330 6.940586 34.204424
49.011889 6.083340 34.568493
48.946729 4.398441 33.998013
49.065220 3.694539 33.900057
48.856338 2.855092 34.221182
48.307273 2.825271 33.353257
49.426648 0.391456 34.133631
47.743591 1.417003 34.321483
46.960370 1.001920 33.705203
45.934145 0.652693 33.809945
45.254388 0.701785 33.750995
44.600939 1.146736 34.102371
42.125832 0.175519 34.571069
42.115387 0.212516 34.133467
40.837597 0.553458 33.869503
39.451663 0.041108 33.706145
38.856312 0.064456 33.633198
37.935589 1.251912 33.988122
37.892432 1.294090 33.936942
35.414039 1.068628 34.596480
35.772811 0.725230 33.997188
34.011092 0.540146 34.037689
33.332733 0.350327 33.709753
31.828003 0.745029 34.159796
30.578589 1.098393 34.080578
30.263346 0.766809 33.382866
29.314018 1.399706 33.741694
28.367791 0.964812 34.435485
26.904755 0.814603 33.240142
26.396604 0.816177 33.746392
24.920352 1.119326 33.727458
24.527170 1.626162 34.324195
23.057924 1.210970 33.472655
21.900417 1.315533 34.246216
20.323419 0.140119 33.587153
20.918252 1.622834 33.819502
19.287831 1.159054 32.903377
17.834125 1.306935 34.478175
17.081390 0.296794 33.612414
15.873083 1.455796 33.463857
14.749300 0.461179 34.011946
13.671437 1.612297 33.472663
12.376817 0.760723 33.614993
12.549364 1.258136 34.071408
11.346724 0.552284 33.930861
9.921919 1.088595 33.209560
8.846563 0.652446 34.531733
8.401988 0.474652 34.046189
6.260776 1.500585 33.474558
4.857641 1.407338 33.034911
4.656326 0.832679 33.806768
3.614966 0.684797 34.375660
3.561934 0.832303 33.788893
1.658629 0.918751 34.243286
0.314369 0.885041 35.684590
0.388797 1.160933 35.109019
0.802549 2.695449 35.090220
1.279147 4.073701 35.165423
-0.029607 4.617611 35.416019
0.790494 5.383557 35.362003
0.692614 6.584909 35.484614
1.466221 8.067492 34.961358
1.828173 8.836148 34.562403
1.216656 9.566725 35.331470
1.295467 11.658464 34.172237
0.744486 12.539512 34.692822
0.588959 13.122253 35.288821
0.965090 13.819231 35.012459
1.301476 15.118332 35.838858
1.885523 16.290856 34.952856
1.107378 16.840245 35.647148
0.608293 17.519627 34.863234
0.610221 19.054997 34.833200
0.550720 20.694469 35.453803
1.257340 20.801513 34.791731
1.152708 21.706086 34.291089
1.059132 22.658008 36.110737
1.192537 24.795502 35.681054
0.962584 24.989753 35.375306
0.784710 25.461408 35.176754
1.175317 26.872234 34.433249
1.234820 28.560622 34.957945
0.588533 29.415368 35.182692
0.069197 29.990895 34.576506
0.737571 31.371704 35.333945
0.536996 32.148236 34.301805
0.639749 32.627920 35.063546
1.390633 34.358284 35.074046
0.696542 34.427449 35.811879
0.955662 36.523824 35.228554
2.148842 37.243443 35.104505
1.009217 38.231147 34.529541
0.602042 38.644377 35.101337
1.087554 39.907742 34.887869
0.423151 41.180645 34.934143
0.695403 42.932103 34.646899
0.781562 42.829162 35.372288
1.004728 43.613179 35.527712
1.482866 45.484806 35.201248
1.062750 45.522267 36.054695
0.921972 46.262756 34.753253
1.091257 48.326695 35.222993
0.519645 48.948672 34.671319
2.164301 48.950144 34.644922
2.748605 49.277612 34.638908
4.196416 48.623007 34.366823
4.857661 47.908698 34.814978
5.636704 49.521353 34.581391
6.310735 49.106553 34.791300
8.064139 49.275910 35.007251
9.185649 49.462016 35.060493
9.767931 49.039097 34.842614
10.453912 48.906906 34.547532
11.533171 48.432925 35.214676
13.412263 48.795573 35.515272
13.704169 48.594120 34.528470
15.113274 48.270011 35.386607
15.993615 49.149831 34.906975
17.398655 49.736010 35.378226
17.779329 49.458653 35.565267
19.007888 48.219973 35.253170
20.693575 49.672609 34.688651
21.295306 48.619266 34.676053
22.876258 49.255228 34.879905
23.093810 48.687270 35.393848
24.276456 49.379751 34.551650
25.443379 49.027936 34.816791
26.391197 48.990555 35.368363
26.626477 48.950132 34.983054
27.177513 48.835717 34.849435
29.233255 48.759321 35.555753
29.659672 48.891227 35.094833
31.852528 49.201599 34.816660
32.217601 48.412098 36.242891
33.282032 48.787491 35.254149
34.291201 49.154276 35.650242
35.461995 49.000534 34.838093
35.879786 49.709079 35.006822
36.973670 48.762753 34.799456
38.089053 48.757198 35.215089
39.423734 49.691508 34.732972
40.197300 49.455760 34.703376
40.791404 49.298363 34.685313
42.381964 48.349254 34.867342
43.111589 48.873025 34.250145
43.599016 49.194734 34.915181
45.012516 49.357026 35.322210
45.547116 48.846121 35.210172
46.702794 49.107069 35.106334
48.238285 49.203435 34.820130
48.236830 49.272325 35.236645
48.428019 48.083919 35.027839
49.560672 46.983508 35.226539
49.169501 46.141095 35.246669
49.258518 45.386491 34.934906
49.418690 43.942254 35.491927
49.501928 43.116709 34.809154
49.120729 42.391249 35.238833
49.339301 40.593297 34.896842
48.698468 39.919510 35.425673
48.881324 39.003953 34.394659
48.868504 37.835206 34.904385
48.726909 36.936090 35.457913
48.790104 36.099400 34.903215
49.179829 35.192726 34.667156
48.907677 33.822004 34.553212
49.061846 32.446277 34.694222
48.841789 32.096628 35.331656
49.025162 31.064164 35.430256
49.383327 29.901793 35.221214
48.311447 29.614187 35.439053
49.545476 27.991289 35.237354
49.228675 26.978132 34.822565
49.569854 26.735435 35.448035
49.424150 24.769648 34.723647
48.500932 23.819296 35.029666
48.948395 23.399042 34.911666
48.812274 22.280589 35.021027
48.424914 21.324910 35.442086
49.638627 20.110322 34.975422
48.860053 19.980123 34.419639
48.904035 17.729792 34.932221
49.370217 17.363958 35.694060
48.946171 15.881738 35.951892
48.949263 14.618780 34.324510
49.184328 13.711691 35.327123
49.264230 13.898285 35.210465
49.326285 11.851133 35.684392
49.235961 11.351074 35.235392
49.334282 9.678278 34.482993
48.840379 9.223877 35.187715
48.297025 8.123800 34.362564
49.788992 7.159697 35.019608
48.762577 6.231694 34.953171
49.631493 4.642253 35.892422
49.618299 3.561877 35.144610
49.361772 3.172018 35.355555
49.273018 2.017704 35.223282
49.080159 1.127140 34.893867
47.927848 1.558730 34.727305
46.826789 0.839652 34.942401
45.745620 0.909719 35.167450
44.765668 1.419572 35.450788
44.679969 0.765506 34.686228
42.176866 1.168883 34.703374
41.917562 1.211910 34.557336
40.840642 0.499788 34.898262
40.365920 1.117533 35.394542
39.105014 1.684736 35.042312
37.614805 0.351895 34.675102
37.517041 0.714951 35.358459
36.635115 0.520196 34.530090
35.114239 0.882820 34.939585
34.047355 0.456865 34.848896
33.151870 0.962937 34.952583
31.819027 1.129450 34.597329
31.556717 0.924479 34.527738
29.257381 1.021352 35.021765
29.591154 0.530827 35.578557
27.689119 1.163076 34.508087
26.671327 0.905465 36.016199
26.064624 1.554003 35.184467
25.136623 1.149835 34.545393
24.219593 0.662166 34.267402
23.242642 1.391358 35.141259
21.463140 1.482090 33.823456
21.281049 1.103132 34.953396
20.273518 1.044565 34.988811
19.282344 0.959012 35.233551
18.071502 0.210385 35.066581
17.119473 0.941826 34.727360
15.661938 1.191173 34.809171
14.995552 0.838109 34.511004
14.320134 0.712266 35.543462
12.402281 0.507001 34.659831
11.842628 0.494641 35.298175
10.469497 0.559238 35.242206
10.535246 0.686722 35.713056
9.182674 1.129819 35.135983
8.519151 1.837051 34.786532
6.851272 1.546473 34.541491
6.223105 1.575149 35.304787
5.241278 1.483990 35.617448
4.411652 1.320911 34.267337
3.098879 1.484401 35.249116
2.211416 0.833451 35.449834
0.345670 0.902730 35.688335
1.491083 2.366329 35.962919
0.802069 2.839745 36.089343
0.727416 4.280555 35.461942
0.334065 5.328519 35.865497
1.039359 5.945902 36.035441
1.031207 7.316728 35.950408
1.140329 7.608107 35.970848
1.256259 8.721591 36.162111
0.879347 9.296095 35.933869
1.429597 11.091643 36.440980
0.818780 11.851474 35.552273
0.516122 13.241166 36.445995
0.835072 13.851939 36.135333
0.722570 14.890107 35.946119
1.063741 16.308216 36.257346
1.171565 17.537843 35.913547
0.548783 18.344078 36.682631
1.117762 18.754655 35.679646
0.795136 20.181579 35.629231
1.362534 20.850124 36.302272
0.707527 21.816623 35.811989
0.965334 22.781471 36.625224
0.796986 23.899505 36.258837
0.896615 25.523563 35.806312
1.210055 25.851981 35.678590
0.705397 26.851999 35.159236
0.446714 28.321910 35.654232
0.607167 29.364446 35.535528
0.460930 29.922011 35.586539
1.189942 30.935869 36.089184
1.081542 32.459373 34.933087
1.294683 33.213887 35.533060
0.687198 33.932470 36.090821
1.138308 34.861224 36.416069
0.768675 36.524386 35.698562
1.243430 36.899878 36.041623
1.227289 36.992071 36.014776
1.077803 39.254431 36.722016
1.768668 39.703625 36.627795
0.574544 40.514352 35.681080
0.914395 41.645943 35.784038
1.002568 42.497237 35.925712
1.074960 44.335632 35.193097
1.297907 44.879618 35.847726
1.573329 44.982642 37.228141
0.733440 47.777397 35.734443
1.065569 47.862339 35.409753
0.194095 48.814945 35.222035
1.339964 49.209003 36.064028
3.053579 49.271315 36.698381
3.991224 49.216191 36.420494
4.749053 48.409998 36.203548
5.371191 49.318364 35.926017
6.847880 48.657668 35.400708
8.438759 49.259007 35.410809
9.143592 49.469092 36.105365
9.665643 49.634383 36.179009
10.983609 49.337051 35.340336
12.432403 49.495359 36.140378
13.274633 49.050229 36.095377
13.085962 49.578428 35.818648
15.094249 48.542274 36.327754
16.317063 48.580032 36.578968
16.935583 49.230916 36.602926
17.541918 48.234875 36.267873
19.062208 49.179692 35.994271
20.176024 49.597715 35.916837
20.811252 48.799845 35.985145
21.873323 49.085982 35.925741
22.995679 48.887526 36.484796
24.176904 48.816167 35.363354
25.142523 49.244147 35.242262
26.255001 49.240774 35.521403
26.881388 48.808001 35.982892
27.653015 48.921197 35.545608
29.323088 48.624904 35.744062
30.266118 48.840773 35.639216
30.638990 48.996751 35.957338
32.195154 49.267104 36.311058
33.255139 48.234535 36.246535
33.738605 49.798037 35.995620
35.556435 49.665004 36.703322
36.060788 49.364612 36.316292
36.441859 48.828945 35.498636
38.124890 49.292016 34.649254
39.458547 49.377990 35.885733
39.709487 49.527333 35.847375
40.900166 48.859690 36.109683
42.546273 48.931883 35.251683
43.314197 49.803165 36.588390
43.900916 49.200270 35.406899
44.833307 48.334494 35.935965
46.174572 49.269839 35.662245
47.192739 49.228677 35.593402
48.125614 49.311680 36.583406
48.715128 49.000930 36.222652
49.031807 48.312380 36.243350
49.202931 47.043054 36.005451
49.585734 46.443928 36.067605
49.542030 45.127193 35.659698
48.942673 44.099417 35.957149
48.889939 43.041530 36.845195
48.872835 41.689228 36.555419
49.768556 41.927587 36.036813
49.437406 40.131704 36.434620
49.726067 39.126751 35.950188
49.057064 37.865740 36.195024
49.305621 36.995207 36.128607
48.325370 36.241432 36.054829
48.487557 35.185879 36.432488
49.055036 33.729500 35.945388
48.629274 33.009757 36.131391
48.371820 31.366753 36.235731
48.913626 30.573381 36.396177
49.411467 29.873983 35.767437
48.782695 29.124637 36.480455
48.899147 28.352215 35.758843
49.909351 27.829333 36.915161
49.689504 25.734217 35.616484
48.690912 23.998868 35.592193
49.005572 24.604025 36.347364
48.104881 23.341596 36.342481
49.202867 22.437961 35.514889
49.037966 21.347644 36.767831
49.151934 20.449661 36.035064
49.537974 18.832757 36.654708
49.229123 17.824813 35.987734
48.435960 16.946510 36.435917
48.352404 15.629509 35.759288
49.073820 14.937141 35.544479
48.748273 14.446507 36.220531
48.622494 12.971784 35.937800
48.101222 12.259508 36.164404
48.705330 10.973117 35.181854
49.340941 9.567258 35.193927
48.738087 9.389036 35.895500
48.997798 7.807999 35.789001
48.744638 6.570009 35.378745
49.090373 5.579162 35.672859
48.945397 5.208179 36.467567
49.490927 3.576183 35.834615
48.567697 3.459182 36.028845
49.145861 1.994715 35.950502
49.060480 0.961501 35.547868
47.300064 1.019176 35.366247
47.125823 1.342321 35.440577
45.578746 0.623327 35.846918
44.462429 0.993606 36.247010
43.967806 1.538178 36.196609
43.470258 1.153721 36.436699
42.199763 1.023860 36.599111
41.602234 1.059349 35.523884
39.833465 0.556290 35.923721
39.002735 0.947365 35.728157
38.204321 1.267019 36.136932
37.352771 1.601608 36.396028
35.727690 0.824683 35.263371
34.834338 0.717421 36.092403
33.959145 0.730013 36.566349
32.973761 0.999805 36.694752
32.124028 1.423973 35.885051
31.160521 1.144057 36.846700
29.850487 1.255643 36.358423
29.085102 0.503771 35.908397
28.349329 0.918136 36.501622
26.520257 1.432915 36.123656
25.791671 0.777984 35.459998
24.051321 1.059084 35.913591
24.509729 0.597983 36.222408
23.401607 0.485176 35.859008
21.802579 1.004446 35.947903
20.803952 0.898193 36.410453
20.865816 1.673705 35.653518
19.079934 1.180643 35.451009
17.363668 0.902654 36.088222
17.493411 0.771720 36.411078
16.170516 1.078117 36.046171
15.492229 1.041579 35.714106
14.524452 1.513184 36.342828
12.058529 1.591800 36.086969
11.898669 1.135813 35.439844
11.956368 1.440596 36.379274
10.010856 0.842888 35.440975
8.777487 1.327304 35.506738
8.030409 0.925325 35.899602
7.522730 0.437560 35.196476
5.966485 0.763541 36.292355
5.627909 1.340728 35.740542
3.678457 1.341622 36.993603
2.476756 1.172868 35.531327
1.704392 0.613800 36.049646
0.774132 1.313005 36.904828
1.083120 1.839466 36.998320
1.772010 3.073264 36.751765
0.469942 3.671266 35.908168
0.264767 5.160953 36.804526
0.676924 6.284832 36.169203
0.337087 7.111473 37.051798
1.067555 8.124656 37.076917
0.963049 9.599221 36.381515
0.636419 9.978533 37.933852
1.226847 10.574280 36.865122
0.428457 12.177593 36.729377
0.898835 13.621961 36.951390
1.106156 14.503130 36.794702
0.913584 15.802025 37.116048
1.032921 15.835436 37.487453
0.824969 16.634777 36.606514
0.764856 18.162981 37.152798
0.889795 19.252671 37.355742
1.006219 19.403559 37.379726
0.774650 21.146518 36.866324
1.030342 22.263798 37.232829
1.343962 23.227046 36.555111
0.128011 24.124925 37.173886
0.806158 24.926406 36.944480
1.034308 26.354329 37.075197
0.971067 26.817733 36.002212
1.743955 28.187621 36.627737
1.358315 28.919563 37.017763
1.225145 29.913990 37.050648
1.293081 30.845531 37.065221
0.587011 31.637422 36.710544
1.263326 33.366085 36.981374
0.876034 33.678269 37.438353
0.215221 34.757564 37.008561
0.138823 35.412696 37.074327
1.298460 36.698657 36.508966
0.740099 37.795865 36.401789
0.990531 39.161616 37.306002
0.865596 39.848005 36.360445
0.583936 41.620371 37.216812
0.785306 42.247351 37.447974
1.166461 42.447389 36.849239
0.102798 44.495682 36.521478
1.122395 44.487979 36.762085
0.636296 46.149648 37.056130
1.364100 47.147919 36.949898
0.978530 48.372758 37.391040
0.938983 48.827844 36.552264
1.611174 48.588093 37.323232
2.550148 48.773618 37.603262
4.451895 48.963342 37.615474
4.580143 48.723378 37.179549
6.411611 48.928283 36.756661
7.420545 48.119842 37.316704
8.036645 49.031363 37.193813
9.202507 48.643660 36.270160
9.841970 49.023123 36.905585
10.790489 48.516836 37.133441
12.517223 48.887256 36.933066
11.944490 49.192269 37.331108
13.836111 49.307705 36.529851
14.908960 48.497483 36.741381
15.686947 48.712449 36.488596
17.551832 49.166220 36.426294
17.980875 48.831744 36.894768
19.211756 48.951957 36.893787
19.814716 49.534429 37.360402
21.125260 48.809944 37.206344
21.020615 48.846985 37.163072
23.495969 49.468325 37.297334
24.290530 48.524174 37.371505
24.707304 48.482921 36.581818
26.379400 49.015697 37.747530
27.403679 49.579387 38.180974
27.497298 48.388753 37.194807
29.268394 48.934898 36.900918
30.118419 49.408280 36.857259
30.787170 49.825357 37.020738
31.964207 48.757352 36.507505
33.743245 48.932183 37.499889
33.927414 49.440415 36.835190
34.716105 48.914154 37.309491
36.241929 49.122183 37.127960
37.416461 48.747698 37.550356
37.977381 48.846584 37.030722
38.908282 48.907194 36.829468
40.432179 49.030011 36.582664
41.674454 48.893370 37.052586
41.908939 49.190586 37.315383
43.289523 48.971406 37.112436
43.242904 48.925447 37.104226
44.718740 48.802365 37.962740
45.737790 49.657332 37.212765
46.445656 48.336013 37.324308
48.016117 48.983376 36.747034
48.664254 49.265994 37.646503
48.588514 48.097881 36.875988
49.444123 46.526804 36.788076
49.036077 45.902985 36.940258
49.456759 44.607681 37.244059
49.121610 44.711146 37.006245
49.742465 43.705114 36.260117
49.247439 41.958858 37.148052
49.260744 41.139903 36.959794
49.374937 39.764663 36.818860
48.650763 39.193524 37.188360
48.579833 37.739165 36.447212
49.430378 37.549556 36.567505
49.361277 35.880327 37.067175
48.673469 35.691798 37.542179
48.957375 34.718307 36.845272
48.994301 33.275845 36.614130
49.232600 32.026364 36.500741
49.137135 31.213175 36.711871
48.413302 29.789097 36.816812
49.381186 28.260555 37.052999
49.038477 27.986736 36.341787
49.079451 26.788220 37.364469
49.122222 26.508911 36.994362
49.081648 25.019389 36.695828
48.890770 24.390250 37.201102
48.600580 23.153655 36.973227
48.882136 22.023626 37.245920
48.833091 19.852625 36.159923
49.332098 19.369835 36.815436
49.961916 19.146052 37.557479
48.720385 18.568600 37.065325
49.337325 17.217284 36.573128
49.172471 16.311420 37.065679
49.061710 14.733663 37.462466
49.300050 14.044136 36.914829
49.188882 13.017124 36.584805
49.046304 12.154938 36.963384
48.484326 11.002611 36.859400
48.688525 9.813046 37.123378
49.554805 8.064237 36.944266
49.321757 6.829497 37.754045
49.187862 6.994272 37.353377
49.529305 5.506934 37.047764
49.179061 5.645668 36.710036
49.030882 3.760585 36.218986
48.879770 2.924498 36.267045
48.796262 1.638104 36.839366
48.968215 1.215283 36.871514
47.396401 0.901390 37.189492
46.885526 0.778945 37.576836
46.548959 1.318014 36.635711
44.931750 1.602380 37.510293
44.070644 0.896284 36.979862
43.109662 0.818684 37.951015
42.879764 0.762487 37.445521
40.580988 1.663151 36.968904
39.455692 0.576123 36.764157
39.256135 1.125079 36.995311
38.328363 0.697530 37.056147
36.782416 0.822285 37.507107
35.632826 1.606721 37.684404
34.924293 0.115693 37.805576
33.714533 1.494263 36.901012
33.198890 0.940355 37.345324
32.080464 0.367055 37.013948
29.667295 1.294514 37.101148
30.049580 1.732673 36.969889
28.605796 1.045850 36.940520
27.699549 0.979049 36.597520
27.089083 0.669592 36.840976
25.751852 0.810197 36.918688
24.464603 1.064922 36.726507
23.920707 1.601509 36.952794
22.701527 0.890314 36.718043
21.826332 1.424912 37.713562
20.327983 1.497294 37.255898
20.357245 1.354014 36.391663
18.906393 0.986088 37.137872
18.045883 1.488808 36.243231
16.518187 0.180977 36.879841
15.937025 0.835001 36.965445
15.513361 0.707374 37.148175
13.967015 1.103162 36.560330
13.449759 0.902035 37.395300
12.226105 0.676562 37.113280
11.070452 2.060506 37.134522
10.006884 1.254485 36.420066
8.886374 0.726423 36.962711
8.391869 1.492766 36.813581
7.217154 1.150796 37.489236
5.468701 0.927815 37.567588
5.557864 0.608172 36.972556
4.012850 0.567277 37.007005
3.291869 0.483147 36.449517
2.204099 1.285091 37.320645
1.503017 0.635824 38.052196
0.620077 1.871327 38.920637
0.924807 3.375885 37.845086
0.876530 4.339936 37.336790
1.589569 4.920331 37.875676
1.928756 6.153741 38.405483
0.856320 7.857758 37.232989
1.176393 8.155660 38.592698
0.440179 9.452349 37.884116
0.951516 9.425952 37.895937
0.627505 11.178213 37.301465
1.184701 12.392332 38.055437
1.808478 12.595246 37.590435
0.986641 13.433907 38.281190
1.155037 14.357141 39.368100
1.396346 15.563046 38.299341
0.621878 17.578175 38.107564
0.356981 18.537808 38.202252
0.985671 18.947009 38.079138
0.654589 19.483359 37.965878
1.538921 20.780987 37.953312
1.572783 21.308585 38.253756
0.729358 22.353235 37.183286
1.514374 24.338063 37.675226
0.473648 24.939677 37.517927
1.154440 26.026708 38.260443
1.023562 26.632700 37.742841
0.989133 28.247271 37.504459
0.774794 29.276317 38.648321
0.587114 29.886830 37.452700
0.877023 30.932138 38.299146
1.202513 31.879092 38.513820
1.129024 33.022761 37.508189
1.414757 33.607660 38.084344
0.746929 34.911864 38.145449
0.629265 34.947228 38.334682
1.070456 37.441157 38.123066
0.822423 37.839571 38.573698
1.378426 39.352111 38.310293
0.419830 39.723790 38.081719
0.793229 40.382912 38.224126
1.037014 42.262591 38.374667
0.773283 43.526753 37.736263
0.605461 43.649707 37.405222
1.429074 44.950834 37.963859
1.356764 45.589149 37.566610
1.678183 45.985910 37.918915
1.255696 47.710737 38.192295
0.778661 49.969740 38.198332
1.889771 48.945336 37.999201
3.143674 48.733547 38.566038
4.470978 49.217143 37.835563
4.923516 48.911606 37.738510
5.328662 49.257462 38.373407
6.597095 49.368538 37.623193
8.258450 49.326002 37.922795
9.001897 49.578591 37.951773
10.373406 49.425354 38.118854
11.171454 48.452576 37.967943
11.433476 49.001148 37.820255
13.501171 48.832573 38.118251
13.499411 49.540016 37.746272
14.967010 49.097834 37.655590
16.052535 49.258827 37.946743
17.168380 48.324344 38.447355
18.577204 49.139312 37.823346
19.418870 48.895076 38.849270
19.605078 48.894812 37.869511
20.615885 48.505268 37.550027
22.408884 49.249901 37.939268
23.251465 50.005640 38.126183
24.072064 49.552870 37.144501
24.982348 49.126854 37.698984
26.237108 48.861223 38.649251
26.813083 48.589824 37.893993
28.859991 48.575935 37.743771
28.982459 49.016289 38.210907
29.987264 48.984951 38.224605
30.851390 48.324981 38.415383
32.093398 48.936089 38.081156
33.056905 48.368199 37.975056
33.637595 49.400621 37.598666
35.372272 48.948085 37.339555
35.728181 49.436846 37.435464
36.645978 49.062363 38.410524
38.189129 49.384131 38.172564
38.811770 49.151262 38.027039
39.882696 48.970068 38.177314
40.416878 49.104412 37.587769
41.744877 49.747188 38.214484
43.249793 47.819473 38.041933
43.911251 48.448766 38.012265
44.980331 48.775682 37.201444
45.600045 49.266950 38.555553
46.325779 49.353275 37.876131
47.666345 48.119724 37.323201
48.785224 49.327932 38.042136
48.824592 47.627142 37.743646
49.425034 47.164352 37.637569
48.879082 45.924857 37.463191
49.519053 44.666184 38.490083
49.606441 43.929693 38.360240
49.059426 43.449282 38.419116
48.787655 41.657244 37.976304
49.042990 41.405987 38.203728
48.831600 40.087278 37.896020
48.909915 39.078488 38.329580
49.285164 38.128349 38.314240
49.311481 36.789009 38.217837
48.485318 35.980185 37.959163
48.550966 34.909873 37.928002
49.502846 33.685681 36.870290
48.801287 32.564187 37.373603
48.778326 32.133198 37.498497
49.607852 31.214680 38.206942
49.311865 29.725710 38.185348
49.495726 28.746891 37.631467
48.793960 27.989487 37.202866
49.653363 26.791036 38.050680
48.821852 26.416616 38.162426
49.047579 24.983381 38.593085
48.657789 23.525982 36.949750
49.062769 23.484447 37.490398
48.883665 21.463370 38.574843
49.185754 20.864470 38.761546
48.540655 20.298577 38.271561
48.539414 19.275721 37.879487
48.629762 17.551894 38.541687
48.696997 17.059081 37.902882
48.657631 15.912259 37.539363
48.776903 14.725239 37.571737
48.357803 13.981947 38.734340
48.642344 13.223124 37.650418
48.167089 12.692395 38.169859
48.346750 10.715894 37.534933
49.170200 10.189019 38.055213
48.539767 8.877842 38.013980
48.946057 7.310775 37.903970
48.704215 6.570479 37.666784
49.321941 6.013900 38.368040
48.060687 5.090086 37.861246
49.005398 4.420864 37.398064
49.619605 3.370330 38.098250
49.361897 1.725363 37.754486
49.267824 0.790923 37.843874
47.836219 0.838158 38.011208
48.353953 0.864909 38.345123
45.961046 0.982239 38.508574
45.412731 0.998584 38.764061
44.686571 0.871860 37.491860
42.893817 0.831616 37.762319
42.010870 1.374884 37.344545
40.856046 1.005981 37.840242
39.594859 1.391568 37.701217
39.292074 1.023206 37.468968
37.967251 0.604602 38.066633
36.242703 1.332873 38.037075
35.981473 0.420081 37.737044
35.440876 1.853265 37.666090
33.921475 0.652844 37.881919
33.174062 1.228190 37.397376
31.931988 1.026158 37.925289
30.183804 1.261520 38.053163
29.789179 0.996233 37.553565
28.917611 0.667822 38.517852
27.394759 0.909764 37.869072
26.237890 0.739981 38.413364
26.300649 0.757134 38.359746
25.155069 1.101546 37.883583
23.686890 1.263075 37.578115
22.319030 1.146058 38.445293
22.430846 0.299116 38.135384
21.383835 0.353787 37.499564
19.761183 0.522017 37.758232
18.971208 1.310917 36.971463
18.192307 1.785037 37.656121
16.895680 1.255293 37.566497
16.063931 0.899938 38.879413
15.750497 0.851464 37.736031
13.998519 0.604351 38.413595
13.505248 0.071993 38.324350
12.361994 0.760559 37.776886
10.700280 1.541524 37.762352
10.505490 1.333463 37.910411
8.754090 1.614081 38.281656
8.176466 1.856239 38.059047
6.988082 1.302564 37.500323
5.857422 0.392063 38.313107
5.450875 0.341271 38.412200
4.203516 1.698655 37.605281
2.936848 1.262448 37.495548
2.338029 1.323095 38.381888
1.255676 1.455222 38.880812
1.295655 2.047683 38.584363
1.001097 3.396136 38.956965
0.257241 4.489997 39.514676
1.140042 4.764513 39.006005
1.469511 5.619022 39.180662
0.820605 6.886343 39.155406
0.748528 7.740986 38.485390
0.961033 8.743220 38.763082
1.209725 8.952550 39.237914
1.135547 10.995962 39.255575
0.832737 11.758165 39.343755
1.609045 12.648583 38.481618
0.470220 14.317675 38.822930
0.443743 14.776361 38.707731
1.995050 15.692285 38.972350
1.137517 17.255998 38.482031
1.420426 17.977230 38.441245
0.660379 19.214958 39.551222
0.939183 19.980756 38.943834
1.700227 20.314095 39.376362
0.968802 22.016363 39.930287
0.791167 23.016291 38.794670
1.025193 24.038116 38.965323
0.110898 24.960773 39.746578
1.359304 26.186692 38.207466
0.772392 26.841407 39.186173
0.597744 27.736594 38.829219
0.804704 28.264930 39.338859
0.870202 30.356926 38.767472
0.721870 30.572395 39.125279
0.197309 31.572563 38.743109
0.677851 32.616298 39.174855
0.971190 33.218047 38.955286
0.608961 35.412694 39.019255
0.769085 36.074271 39.953822
0.861483 37.402100 39.560765
1.059940 38.160467 38.989833
1.028811 39.154131 39.206861
0.754555 39.184774 38.798026
0.527162 40.846949 38.907508
0.507661 42.363095 38.744226
1.155959 41.909490 39.183801
0.808843 43.689640 39.202412
1.242352 44.836083 39.011977
1.216272 45.269654 38.949609
1.373468 47.503072 38.943947
1.250230 47.421458 38.965539
0.882672 48.577503 39.663174
2.025376 48.830917 40.061766
3.117002 48.528639 38.682181
3.965830 48.468342 39.219380
4.597275 49.639346 39.869987
5.811739 49.142698 38.623723
7.722886 49.433736 39.424303
7.826943 48.733209 39.211176
8.534975 49.650698 39.064942
10.052089 49.131034 39.440467
10.845452 49.541009 38.422364
12.640261 48.670758 38.688434
13.236509 49.161102 39.171953
14.196602 48.943743 39.080221
14.740972 48.719181 39.332083
16.397108 49.494351 38.261416
16.683819 49.343306 38.516957
18.490896 49.068599 38.358361
18.119445 49.360854 38.304211
20.595004 48.624390 39.091791
20.718510 48.842291 39.511186
21.926153 49.038030 38.215494
22.942493 48.871657 38.474936
24.124741 48.399227 39.027919
25.116625 49.243044 39.037380
26.647001 49.338828 39.499771
26.967102 49.139272 39.771077
28.100869 48.918310 38.903770
29.224648 49.231354 38.765618
30.104498 48.730720 38.939029
30.902217 49.365895 39.215885
32.240045 49.737841 38.902307
32.630256 49.761438 38.989584
33.845828 48.926792 38.699138
35.202653 48.574915 38.612794
36.012116 48.520059 38.794141
37.256874 49.260975 39.125858
37.797148 49.403087 39.086009
38.671189 49.232340 38.670680
40.013218 48.651234 39.331329
40.917532 48.626697 38.498059
41.420694 49.686033 38.998874
42.988723 48.970689 38.345290
43.968572 49.121421 38.973226
44.381644 49.805451 39.880854
45.166482 49.203536 38.629515
46.789647 48.528205 38.957291
48.652151 48.485890 39.341525
49.168947 49.470517 38.919814
49.800221 47.980613 38.765693
48.605931 46.984664 39.547224
49.031960 46.078999 39.060318
48.550853 45.727647 39.967500
49.681446 43.964056 39.771070
48.512615 42.011400 38.604243
49.071139 42.092759 39.238249
49.194537 40.969635 39.614766
48.578266 39.493502 39.146165
49.464768 38.354747 38.960754
48.734802 37.478113 38.772039
48.470125 36.695847 38.494663
49.048255 36.830208 38.564586
48.910640 34.939077 39.191486
49.018025 33.926644 38.797343
48.812663 32.955646 38.750380
49.437501 31.667090 38.963483
49.030585 31.626379 38.732480
49.242494 30.117201 39.008596
48.412715 29.090465 39.672742
49.467220 27.558762 38.954610
48.781987 26.849371 39.396916
49.490196 25.971389 38.152494
48.566507 24.919962 38.402855
49.043168 23.806199 39.198617
48.012500 23.296134 39.263048
48.748508 22.253122 38.625304
49.312207 20.462254 39.404999
49.104841 20.368782 38.698780
49.462886 18.760602 38.920451
49.191763 17.709100 39.232665
48.503059 16.716733 38.976868
49.172070 16.418024 38.532088
48.983150 15.148235 39.666799
49.720258 13.537833 39.978060
49.211909 12.677075 39.176961
49.394190 12.411045 38.169936
49.195331 11.021501 39.378241
48.822765 10.345505 39.299229
49.286829 9.452607 38.901680
49.316872 8.053724 38.402458
49.373305 6.993105 38.674573
48.907082 5.873339 38.741095
48.431091 4.984224 38.812270
49.254726 4.124345 38.675374
48.791765 3.434987 38.864194
49.489277 2.012496 38.641091
48.801426 0.709046 38.035199
48.559009 0.993806 38.396816
47.715916 -0.233329 38.399248
45.599611 -0.246140 39.505957
45.226259 1.116656 39.085325
44.395687 0.863207 39.182661
43.136044 1.173667 39.529667
41.630270 0.468649 39.330422
40.465464 0.684132 39.067992
40.490259 1.390264 38.989024
39.148477 1.399080 38.711861
37.368406 0.307104 39.177442
36.550173 0.419568 38.950067
36.409348 1.541466 38.650867
34.751776 1.511152 38.360108
34.388092 1.933012 39.483724
33.391442 1.201410 39.238591
31.685697 1.397770 39.190150
31.453242 0.986536 38.961054
30.318131 1.117613 38.908052
28.383912 1.154131 39.351886
28.129719 0.400541 39.197726
27.325827 1.366355 38.547057
26.377177 0.984187 39.201994
24.824215 1.106527 39.790640
24.375278 1.277850 39.160093
22.477156 1.260066 38.859407
21.597403 0.113588 38.725087
21.053807 0.648832 39.386188
19.936640 1.082680 39.688168
18.823427 1.154375 38.729621
18.376503 1.062293 39.326989
17.320155 0.549710 38.805335
15.754769 1.032706 38.728521
14.761847 0.636023 39.126449
14.521383 1.647726 38.597459
13.207684 1.274903 38.999145
11.809047 0.958432 39.086460
10.480657 1.326127 37.903901
10.093907 1.040920 38.792081
8.790198 0.863451 39.330961
7.559570 0.716547 38.974882
6.958272 0.565687 39.053896
5.999135 0.788514 39.672561
5.041941 1.318985 39.194167
3.745001 0.244620 39.511002
3.042446 1.228021 39.307534
2.020615 0.069471 39.023472
0.964329 0.986398 39.555211
1.035567 1.849223 39.499050
0.855669 3.362174 40.591467
1.534947 4.116084 39.832225
1.218572 5.911903 39.813432
0.679765 6.135673 40.195658
1.612983 7.062161 40.041661
0.260591 8.006324 39.827545
0.810074 9.166275 40.665962
1.322169 9.540774 39.244300
1.702198 10.982217 39.775599
0.760885 11.859288 39.621588
1.833959 13.864361 40.186547
1.620372 14.503582 40.807986
1.376204 14.851589 40.754562
0.928177 16.288036 39.893480
1.020490 16.192698 39.809671
1.723509 18.458618 40.498149
1.555615 18.888951 39.364723
1.126327 19.499609 39.909372
1.075325 21.634833 39.945183
1.623553 22.007906 39.912774
1.263902 22.695409 39.405701
1.017944 24.427197 39.625294
1.074350 25.391439 40.381797
1.217100 25.746761 39.810229
0.765069 27.312506 39.769956
0.831280 27.780820 39.657291
0.689606 29.024050 39.598459
1.140223 29.274797 40.099146
0.927998 30.701698 39.904964
1.190314 32.074793 40.028715
0.513944 33.356716 40.304782
0.707870 33.868313 40.908275
1.387376 35.267974 39.309624
1.121305 35.980311 39.570305
1.585284 36.679009 41.130907
1.423759 38.487735 40.995790
0.997336 39.498324 39.722923
1.210867 40.143203 40.209981
0.970343 41.740238 39.619134
0.878613 42.008191 40.540925
0.617534 43.584823 40.175106
1.253782 44.081472 40.251923
1.286138 45.349340 40.091161
0.913114 46.500263 40.228108
0.943750 47.279724 40.114060
1.085151 48.307075 40.086140
1.330156 49.704423 40.668963
1.493591 48.583683 39.304496
2.955141 49.405219 39.620549
4.220349 49.086605 40.672142
5.225642 49.435008 39.961221
6.317051 49.820234 40.072937
7.121084 48.979621 39.589986
7.879780 49.454303 41.029086
8.771202 49.507853 40.514005
10.533578 48.975946 40.007095
11.263380 48.529150 40.059549
12.378118 49.224463 39.201683
13.558018 49.086293 40.365366
14.051008 48.390236 40.163953
14.875876 49.067343 39.782738
16.096402 49.028693 40.187931
17.251785 49.602356 40.338466
17.293246 48.533117 39.110089
19.346881 49.119624 40.035316
19.325086 48.344095 40.114159
20.955790 49.170007 40.405537
21.908590 49.102912 40.073036
22.220825 48.776728 39.598537
23.817803 48.565879 39.819109
25.199395 48.489327 40.104887
26.333889 49.028463 39.812563
26.613726 48.190936 40.200592
27.476846 49.460982 40.426114
29.543325 48.469700 40.783918
30.033517 48.563744 40.453489
30.750368 49.438688 40.114046
31.874020 49.453955 39.433704
32.750733 48.642101 40.875633
34.112762 49.272786 40.176437
35.266658 48.752798 41.065133
35.339395 49.492910 41.305568
36.215054 49.362530 39.505013
37.982078 48.680293 40.562328
38.843008 49.088861 40.558809
40.561621 49.101126 39.675260
40.911080 49.369206 40.016085
41.886044 49.244491 40.146092
42.581504 48.960234 39.607974
44.586235 49.515657 40.309098
45.445160 49.097730 39.561621
45.866978 48.661592 39.653701
46.852207 48.579313 40.058508
48.293265 48.327822 40.424393
48.522219 49.465743 40.143878
48.820705 48.001357 39.376399
48.779305 46.823146 39.736590
48.952483 46.368873 40.249824
50.006181 45.129072 40.159197
48.492877 43.363941 39.432646
48.396753 43.262499 40.609903
49.654179 42.405461 39.612913
48.978161 41.057996 39.823144
49.250681 39.999845 39.991505
48.565677 38.633339 41.319261
48.703866 38.326451 40.054010
49.065990 36.401903 40.127366
48.821257 35.862819 39.805093
49.620200 34.455362 40.294730
49.218957 32.950019 39.813733
48.817332 33.103780 40.350244
48.730579 31.328312 39.945535
48.844333 31.060991 39.620731
49.283594 30.696736 39.610736
49.240038 28.383113 40.510809
49.321367 28.143652 39.948877
48.543925 26.889593 40.544368
48.849825 25.601925 40.731862
49.453253 25.361155 40.049649
48.405705 24.703572 40.013033
49.183463 22.812220 40.237283
48.589933 22.090069 39.916646
49.337730 20.821901 39.789096
48.870828 20.482640 40.190926
49.707659 19.043755 39.075412
48.921648 18.086589 39.458756
49.267332 17.491717 40.284210
48.549884 16.369332 40.153202
48.839749 14.741177 40.731179
49.139872 13.589741 40.232863
47.976559 13.632241 40.062227
49.008302 11.890768 40.599845
48.709469 10.228837 39.830443
48.821244 9.751272 40.138723
49.080241 8.907387 40.261100
49.740822 8.181923 39.539179
48.519751 6.722273 40.533303
48.868660 5.172768 39.979718
48.774050 5.412572 39.827312
48.818595 4.465443 39.985036
49.131774 3.871170 40.454024
49.307685 2.107888 40.362679
49.032996 1.060291 40.222329
47.599802 0.884549 40.014806
46.704399 1.403310 39.520521
46.319964 1.301069 40.186021
44.955355 0.874332 39.622359
44.139372 0.981099 40.599282
43.384755 0.509866 40.054651
42.279414 0.640745 40.247923
40.390751 1.215754 40.299857
40.339622 0.337890 39.783869
38.791456 1.009037 40.286115
38.235960 1.748087 40.025482
36.752786 1.345563 39.631088
36.130141 1.148166 39.588708
