ply
format ascii 1.0
comment VCGLIB generated
element vertex 1300
property float x
property float y
property float z
element face 0
property list uchar int vertex_indices
end_header
-24.23002 20 -11.6168 
-22.51566 20 4.58195 
-20.54714 24.81673 -2.146543 
-12.16018 1.950808 -13.50096 
-10.35013 3.767639 -13.50096 
-20.58134 14.73022 -16.47321 
-20.97536 10.02321 -18.71899 
-24.46726 0 -12.53501 
-22.85462 12.24383 -13.50182 
-23.1092 20 0.5584531 
-25.0554 0.09566969 -2.031853 
-25.0554 1.685289 -2.39098 
-8.296938 20 -12.69081 
-9.096828 10.92661 6.499043 
-25.0554 15.79153 3.481629 
-18.68259 7.692945 -13.50096 
-8.184973 0 -8.655761 
-19.91805 0 2.141219 
-5.0554 11.55825 4.947731 
-19.01714 9.461996 -13.50096 
-9.109801 0 3.081297 
-5.0554 17.01296 -10.94954 
-25.0554 4.924915 4.556407 
-21.27493 14.62068 -15.18682 
-22.55174 0 -4.655313 
-16.23918 20 -3.312738 
-25.0554 17.953 -4.726071 
-25.0554 7.631169 -5.336309 
-21.98373 20 2.403041 
-25.0554 11.91208 -1.675581 
-13.96712 18.07151 6.499042 
-9.1759 11.19424 6.499043 
-23.4729 0 -7.012187 
-24.69139 20 0.614527 
-24.99903 0 -0.342629 
-21.80317 0 2.630496 
-25.0554 9.120656 -12.5889 
-14.38543 20 -4.976051 
-5.0554 10.7595 -5.206313 
-9.887117 20 -13.14548 
-21.48032 0 4.97222 
-16.13478 20 -12.30244 
-13.30873 0 0.4276462 
-5.0554 0.814172 -4.30592 
-10.98904 3.161152 6.499042 
-12.6444 20 -8.897837 
-18.06444 3.80531 -13.50096 
-19.19741 14.82563 -15.3927 
-15.92253 20 -8.63046 
-2.61836 7.057719 0.8198378 
-5.0554 17.9208 2.567137 
-20.03372 20 2.377013 
-10.09913 0 -2.966734 
-18.8336 13.99157 -18.30991 
-9.183449 20 -1.078191 
-19.40495 9.005527 6.499042 
-22.09774 24.04872 -1.809772 
-20.19941 0 3.508628 
-23.89547 20 -5.892041 
-15.60283 18.09614 -13.50096 
-25.0554 9.163173 5.42004 
-5.0554 17.52757 -5.357436 
-19.24828 20 -12.18117 
-21.31922 9.974896 -18.01229 
-22.34138 7.898164 6.499043 
-5.0554 0.2380414 1.276178 
-5.055399 11.01504 -10.25731 
-23.94323 22.04525 -4.88884 
-12.87963 2.746437 -13.50096 
-19.35148 0 -11.11001 
-19.75396 9.439136 6.499042 
-5.0554 16.32158 -4.097797 
-19.37741 0 -2.786004 
-19.09923 14.67854 -16.22885 
-25.0554 17.16891 -8.921419 
-13.89003 10.56788 6.499043 
-25.0554 9.936199 -6.920818 
-14.12356 18.30131 6.499042 
-21.89298 13.46374 -18.20413 
-16.20184 20 5.560847 
-25.0554 10.02912 -4.292112 
-17.99334 12.05144 -19.01688 
-9.169294 20 -9.847023 
-5.0554 9.035711 -7.091352 
-25.0554 14.92032 -1.496611 
-10.25281 20 -7.402359 
-23.22474 20 -2.129235 
-23.26835 0 5.62617 
-10.33146 15.07673 -13.50096 
-25.0554 2.91078 -2.065204 
-25.0554 3.957771 -0.07288527 
-25.0554 15.85822 -0.9532709 
-8.116375 0.1618782 6.499042 
-22.11602 0 -1.240242 
-9.263016 0 -6.481911 
-22.29538 13.02502 -13.50096 
-5.0554 7.646659 -4.334966 
-10.66315 20 -12.69154 
-25.0554 5.059119 -2.238233 
-8.603301 18.74885 6.499042 
-5.0554 0.3655374 5.871491 
-20.96453 20 0.4624958 
-16.682 21.20329 -7.475772 
-5.721575 10.21495 -13.50096 
-5.0554 4.2444 -11.50204 
-5.055399 8.050306 -12.83559 
-25.0554 3.257442 -12.36344 
-12.85018 20 -1.500144 
-11.5221 5.45506 -13.50096 
-9.5238 6.39749 6.499043 
-25.0554 10.19397 -4.853917 
-14.93533 21.67985 -2.595688 
-21.40106 15.15007 6.499043 
-5.0554 4.695598 2.252264 
-5.0554 17.48693 2.922923 
-5.0554 8.407697 -5.40133 
-25.0554 18.45153 -10.12116 
-23.20363 20 -8.335041 
-22.45847 0 2.050892 
-12.62541 16.58848 6.499043 
-24.75959 5.6306 6.499042 
-12.41797 5.106144 -13.50096 
-18.79091 10.02701 -13.50096 
-13.67097 3.670223 -13.50096 
-5.0554 19.39097 -0.9885864 
-16.06515 20 -6.886661 
-25.0554 13.8239 5.086761 
-5.0554 4.485746 4.912509 
-16.33823 13.07153 6.499042 
-9.939603 15.94853 6.499042 
-12.72399 2.161238 -13.50096 
-5.0554 9.784569 -1.120125 
-21.94156 20 -9.397586 
-21.82001 24.135 -1.634919 
-5.0554 19.03449 2.730651 
-24.0339 10.36499 -13.50096 
-5.0554 1.417769 -12.28099 
-24.72499 17.84927 -13.50096 
-24.8336 12.2277 6.499042 
-23.78175 20 -3.03372 
-19.03047 16.82769 -13.50096 
-3.227059 7.011281 -1.640936 
-21.94158 19.22392 -13.50096 
-8.950686 20 -0.7812028 
-21.64124 6.370741 -13.50096 
-21.04846 19.45365 -13.50096 
-5.0554 9.460301 2.181389 
-25.0554 8.641396 -0.6099472 
-5.0554 12.66127 2.856642 
-12.42469 1.902381 6.499042 
-19.25918 12.14522 -20.78797 
-22.83302 0 2.867857 
-13.63443 3.24657 -13.50096 
-25.0554 8.102078 -12.61191 
-12.15746 0.8410825 -13.50096 
-22.63083 20 -10.14984 
-22.70705 18.97264 -13.50096 
-5.0554 19.04911 -0.3853602 
-5.0554 16.88713 -5.017623 
-17.47642 20 -11.23711 
-25.0554 14.87966 -8.251314 
-20.31403 8.72108 -13.50096 
-25.0554 16.1045 5.076125 
-8.434013 14.60662 -13.50096 
-16.6259 18.45706 6.499042 
-9.17388 15.25433 -13.50096 
-5.0554 15.72454 2.961816 
-20.52254 10.93612 6.499043 
-9.687288 8.429997 6.499042 
-5.0554 9.777955 4.542809 
-8.069643 0 0.08175373 
-5.695076 12.0897 -13.50096 
-5.0554 17.20888 -13.2606 
-23.48955 20 4.178413 
-5.870968 20 -10.95113 
-4.421216 7.419729 -2.125012 
-25.0554 4.662918 -12.92645 
-5.0554 9.28846 -10.91964 
-19.21619 0 -4.930681 
-19.47995 20 5.53888 
-25.0554 9.960512 -10.38632 
-2.565826 5.031676 -1.141863 
-25.02293 20 -7.801701 
-25.0554 1.925589 -7.731443 
-12.16237 20 0.2892768 
-11.08048 0 1.78286 
-24.44458 10.888 -13.50096 
-5.0554 5.118514 -2.17847 
-14.65384 14.67731 6.499042 
-5.0554 1.905556 3.115067 
-16.09374 0 -5.854285 
-12.83708 10.59283 6.499042 
-23.75293 20 -5.035388 
-9.955785 8.558834 6.499043 
-22.78564 15.60966 -13.50096 
-16.97656 12.49464 6.499043 
-8.413942 9.561663 6.499043 
-21.33204 10.28572 -18.8724 
-19.99348 0 1.551525 
-5.0554 15.78641 -7.136315 
-25.0554 7.311121 0.1384797 
-23.34013 0.8486227 6.499043 
-25.0554 10.87495 -3.067961 
-17.32701 0 -7.70717 
-22.71683 20 2.849984 
-19.14988 11.45673 -13.50096 
-25.0554 3.902148 -10.59521 
-5.0554 9.628101 -2.593958 
-18.35785 10.11466 -17.53222 
-10.51665 0 -2.955601 
-5.0554 8.738659 3.885531 
-11.68006 3.493724 -13.50096 
-25.0554 19.1977 -10.83754 
-25.0554 17.74585 -7.779036 
-5.0554 7.655902 -2.472652 
-12.99504 15.99308 -13.50096 
-25.0554 13.53844 -1.486114 
-14.51788 20 -2.217206 
-5.0554 7.654418 1.016262 
-15.35587 17.14006 -13.50096 
-10.18106 3.507366 -13.50096 
-5.0554 16.63208 2.821383 
-17.66459 13.72845 -15.75112 
-15.19961 11.98012 -13.50096 
-5.0554 7.868863 -9.53859 
-14.84915 20 0.3767388 
-5.0554 8.641945 -12.53357 
-6.64876 20 0.2430208 
-25.0554 6.311293 1.256204 
-25.0554 14.61761 -8.681024 
-5.0554 8.720702 4.262326 
-23.57623 1.14526 6.499042 
-5.0554 8.664452 -4.497556 
-17.2943 6.029099 6.499042 
-22.64242 0 2.238798 
-14.27287 0 2.136044 
-21.51258 0 -3.2887 
-18.80186 9.816188 -13.50096 
-25.0554 2.365491 4.115159 
-6.847027 0 1.284993 
-25.0554 12.47486 -4.724954 
-25.0554 17.63733 -12.93735 
-21.08045 0 -9.692293 
-5.0554 12.62167 6.434645 
-5.42264 9.771981 6.499042 
-11.77136 9.844057 6.499042 
-10.11187 20 4.4508 
-21.59214 10.9887 -13.50096 
-13.62046 19.51532 -13.50096 
-14.69584 0 -0.6928607 
-25.0554 5.856806 -7.567615 
-15.49549 14.08367 -13.50096 
-5.0554 12.02396 -1.841231 
-20.01928 0 4.629635 
-11.15224 1.561339 -13.50096 
-5.125899 14.76488 6.499042 
-14.76018 20 -13.15423 
-16.06013 23.28932 -1.947616 
-5.0554 15.75658 -1.819571 
-18.248 23.40158 -0.04441572 
-17.65115 20.44548 1.027467 
-5.0554 17.11005 -0.03569221 
-10.12674 6.815787 -13.50096 
-6.485316 0.4502519 6.499043 
-5.0554 4.600687 4.845352 
-14.81908 12.99338 6.499042 
-16.59768 17.04025 -13.50096 
-5.0554 1.884587 3.912705 
-16.14183 0.5049121 6.499042 
-18.97439 0 -0.1099844 
-23.6118 0 0.7132618 
-13.80491 0 -2.922545 
-25.0554 12.31535 0.1070471 
-5.0554 16.76031 -6.123356 
-13.09789 0 -1.653343 
-10.56632 9.111298 6.499043 
-9.966894 0 2.214561 
-5.0554 14.40114 -8.473142 
-5.0554 15.77191 -11.38837 
-12.83623 0 0.2950618 
-22.70319 20 -5.0319 
-23.23894 0 -10.3268 
-20.59946 1.382801 -13.50096 
-10.29638 10.86108 6.499042 
-5.0554 10.3325 6.288683 
-25.0554 9.148487 -4.538261 
-7.463034 20 -0.7322822 
-19.79657 10.53318 -20.0966 
-9.572806 0 -12.65484 
-20.24126 0 -0.3715668 
-9.77974 0 -7.719666 
-25.0554 14.28895 -1.226075 
-15.24302 0 -2.32872 
-18.30663 24.23815 -1.015897 
-18.41206 8.277813 -13.50096 
-17.74528 3.112156 -13.50096 
-5.0554 19.86506 -9.111352 
-5.0554 6.493359 2.790223 
-3.676425 3.399406 1.385834 
-12.79082 0 -0.9254342 
-22.09034 20.76303 0.6818431 
-6.426105 9.248983 -13.50096 
-5.0554 0.06002411 -4.222606 
-5.0554 4.596806 -8.323035 
-5.0554 18.21194 -9.195745 
-20.1037 14.37885 -13.50096 
-25.0554 19.64651 2.981554 
-16.90536 17.4148 6.499042 
-8.109824 7.36701 6.499042 
-23.77242 13.17751 6.499042 
-15.54662 0 -9.666053 
-15.16837 5.231462 6.499042 
-10.04343 13.36045 -13.50096 
-22.53272 20 -10.64241 
-9.126474 20 -9.727719 
-10.80536 20 4.110744 
-25.0554 13.24853 -5.025146 
-24.08145 22.1575 -3.684453 
-16.92569 0.3848648 6.499043 
-15.22943 21.65147 -1.649701 
-17.32618 0 -7.081294 
-2.368902 4.968835 0.8789332 
-16.81961 20.19773 -7.719036 
-17.87415 5.814366 6.499042 
-22.66748 8.952654 -13.50096 
-25.0554 12.14608 -8.13249 
-5.0554 0.5216992 -2.153768 
-18.5705 6.761105 6.499042 
-23.88589 20 -0.5053196 
-25.0554 17.3593 2.37993 
-5.0554 11.33141 0.9918649 
-2.729123 6.205554 1.775664 
-5.92495 6.861236 -13.50096 
-16.55524 8.355017 -13.50096 
-22.27529 14.61871 6.499043 
-10.35098 20 -1.093159 
-5.0554 17.31966 -11.11667 
-6.258811 20 3.359679 
-13.94371 0 -3.090223 
-17.84174 0 -5.940655 
-16.91119 4.80202 6.499043 
-18.00361 17.92951 -13.50096 
-21.12939 0 0.8749552 
-5.181308 20 -12.42695 
-22.93944 17.46337 -13.50096 
-7.24935 20 -2.193734 
-25.0554 14.74528 -1.592558 
-16.08794 20 6.445409 
-5.0554 17.6874 1.769135 
-14.88019 17.61729 -13.50096 
-18.20523 20 -12.15803 
-18.4593 20 -0.6422429 
-22.27792 18.2132 -13.50096 
-17.20489 12.87943 -15.53777 
-25.0554 3.307568 -6.300438 
-5.0554 11.6194 -12.48844 
-5.544168 20 -2.709257 
-17.18627 20 1.240707 
-8.720273 0 1.324201 
-25.0554 17.32031 -1.222322 
-5.0554 17.71355 -10.50101 
-10.02984 0 -6.75356 
-5.141029 19.02529 -13.50096 
-18.54178 4.901335 -13.50096 
-13.83942 2.367931 -13.50096 
-16.25363 6.244079 -13.50096 
-5.0554 19.39968 1.225843 
-24.08018 20 -2.370322 
-23.92725 0 -6.453753 
-11.72706 17.82555 6.499042 
-3.269976 6.349751 -2.023862 
-18.2681 9.857258 -16.39325 
-17.54133 3.572996 -13.50096 
-25.0554 13.66608 -3.601462 
-5.0554 4.280401 -6.975976 
-7.394767 14.51571 6.499043 
-24.17219 20 -1.436788 
-16.49614 21.11646 0.2453357 
-23.63625 20 -1.048868 
-11.483 4.320378 6.499042 
-6.262923 20 -12.48704 
-18.39724 13.20947 -13.50096 
-7.615957 0 -2.273859 
-21.06509 11.4068 -20.62005 
-23.2255 20 3.153971 
-7.81579 20 0.6245415 
-19.93439 15.02216 -14.19559 
-10.61747 2.314379 6.499042 
-11.11662 2.966177 6.499042 
-8.964531 0 -13.41283 
-5.0554 7.212118 -1.262955 
-5.0554 16.51168 3.578485 
-13.0889 20 -7.130474 
-9.41537 13.67869 6.499042 
-25.0554 16.96702 4.264927 
-19.81886 7.962396 -13.50096 
-6.106964 0 -3.597417 
-18.52814 17.26695 6.499042 
-8.007565 6.491226 6.499042 
-23.12567 3.029219 -13.50096 
-11.53289 20 4.187724 
-24.56072 19.08686 -13.50096 
-21.66826 0 -1.769637 
-5.906756 16.30794 -13.50096 
-21.94656 20 3.611969 
-24.37351 0.0104475 -13.50096 
-16.86961 20 6.061925 
-16.38896 20 -2.368396 
-14.64587 9.940231 6.499042 
-20.11029 3.973048 -13.50096 
-15.09352 13.38819 -13.50096 
-25.0554 1.98295 -10.00567 
-24.12456 15.97272 6.499043 
-14.26501 20 -9.518546 
-21.71177 11.72168 6.499042 
-13.23594 14.85221 6.499042 
-25.0554 16.10497 -0.9817619 
-23.08854 8.747976 -13.50096 
-24.56616 0 4.803328 
-20.35177 0.353936 -13.50096 
-21.43243 20 -5.129888 
-24.55849 1.433738 6.499042 
-23.9308 18.53574 6.499043 
-5.0554 2.417192 -10.28571 
-13.35306 20 5.110776 
-5.0554 16.89711 5.986824 
-16.10123 16.77539 -13.50096 
-25.0554 10.43642 3.464957 
-25.0554 18.66445 -1.206689 
-6.404337 8.597167 6.499043 
-25.0554 14.21152 -3.292358 
-8.422244 0 -13.01759 
-25.0554 1.013153 -10.40423 
-22.1251 0 -2.153588 
-24.20235 14.56773 -13.50096 
-12.35144 0 3.828326 
-15.72283 0.1045048 -13.50096 
-5.0554 6.09674 -2.280071 
-15.77142 17.47703 6.499042 
-5.0554 11.29867 -13.29862 
-25.0554 5.498434 -9.192247 
-7.995438 20 1.478371 
-8.021485 20 4.059241 
-24.00329 16.88289 -13.50096 
-24.87957 7.017933 6.499042 
-5.0554 16.33518 -5.506357 
-24.01406 6.674008 -13.50096 
-23.41398 20 5.840133 
-25.0554 1.279629 2.378591 
-18.19996 0 -9.974728 
-6.162044 0 -2.026763 
-22.79135 3.305612 -13.50096 
-21.79778 23.64213 -6.298374 
-5.0554 5.243167 3.812706 
-25.0554 17.7681 -10.70977 
-5.0554 1.311897 5.840064 
-17.47597 13.80493 -13.92444 
-10.07282 9.306244 6.499043 
-8.607449 18.13864 6.499042 
-13.02719 0 5.396287 
-25.0554 4.316065 1.565186 
-25.0554 19.9568 5.325071 
-10.71659 8.428137 -13.50096 
-18.05051 20 -7.164576 
-12.09143 9.354198 6.499042 
-5.0554 0.5045636 -8.965055 
-5.565393 20 -1.810314 
-25.0554 9.390065 0.02697754 
-5.0554 10.54204 -4.580426 
-5.0554 8.476385 -6.109364 
-18.31156 10.80669 -13.50096 
-23.20119 8.470789 -13.50096 
-6.24769 20 -9.945563 
-19.14348 0.2316415 -13.50096 
-21.04622 10.12916 6.499042 
-17.31572 22.21399 0.3856229 
-15.41742 1.347526 -13.50096 
-5.0554 13.73163 -10.47253 
-21.39716 20 -9.86504 
-25.0554 2.004431 -3.93938 
-12.2481 15.42805 -13.50096 
-22.24097 13.87129 -13.46093 
-11.77238 14.60831 6.499042 
-5.055399 4.374016 -12.64032 
-23.15847 4.766622 -13.50096 
-11.72172 19.82585 -13.50096 
-6.81275 13.13006 6.499042 
-5.0554 7.132037 -8.449153 
-22.4241 0 3.855692 
-25.0554 9.719909 5.541905 
-13.11117 17.53511 -13.50096 
-18.11434 5.99874 6.499043 
-25.0554 6.339247 -4.092236 
-19.75298 20 -0.9045486 
-25.0554 8.679461 1.64931 
-5.121378 6.493574 3.017187 
-5.0554 18.13347 4.898172 
-19.38394 13.41086 -19.99544 
-23.18799 14.62647 -13.50096 
-9.704634 0 -12.00285 
-5.0554 17.61496 6.147388 
-2.668226 6.123985 -1.410608 
-5.0554 17.76847 -7.554022 
-25.0554 14.01647 -6.276524 
-18.19894 5.929431 -13.50096 
-6.096735 10.93277 6.499042 
-21.39535 20 -6.122358 
-7.72213 4.464562 6.499042 
-25.0554 10.19268 2.043852 
-24.44871 21.02342 -3.484929 
-19.96433 12.72585 6.499042 
-5.0554 10.21075 -6.774026 
-5.055399 19.07167 -7.621496 
-12.82727 5.073731 -13.50096 
-2.895442 5.742566 2.064296 
-25.05341 20 -0.14463 
-20.32322 5.789867 6.499043 
-5.648106 0 -8.687854 
-23.43774 0 -7.510845 
-18.47985 5.75954 6.499042 
-20.65791 0 -0.2368646 
-7.354188 14.36837 6.499042 
-25.0554 16.43674 2.102552 
-13.45319 6.751678 -13.50096 
-10.20049 0 1.324122 
-5.0554 2.096265 -7.364746 
-25.0554 4.558505 -7.068661 
-10.34113 0 -9.082098 
-15.06756 20 0.5319926 
-5.0554 8.69856 -10.11558 
-25.0554 4.01685 5.041336 
-13.2218 1.770549 -13.50096 
-23.63101 20 -12.36112 
-17.16632 11.66035 -15.94443 
-25.0554 4.46798 -12.42343 
-22.84833 0 -2.319728 
-25.0554 6.558821 -7.245421 
-19.14609 20.90114 1.336467 
-5.834983 0 1.48167 
-15.83464 23.36925 -4.193929 
-10.87399 0 5.376987 
-18.89605 9.33761 -15.38063 
-19.28496 9.219446 -15.40715 
-25.0554 15.19322 -6.969491 
-5.0554 9.351388 -6.116982 
-11.35483 0 4.518638 
-13.71152 4.4434 6.499042 
-25.0554 15.45908 -1.606981 
-23.32207 5.88314 -13.50096 
-25.0554 14.17767 -3.117307 
-12.82083 12.66482 -13.50096 
-25.0554 8.964429 -4.095898 
-12.21659 18.93385 -13.50096 
-18.48824 10.31039 6.499042 
-25.0554 12.23855 -10.10087 
-4.630588 2.774048 0.7293427 
-16.34048 3.967457 -13.50096 
-5.0554 10.61745 1.0469 
-25.0554 15.18853 -5.39465 
-8.696393 20 -11.95689 
-25.0554 14.1716 -11.984 
-6.789874 5.831406 -13.50096 
-7.343524 1.576576 6.499043 
-19.35949 14.34561 -13.50096 
-23.36272 0 3.353703 
-5.0554 9.694824 -12.45898 
-10.64261 0 -11.30586 
-19.42213 1.324803 6.499043 
-19.73182 15.86291 -13.50096 
-21.96562 12.68783 -19.17521 
-9.676235 6.561565 6.499042 
-25.0554 12.07987 -13.26446 
-7.703878 16.60683 -13.50096 
-19.58113 13.72182 -19.60924 
-5.0554 4.993354 2.457612 
-19.52538 20 -6.833841 
-25.0554 17.11678 0.1828136 
-20.50984 0 -4.550236 
-15.28246 0 -1.221374 
-23.10891 17.39697 6.499043 
-25.0554 1.723959 6.342637 
-25.0554 15.90641 -0.9451852 
-9.038682 0 0.9574919 
-24.88882 20 -3.043357 
-25.0554 11.18695 -12.05258 
-12.1893 2.529997 -13.50096 
-25.0554 7.357212 -2.830052 
-25.0554 2.840545 -8.314003 
-21.13042 4.256632 -13.50096 
-7.185561 8.479757 6.499043 
-5.0554 11.12585 -9.149693 
-25.0554 9.123997 2.395883 
-14.69982 20 2.078996 
-5.759204 11.81856 6.499042 
-9.296017 18.6966 -13.50096 
-15.20911 22.26805 -4.787438 
-21.16399 23.16368 0.04405491 
-13.89962 20 -1.082877 
-5.0554 18.30344 3.174971 
-16.06997 7.550055 6.499042 
-19.339 14.10659 -18.62656 
-20.41274 23.86619 -0.374912 
-5.055399 0.3777723 -11.64329 
-11.37348 20 -4.010414 
-5.0554 4.23626 -8.921401 
-13.09908 0 3.764412 
-10.23874 0 -10.41356 
-18.94385 12.3731 6.499042 
-25.0554 7.895256 -6.233966 
-25.0554 2.577778 -3.698445 
-5.0554 11.61288 -7.211673 
-12.79993 5.882973 -13.50096 
-8.406932 11.87368 6.499042 
-11.99716 0 -12.39253 
-5.0554 14.4172 0.5145416 
-23.21994 20 -6.284563 
-5.0554 6.486527 0.1776955 
-18.7737 10.64372 -19.39186 
-23.48427 0 -0.4165215 
-22.56945 8.587116 6.499043 
-25.0554 19.28931 -13.27895 
-25.0554 14.19629 -7.998776 
-5.0554 17.6732 -0.4271555 
-14.50973 0.8612812 6.499042 
-20.99584 20.23293 -8.304205 
-5.055399 4.809568 -7.573694 
-19.74882 20 -8.687507 
-15.63592 14.60652 -13.50096 
-14.36506 0 -0.6922088 
-18.68661 0 3.419278 
-9.298664 10.85955 6.499042 
-5.0554 4.728892 -10.74244 
-23.14339 20 -10.00076 
-5.0554 16.48153 -0.2908225 
-5.89274 0 4.38683 
-17.85269 22.72973 0.3365301 
-23.07037 0 -8.444122 
-5.0554 0.9308589 -5.883487 
-21.54876 10.08803 6.499042 
-9.281127 4.956987 6.499043 
-21.89297 20 -8.473336 
-25.0554 2.40374 -5.691121 
-11.57207 8.753132 6.499042 
-5.0554 16.74224 -7.68771 
-5.0554 6.556071 1.35698 
-10.5365 3.614755 -13.50096 
-23.25205 1.392636 -13.50096 
-2.39828 6.422878 -0.6513652 
-21.63847 0 -12.15323 
-21.78515 0 1.842553 
-23.74586 22.1484 -1.801717 
-21.23611 22.77249 0.3156486 
-5.0554 1.958647 3.305413 
-5.0554 4.961072 0.2064688 
-23.77166 8.306483 -13.50096 
-25.0554 13.37774 -2.225291 
-6.303432 0 -7.805209 
-19.61039 20 -6.104748 
-5.0554 2.147826 0.8316262 
-8.732597 20 3.423998 
-5.0554 10.43357 -9.791755 
-20.83687 0 2.715951 
-5.423243 20 -3.020383 
-2.751965 3.968518 -0.2978666 
-16.20299 23.79896 -4.114691 
-12.49454 13.76123 -13.50096 
-6.665749 20 -4.514385 
-17.95393 20 2.840727 
-22.33747 13.7498 -13.48543 
-11.00462 6.950978 -13.50096 
-21.16407 8.363763 6.499042 
-20.88806 14.79057 -15.15537 
-25.0554 18.07104 -5.078713 
-20.55728 24.75196 -5.159131 
-16.28856 0 2.673141 
-5.0554 4.85952 -11.81024 
-24.69756 0 -4.563638 
-21.12276 3.537101 -13.50096 
-21.64744 12.10796 -20.05253 
-6.563782 20 5.78212 
-17.58412 13.71282 -13.50096 
-7.442903 4.137509 6.499042 
-6.225532 0 -9.88862 
-18.37464 0.9010222 -13.50096 
-18.53919 0 -0.03599834 
-5.0554 13.21234 4.978468 
-5.0554 17.7247 -6.047888 
-6.429382 19.05902 -13.50096 
-20.03758 23.60901 -0.0135004 
-17.25587 10.65992 -13.95455 
-21.732 20 -5.834831 
-22.99344 14.40755 -13.50096 
-23.55456 9.100191 6.499042 
-23.91549 5.501395 6.499043 
-14.40596 1.616666 -13.50096 
-17.58629 0 -10.58611 
-17.27147 20 -13.22304 
-23.18554 20.09479 -0.1609831 
-19.64326 12.84631 6.499042 
-17.09017 0 -9.493899 
-19.79795 14.65438 -17.03711 
-23.84337 0 -8.670208 
-4.96905 7.335117 -2.308895 
-25.0554 10.17553 0.6487792 
-11.3349 3.986689 6.499042 
-20.45793 9.957079 -18.98507 
-21.45327 0 -10.74358 
-22.97691 23.6979 -2.942745 
-24.219 8.466189 -13.50096 
-25.0554 2.138833 -4.423003 
-6.090128 0 5.292263 
-17.96629 20 1.669644 
-5.0554 9.630093 -3.557855 
-11.89489 1.088417 -13.50096 
-12.87425 0 -13.267 
-16.08139 13.63738 -13.50096 
-5.0554 18.96554 -0.2533207 
-5.0554 5.8725 -12.51176 
-14.94183 3.717139 -13.50096 
-8.282216 0 -7.284711 
-5.0554 4.581937 3.133744 
-5.0554 4.989599 -3.001694 
-16.77819 2.758636 6.499042 
-16.72681 0 3.283338 
-6.707254 17.69122 6.499042 
-17.80529 12.85871 -13.50096 
-22.04702 13.50789 -17.6835 
-18.85023 20.28573 1.367853 
-5.0554 10.06615 -11.23184 
-15.9615 20 3.155533 
-5.0554 8.511463 -0.6348532 
-9.627184 7.084876 6.499042 
-17.46912 2.108372 -13.50096 
-25.0554 4.342558 1.154646 
-17.0938 0 -5.343311 
-25.0554 14.1944 -4.559625 
-24.42564 21.13207 -3.288115 
-5.908597 20 6.16043 
-5.0554 15.60633 0.5858345 
-25.0554 5.409739 -8.63081 
-10.43649 17.27717 -13.50096 
-14.79386 20 -10.30188 
-12.58107 9.19315 6.499042 
-22.90782 20 -0.3774376 
-21.64827 5.335256 -13.50096 
-16.87867 4.661567 -13.50096 
-21.81596 21.60012 -7.72415 
-21.41085 0 5.761212 
-25.0554 6.754786 -10.46047 
-21.19049 0 -5.593232 
-16.43106 20 -0.1435083 
-10.21598 0 0.4551482 
-16.85508 7.249577 6.499043 
-23.02983 20 -9.28773 
-11.83451 18.71334 -13.50096 
-25.0554 16.73512 5.561005 
-6.928113 19.14537 6.499042 
-22.44089 15.19299 -13.50096 
-25.0554 2.572137 -8.256001 
-6.147732 20 -12.28123 
-16.42098 17.45844 6.499042 
-12.01595 20 -6.589196 
-23.971 20 -3.787925 
-22.94436 0 -2.72901 
-25.0554 8.875443 -10.1765 
-13.7373 10.13477 6.499042 
-22.61673 23.12413 -1.034834 
-17.34463 7.633252 6.499042 
-5.0554 7.717318 -12.22151 
-25.0554 2.495481 -1.013058 
-18.42831 0 6.055685 
-16.95983 11.43253 -13.50096 
-5.0554 4.513969 -3.983433 
-5.0554 17.38809 0.5915444 
-5.0554 10.87597 -4.54619 
-13.57764 8.939655 6.499042 
-17.11847 5.454592 6.499042 
-25.0554 7.610569 -7.179762 
-5.0554 19.00272 1.629233 
-25.0554 8.278015 -3.912898 
-18.95027 19.94425 6.499042 
-5.520288 19.45468 -13.50096 
-5.0554 19.51916 3.255105 
-10.27396 0 4.731538 
-14.929 21.91206 -3.221105 
-22.57446 20 -3.119274 
-17.655 0 -7.870926 
-9.663061 0 4.59096 
-14.1625 0 4.900485 
-13.24323 20 4.046586 
-17.63595 0 -12.54986 
-13.8727 18.1584 -13.50096 
-5.0554 4.990986 -3.691872 
-5.0554 16.34775 -11.45411 
-5.317069 20 1.130556 
-8.037126 5.378983 -13.50096 
-25.0554 11.26645 -8.032948 
-22.28337 0 -3.052096 
-18.28362 5.905085 6.499042 
-21.19059 20 5.168795 
-14.84729 19.33049 6.499042 
-7.553604 20 -13.46178 
-5.0554 15.12178 -2.48983 
-25.0554 1.543133 5.685303 
-25.0554 13.83097 5.958209 
-25.0554 15.90289 -5.619713 
-16.26534 0 -5.229751 
-18.55765 0 -0.4928963 
-5.0554 16.4218 -1.095389 
-22.32239 6.509995 -13.50096 
-4.589184 6.721457 -2.581277 
-5.559368 0 6.398438 
-12.93762 0 -8.876202 
-7.019471 8.069822 -13.50096 
-25.0554 14.58367 -13.4534 
-19.89848 0 -5.823729 
-5.0554 19.05695 -10.45628 
-5.0554 15.23403 -5.22708 
-25.0554 13.4165 -9.234401 
-16.89168 0 -7.222809 
-22.27188 23.67317 -5.767394 
-13.35875 0 -2.75234 
-5.0554 10.84797 -8.220282 
-20.94904 0 -2.184239 
-18.60695 7.27602 6.499042 
-25.0554 2.127346 -13.33385 
-25.0554 17.19482 0.4258142 
-19.92749 15.79592 6.499042 
-10.65208 16.23775 -13.50096 
-19.70757 20 -4.413722 
-5.646033 20 -4.558985 
-7.039678 19.42941 -13.50096 
-24.44384 20.22966 -2.768095 
-18.724 20 -5.551291 
-7.177824 1.817949 6.499043 
-25.0554 14.31356 -10.79785 
-9.34955 20 -0.5415969 
-25.0554 9.412495 -4.300573 
-12.22784 1.790609 6.499043 
-10.93616 5.01963 6.499042 
-17.99159 15.3531 6.499042 
-18.90049 20 3.89952 
-25.0554 9.440708 -12.45312 
-14.52609 0 -10.22084 
-14.13061 20 -9.106876 
-9.172845 6.629755 -13.50096 
-25.0554 14.45944 -8.391521 
-16.73789 17.1207 -13.50096 
-6.73315 17.11045 -13.50096 
-5.0554 0.3819275 -1.461997 
-8.989083 12.08272 -13.50096 
-5.0554 2.077773 -3.909058 
-16.17293 8.797869 6.499042 
-20.15602 20 0.4742913 
-14.36117 3.873506 6.499042 
-13.52024 0 4.907195 
-25.0554 9.342713 -2.431577 
-5.0554 12.92604 5.77624 
-12.50165 10.13792 6.499043 
-5.0554 1.257306 -7.171703 
-5.24283 20 3.668181 
-22.47679 13.51243 -14.34821 
-8.194931 0.5905819 6.499042 
-6.821985 20 -13.06434 
-17.84082 0 -9.365429 
-5.0554 6.922988 -4.939878 
-25.0554 18.20876 -1.635496 
-5.0554 13.33863 2.211012 
-21.3321 23.81251 -6.387671 
-14.74637 20 -0.7696162 
-23.8987 20 -1.841907 
-24.49112 0 5.438382 
-19.26959 14.20692 -18.28749 
-3.306297 3.558816 -0.8203876 
-5.0554 0.2804744 1.845773 
-11.78415 17.58278 -13.50096 
-12.76905 20 -4.06154 
-19.60475 24.611 -1.363997 
-10.47826 2.445325 6.499042 
-25.0554 2.005731 -0.59969 
-5.0554 2.018234 -7.369277 
-25.0554 2.00698 3.273629 
-17.39909 20 -11.15068 
-22.18332 17.17307 -13.50096 
-5.126186 0 -0.2153606 
-13.96597 11.36686 6.499043 
-5.0554 6.304565 -1.690654 
-25.0554 5.666605 -12.86887 
-20.03779 2.941585 -13.50096 
-5.0554 3.468422 -8.814191 
-5.0554 8.193153 4.650254 
-23.89721 20 -0.7630453 
-12.23014 20 1.481185 
-13.56066 20 -3.542053 
-5.0554 17.39739 -4.372466 
-23.34663 20.22086 -6.757177 
-8.881777 20 -4.091695 
-5.0554 7.083283 -6.789931 
-9.768719 0 -4.730781 
-25.0554 11.2436 -10.33956 
-25.0554 0.1279095 -9.922503 
-5.0554 13.50289 1.973326 
-16.95518 1.245961 -13.50096 
-12.56924 20 3.203781 
-23.04134 6.747537 6.499043 
-5.0554 7.916445 -1.228314 
-5.0554 1.946752 -1.246862 
-7.220441 6.849389 -13.50096 
-16.13496 23.68082 -4.327118 
-5.0554 8.001595 3.327667 
-8.118683 20 -7.750909 
-3.490888 5.510305 2.61657 
-25.0554 17.67462 -10.22299 
-18.71127 20.57847 1.311016 
-14.55838 10.2634 -13.50096 
-25.0554 11.44057 5.856572 
-25.0554 2.354971 1.213774 
-25.0554 7.377176 -3.823636 
-20.13546 20 2.094672 
-20.20484 24.94386 -2.417133 
-22.19621 13.91874 -14.11619 
-5.0554 15.94965 -7.242142 
-5.0554 19.64877 -2.100994 
-5.0554 10.16387 -2.834812 
-25.0554 17.88562 -11.25574 
-21.21465 1.292672 6.499042 
-5.0554 5.078888 -4.954661 
-11.6452 12.10931 -13.50096 
-17.5792 0 -9.873773 
-16.71591 13.93581 6.499042 
-22.04999 23.7608 -5.875339 
-20.84899 14.58508 -16.74422 
-10.42398 20 3.73486 
-16.34856 20 -12.2846 
-15.6463 0 -9.889404 
-13.23613 0 -11.04391 
-15.97753 15.96009 -13.50096 
-16.49718 0 3.950331 
-20.6116 9.37086 -16.61225 
-22.73833 6.092201 6.499042 
-24.83431 0 -6.341961 
-8.208643 9.660192 -13.50096 
-22.15451 13.96921 6.499042 
-16.29652 0 6.378603 
-22.47668 0 0.5486495 
-25.0554 3.274592 0.3600315 
-18.87859 0 -0.1235301 
-13.46231 19.32267 6.499042 
-5.0554 18.26507 -9.012053 
-25.0554 14.49028 -2.676666 
-5.0554 4.508216 -2.867794 
-18.41383 1.09573 -13.50096 
-19.77994 20 -7.612395 
-22.86872 0 -6.882964 
-5.0554 2.378193 -2.940859 
-5.0554 15.71903 -6.969534 
-25.0554 17.5268 1.92529 
-15.20731 21.88253 -5.194335 
-4.514348 8.53425 -0.3419508 
-22.73328 12.49054 -16.29541 
-7.531539 0 -3.496732 
-12.7821 12.08657 6.499042 
-23.55544 0.9438252 6.499042 
-23.09651 8.535562 -13.50096 
-6.388498 0.2135751 6.499042 
-5.177515 0 5.250066 
-25.0554 0.340486 5.766135 
-4.391487 4.031033 -2.218893 
-12.95004 20 2.04588 
-25.0554 10.40259 -11.68307 
-8.526335 20 -8.076065 
-14.55191 1.838956 6.499042 
-25.0554 5.462134 -9.303027 
-21.52077 2.863121 -13.50096 
-11.90681 6.759814 6.499042 
-20.38904 0 -7.904101 
-22.89804 20 6.005255 
-5.316034 20 -2.231169 
-10.48383 10.64905 6.499042 
-23.16851 20 2.597145 
-16.76758 16.54012 6.499042 
-5.0554 10.0691 -8.174113 
-25.0554 18.68149 -6.732882 
-14.71582 20 0.6085305 
-23.82656 15.40545 -13.50096 
-25.0554 8.190336 -12.52534 
-5.0554 5.405494 -6.933843 
-17.56285 20 -7.875236 
-5.0554 14.47445 4.179543 
-4.207109 8.277392 -0.8899573 
-20.67226 9.21817 6.499042 
-5.0554 15.93156 -10.2256 
-16.63387 18.52072 -13.50096 
-7.717659 20 -9.053815 
-5.0554 11.18577 -0.06288809 
-5.0554 15.36806 -9.255982 
-10.78826 6.239402 -13.50096 
-23.41594 16.66727 6.499043 
-5.0554 1.463035 -4.234405 
-20.38107 24.39544 -5.999461 
-25.0554 13.21937 -11.92293 
-11.43304 0 -1.614898 
-5.0554 0.1418614 1.495248 
-23.30511 20 -1.202352 
-5.0554 14.81367 3.696857 
-10.64647 15.68973 6.499042 
-22.59799 0 -6.172083 
-20.7568 0 -3.561482 
-25.0554 18.62723 -5.623289 
-15.53108 0 -4.044519 
-25.02939 1.173052 -13.50096 
-5.0554 16.27761 -1.006941 
-25.0554 2.285965 -1.148443 
-21.64517 3.497841 6.499042 
-25.0554 0.8661067 -2.389353 
-14.66367 20.44139 -2.66129 
-19.54067 24.67064 -5.643097 
-25.0554 9.653427 -10.68122 
-5.0554 15.88109 -3.976559 
-24.66404 5.297451 6.499042 
-25.0554 14.79366 -4.774416 
-3.515952 3.240188 -0.3880453 
-25.0554 6.082401 5.592608 
-22.96367 21.97413 -0.4264231 
-22.07631 10.02289 -14.53466 
-5.202373 20 -1.412663 
-19.56003 0 6.113431 
-5.0554 13.01937 -13.38416 
-19.05479 9.637216 6.499042 
-12.55751 17.05057 -13.50096 
-17.63811 17.68332 -13.50096 
-17.45464 10.91101 -16.43609 
-7.716344 20 1.111316 
-18.69502 0 1.07896 
-16.8619 0 -11.70486 
-5.0554 15.907 0.5880063 
-20.92801 9.221186 6.499042 
-22.11667 0 6.397973 
-5.0554 1.519444 6.105596 
-15.38467 0.6635881 6.499042 
-10.72545 9.506061 6.499042 
-20.84863 9.718347 -17.90816 
-5.0554 17.71848 -9.746699 
-7.220437 8.60358 6.499043 
-5.0554 4.377409 1.847777 
-5.0554 0.9747719 -8.743125 
-12.70905 2.157422 6.499043 
-5.0554 6.501942 -11.82905 
-10.89022 11.08199 -13.50096 
-2.628914 6.939657 -0.7591785 
-21.54394 20.16359 -8.108309 
-11.69789 0 -5.578208 
-12.26282 18.29468 -13.50096 
-12.77397 20 -9.55819 
-5.149454 4.84046 -2.71185 
-12.74379 18.31927 -13.50096 
-9.993873 0 -4.362201 
-5.0554 12.29592 -12.4243 
-11.22369 3.864896 -13.50096 
-13.67155 4.769076 6.499042 
-18.92321 20 -1.979841 
-7.574739 5.046743 -13.50096 
-7.822701 0 -11.03657 
-19.17318 20 -9.295218 
-5.0554 10.15886 -11.658 
-8.012389 20 3.162698 
-11.60999 14.15684 -13.50096 
-16.42518 20 6.355134 
-23.61184 0 -6.921704 
-8.541555 0 2.817714 
-10.64324 14.60094 6.499042 
-18.72008 20 -0.9116726 
-18.15461 20.48437 1.203413 
-24.24695 0 -13.18961 
-8.429889 0 -10.24437 
-8.624583 0 2.359851 
-25.0554 19.63854 -2.507434 
-4.122626 4.802213 2.806368 
-13.46699 0 3.6988 
-8.438648 10.38243 6.499042 
-15.58267 0 3.448725 
-5.0554 11.2816 -10.58772 
-25.0554 0.7201982 -13.06807 
-5.0554 13.69533 -0.210319 
-6.949379 10.00551 -13.50096 
-14.7628 0.7567799 6.499042 
-21.1946 12.3905 -13.50096 
-15.2567 17.03419 6.499042 
-22.21641 20.38047 -7.722435 
-21.04329 18.54778 -13.50096 
-25.0554 3.33444 -8.893221 
-14.66593 0 -10.60594 
-25.0554 1.733956 -3.935728 
-23.22514 0 -3.96348 
-7.394838 0 -13.28138 
-20.40099 20 -9.620578 
-15.32234 20 -8.793623 
-14.82291 8.960394 6.499042 
-21.85765 15.57422 6.499043 
-25.0554 16.82948 -0.2562146 
-11.71357 0 -9.075644 
-21.77338 3.258871 6.499042 
-18.82092 9.291879 -14.57549 
-25.0554 16.8973 -0.2782702 
-18.43823 1.549513 -13.50096 
-22.05133 18.26546 -13.50096 
-21.43353 12.14156 -20.37137 
-24.54943 20 -6.012174 
-23.24847 2.881382 -13.50096 
-24.20075 21.73728 -4.346362 
-5.722683 20 5.387666 
-22.19959 10.28122 -15.77265 
-23.51683 0 -7.364668 
-22.77541 13.80106 -13.50096 
-23.27449 20 -5.424091 
-5.0554 6.040521 -7.691653 
-25.0554 15.82347 0.0802207 
-21.99942 12.8278 -13.50096 
-25.0554 9.023748 1.0128 
-5.0554 12.67771 -11.95436 
-8.455751 15.29363 6.499042 
-11.28242 2.824819 -13.50096 
-19.68175 20 -7.144297 
-5.0554 9.618799 -12.92631 
-23.49229 0 -9.740618 
-14.81049 2.194847 6.499042 
-11.22824 3.334415 -13.50096 
-11.28194 6.773523 6.499042 
-18.84546 0 6.471784 
-9.580579 5.829143 -13.50096 
-8.844377 20 -7.94493 
-19.34685 13.64848 -19.57885 
-19.50636 3.775725 -13.50096 
-19.43926 3.234888 6.499042 
-14.15683 8.063602 6.499042 
-5.0554 5.590408 -9.131129 
-19.3832 8.625634 6.499042 
-10.80084 9.190801 6.499042 
-16.2048 11.83483 -13.50096 
-25.0554 7.86823 -12.44346 
-15.23461 20 3.140829 
-8.895602 4.152061 -13.50096 
-5.0554 14.87523 -10.82474 
-5.0554 6.570742 3.828656 
-24.52325 2.863187 6.499042 
-22.10228 20 4.838317 
-6.893353 19.18319 6.499043 
-25.0554 8.956499 -11.57468 
-25.0554 12.3863 5.421784 
-9.827076 0 -2.17137 
-5.0554 9.492538 3.644506 
-12.48782 4.207126 6.499042 
-5.0554 10.0631 -4.147957 
-23.14393 20 -9.645566 
-10.07047 20 -1.912093 
-18.05776 20 5.516122 
-18.34026 10.81628 -18.94906 
-14.76182 0 -11.467 
-5.0554 7.620349 0.3021188 
-22.78776 20 -1.045276 
-21.50887 20 -13.40528 
-8.786829 20 -2.92286 
-12.58508 20 -9.584999 
-25.0554 0.1528203 1.158675 
-16.64946 20 -5.016424 
-25.0554 5.422722 -11.10074 
-8.875595 12.08076 6.499043 
-16.65464 0 -12.23037 
-25.0554 19.18261 -5.320787 
-5.0554 1.796243 -5.576309 
-13.70276 17.03114 -13.50096 
-14.93067 0 -8.393033 
-25.0554 5.659801 5.425542 
-25.0554 15.99936 -4.773784 
-21.71431 12.98205 6.499042 
-5.0554 17.79832 -5.743665 
-5.170539 1.750928 6.499042 
-19.82014 9.59221 -17.91262 
-21.92269 10.32701 -17.50222 
-6.128746 0 -6.504276 
-21.07738 22.6606 -7.55815 
-5.0554 14.37347 -3.763321 
-5.0554 4.329251 -3.273257 
-22.43241 20 -4.952768 
-12.96399 20 -13.41058 
-17.43346 24.08944 -5.70413 
-21.87763 16.09963 6.499042 
-22.41761 21.98414 -7.191026 
-25.0554 6.623698 0.4120631 
-2.604314 4.605669 -0.9181542 
-7.031238 13.14367 6.499042 
-14.58209 0 -12.21664 
-5.0554 2.584722 -0.06289697 
-25.0554 5.751704 -6.720046 
-2.361753 6.588811 -0.2426241 
-25.0554 2.850187 -12.55284 
-10.19211 18.3171 6.499042 
-12.43723 0 1.162092 
-18.82277 0 -10.10878 
-22.95911 14.42432 6.499042 
-8.956831 18.10396 -13.50096 
-21.59462 14.49729 -13.93423 
-14.90495 20 5.770627 
-16.99221 11.68146 -14.67346 
-24.4339 9.588689 -13.50096 
-20.97314 8.149115 6.499043 
-11.44253 20 0.5796676 
-9.719093 12.19592 6.499042 
-16.27359 20 2.020178 
-24.96139 9.299086 6.499042 
-11.83996 20 -11.46984 
-13.64017 20 -4.378143 
-5.0554 14.038 -1.568017 
-23.52476 20 -13.07141 
-19.81706 0 4.188284 
-14.88248 15.4738 -13.50096 
-14.81684 21.56961 -3.066796 
-20.27682 20 -7.477418 
-6.211051 0.2690411 -13.50096 
-5.0554 16.36039 5.983339 
-25.0554 19.1446 -2.770743 
-16.46005 20 -2.28296 
-21.58435 20.21093 0.9805263 
-22.40267 23.61304 -1.37838 
-25.0554 8.94798 2.329637 
-15.95608 0 1.580366 
-25.0554 16.88943 -10.56335 
-2.476679 5.861619 -1.098499 
-5.0554 13.961 -9.109877 
-16.32227 0 2.360155 
-5.0554 0.7508059 -11.76589 
-22.89772 0.992638 -13.50096 
-25.0554 16.83243 -1.620217 
-20.23372 0 -5.843021 
-19.53337 20 3.832757 
-10.02305 0 0.803637 
-9.461602 14.76945 6.499042 
-25.0554 15.47583 -12.42308 
-19.01681 9.203607 6.499042 
-12.89072 0 -8.287624 
-12.26892 10.67413 6.499042 
-22.35542 20 2.14578 
-25.0554 4.506554 -3.694803 
-25.0554 18.35115 -0.297328 
-5.0554 14.68537 3.499552 
-5.332345 7.861035 -13.50096 
-12.38873 19.74962 -13.50096 
-18.46627 14.10912 -13.50096 
-5.0554 17.30813 2.558348 
-5.0554 12.56215 -0.9492502 
-18.10206 12.80607 -18.89037 
-24.52781 20 1.326646 
-25.0554 8.213293 -1.352306 
-7.271586 20 -4.397105 
-5.0554 12.01126 0.8287687 
-5.0554 11.6674 -12.79622 
-5.0554 15.79178 -9.334039 
-5.0554 11.18114 2.640768 
-22.45944 12.40434 -17.87131 
-15.64014 0 1.637673 
-9.984785 20 -7.703764 
-12.72361 13.83571 6.499042 
-16.95028 11.6638 -14.14322 
-22.37979 0 4.373761 
-10.78396 0 2.581392 
-23.47842 9.359602 -13.50096 
-15.16453 21.48561 -1.652181 
-20.14389 0 5.916474 
-5.0554 17.89954 -1.873467 
-20.57196 14.4041 -17.92774 
-20.45025 20 -5.999428 
-25.0554 9.642726 2.085107 
-24.2372 20 -12.1565 
-5.0554 19.26863 4.783482 
-9.952482 6.408575 6.499042 
-16.74227 0 -10.33973 
-11.56371 20 -3.862614 
-6.569287 9.146174 -13.50096 
-8.92828 0 -12.14463 
-21.26327 14.57065 -15.66824 
-5.830577 20 -4.376151 
-16.71034 20 5.13669 
-7.79168 20 -10.06736 
-25.0554 11.46133 -2.670691 
-5.0554 2.71593 -10.05739 
-12.53278 12.55442 6.499042 
-25.0554 16.78493 -13.16405 
-22.08893 20.50749 0.7104533 
-5.700424 5.83806 -13.50096 
-22.53114 23.16075 -0.9797003 
-5.0554 1.634538 0.4097571 
-18.53967 18.71177 -13.50096 
-25.0554 12.41083 -9.673633 
-6.947977 0 6.284314 
-5.0554 19.59196 -8.892898 
-5.0554 12.16126 -6.022054 
-20.60297 0 4.80784 
-5.0554 3.518436 0.1707811 
-14.66561 20 1.976606 
-22.24676 13.81262 6.499042 
