ply
format ascii 1.0
comment VCGLIB generated
element vertex 1605
property float x
property float y
property float z
element face 0
property list uchar int vertex_indices
end_header
-2.76601 -0.3615238 1.625989 
-2.177618 1.378598 0.8719963 
-2.45101 1.378598 0.9658965 
-0.76601 0.8447846 0.8675131 
-2.466253 1.378598 2.201775 
-1.049439 0.4538873 0.402965 
-0.8284526 1.16889 0.402965 
-2.76601 0.3712544 0.8660876 
-2.555291 1.378598 1.976489 
-2.415445 1.378598 1.823598 
-2.76601 0.5261893 0.4035797 
-2.76601 0.3113424 1.190809 
-0.76601 1.235718 1.912195 
-0.8795017 -0.621402 1.200678 
-1.292396 -0.621402 0.5439492 
-1.697063 -0.621402 1.112843 
-2.76601 1.373691 2.335342 
-2.322655 1.378598 1.735546 
-1.04042 -0.3689 2.402965 
-2.032493 0.1575981 0.402965 
-0.76601 0.2343607 1.202283 
-2.76601 1.269855 1.532284 
-0.8482231 -0.1635148 2.402965 
-1.665688 1.378598 1.013446 
-0.76601 0.1732946 1.442031 
-1.986254 -0.621402 2.248973 
-2.76601 0.5801052 1.788095 
-0.9606999 0.01901734 0.402965 
-0.76601 0.2927532 2.340853 
-1.352527 1.378598 1.519543 
-0.76601 -0.3623074 0.5200862 
-2.089884 -0.08502696 0.402965 
-1.209172 -0.621402 2.141656 
-2.164358 1.378598 0.6322083 
-0.8808313 1.378598 0.6311525 
-2.76601 0.265125 1.024377 
-0.7767335 0.3042593 0.9558779 
-1.909258 1.378598 0.7312304 
-1.695383 1.201123 0.402965 
-0.76601 1.040443 0.6880221 
-1.458787 -0.621402 1.228844 
-0.76601 0.9002156 2.145666 
-2.76601 1.041644 2.396227 
-0.76601 -0.2432563 1.741053 
-1.998948 0.7312255 2.402965 
-1.840477 0.6986166 2.402965 
-2.76601 -0.3880754 0.798 
-0.76601 1.090045 1.938702 
-0.76601 0.6834195 0.9676033 
-1.504829 1.378598 1.960688 
-1.457503 1.232065 0.402965 
-0.492554 0.3444377 0.9839985 
-2.76601 0.9468659 2.239685 
-1.649531 -0.621402 1.701455 
-0.76601 0.5360326 1.781294 
-1.694057 0.2731092 2.402965 
-2.76601 0.226574 1.082944 
-1.422716 1.378598 0.7823633 
-0.8747738 -0.03728163 0.402965 
-2.623523 -0.621402 1.128134 
-1.020343 1.378598 2.237387 
-2.660704 1.378598 0.4465997 
-0.76601 0.1693468 2.400265 
-2.76601 1.212871 1.742831 
-2.156419 1.594195 1.503199 
-2.332009 0.02975148 0.402965 
-2.691713 -0.6214021 0.5668874 
-0.76601 0.2033448 1.147624 
-1.918021 -0.621402 1.329762 
-2.297507 1.378598 2.378583 
-2.443917 1.034588 2.402965 
-0.7660099 0.9848549 0.8841097 
-2.259928 1.140098 2.402965 
-1.679242 -0.621402 1.097811 
-1.344241 0.1389475 2.402965 
-2.360657 0.9980078 2.402965 
-0.76601 1.274881 0.8432955 
-2.76601 0.6880372 1.002489 
-2.76601 1.12654 1.666167 
-1.373988 0.1349744 0.402965 
-1.562074 1.378598 2.345975 
-0.984462 1.378598 2.103906 
-1.172151 1.300851 0.402965 
-2.76601 -0.3379645 1.3223 
-0.76601 0.06703943 2.269126 
-0.9168965 1.195199 0.402965 
-1.578467 0.9103215 0.402965 
-2.632857 0.4705929 0.402965 
-1.283993 1.378598 1.594363 
-2.493169 0.6521338 0.402965 
-2.359907 0.7997743 2.402965 
-0.8339552 -0.4718423 2.402965 
-2.382771 -0.621402 1.433717 
-2.76601 1.361536 2.287046 
-1.034346 1.378598 0.7800218 
-1.674494 0.4229671 2.402965 
-1.971647 -0.5373678 2.402965 
-2.711273 -0.621402 0.7013333 
-2.76601 1.090698 1.925859 
-0.9494762 1.123995 0.402965 
-2.510805 0.170564 2.402965 
-1.922156 0.7547385 2.402965 
-0.76601 0.3898751 1.610485 
-1.669027 1.560666 1.117052 
-1.04071 -0.621402 2.166345 
-1.969944 0.2021802 2.402965 
-1.702823 1.316064 2.402965 
-0.9337274 0.1660235 0.402965 
-2.260883 -0.621402 1.706844 
-0.76601 -0.06657363 1.113888 
-0.7660099 -0.3563712 1.961045 
-1.119401 1.378598 0.9855061 
-1.800781 1.378598 0.9063452 
-2.52667 1.378598 1.450657 
-1.406515 0.6736122 0.402965 
-1.261766 -0.621402 1.522625 
-2.76601 0.3715553 0.7975876 
-2.76601 0.5211122 1.4525 
-1.98012 0.930727 0.402965 
-2.327567 1.378598 0.5450999 
-1.56317 1.378598 1.994843 
-1.951421 -0.621402 0.9424608 
-2.011413 -0.621402 0.8329681 
-1.692714 1.378598 2.085841 
-0.5157394 0.3394502 1.079167 
-2.284984 0.9821745 0.402965 
-1.536269 1.252424 2.402965 
-2.059727 -0.621402 1.813452 
-2.364354 0.5096043 2.402965 
-1.605336 1.493182 1.168449 
-1.53136 0.7469177 2.402965 
-2.012769 0.6709608 2.402965 
-0.881039 1.378598 2.303468 
-2.382463 0.6492045 0.402965 
-2.067964 -0.621402 1.282204 
-1.390173 -0.621402 0.5254379 
-2.76601 -0.03732988 0.7686509 
-0.76601 0.6963478 2.119076 
-2.388419 1.378598 0.7754281 
-2.76601 1.178089 1.020964 
-0.9345804 0.3064619 2.402965 
-2.76601 0.8970588 0.7901315 
-1.915442 0.305878 2.402965 
-2.76601 0.9170738 1.6498 
-1.71935 1.378598 2.337677 
-1.393026 1.378598 2.213304 
-0.8874723 -0.621402 2.37245 
-1.641153 1.211688 0.402965 
-0.76601 0.1960798 2.096811 
-2.76601 0.8397479 1.314579 
-0.76601 -0.03565234 1.964954 
-2.744582 1.100861 2.402965 
-1.303043 -0.621402 1.1623 
-2.76601 -0.4418548 1.836679 
-2.76601 0.109509 0.8232326 
-2.76601 0.5616508 2.296597 
-0.8420345 0.588609 2.402965 
-1.607438 1.378598 1.245068 
-2.340856 -0.01041117 2.402965 
-1.087064 1.378598 0.8243049 
-1.342572 -0.621402 2.239411 
-0.6793675 0.4970037 0.8331492 
-1.241995 0.06345633 2.402965 
-1.699351 -0.621402 1.084255 
-2.687666 1.378598 0.5363116 
-2.374285 -0.621402 2.272429 
-2.248477 1.521435 1.502819 
-2.76601 0.4771158 2.13802 
-1.733759 1.378598 1.570793 
-1.3028 1.378598 0.6972226 
-1.547813 1.378598 1.612842 
-2.396372 -0.621402 0.4386977 
-2.078556 0.3304567 2.402965 
-0.76601 -0.1355359 0.6557312 
-0.76601 1.162214 1.598215 
-2.76601 -0.4417823 2.002078 
-0.9628079 -0.621402 1.309177 
-1.631726 0.5409642 0.402965 
-2.603991 0.8039065 0.402965 
-1.204488 0.04827464 0.402965 
-2.0229 -0.621402 1.90299 
-0.5239142 0.5494666 0.9143381 
-2.76601 0.2010209 1.34811 
-1.549087 1.271469 2.402965 
-0.8075794 -0.621402 0.9465334 
-0.8655085 0.04938313 2.402965 
-1.803887 -0.3245858 2.402965 
-1.718104 -0.2126772 2.402965 
-2.76601 0.9260372 2.38844 
-0.76601 0.4556821 1.032108 
-0.6318374 0.4562753 1.210032 
-1.03776 1.378598 1.178559 
-0.8175023 -0.621402 2.172949 
-1.549745 -0.621402 0.6879408 
-0.76601 -0.3386619 0.5690082 
-2.76601 1.263342 0.5237835 
-1.487869 1.378598 0.4031056 
-2.32359 0.461065 0.402965 
-1.022109 -0.621402 1.226591 
-2.373919 1.378598 1.058138 
-0.76601 0.8216099 1.307079 
-2.482404 1.378598 2.065839 
-0.76601 0.4249301 1.660908 
-2.679787 -0.621402 0.4919695 
-1.988584 0.9780024 2.402965 
-0.76601 -0.0990665 1.911213 
-1.095807 0.5013187 0.402965 
-1.16454 1.203633 2.402965 
-0.9804709 0.4685692 2.402965 
-2.392374 1.378598 1.588099 
-1.242996 -0.08746588 2.402965 
-0.76601 0.6190957 0.9775521 
-2.251014 1.582558 1.319538 
-0.8892883 -0.621402 2.018333 
-1.006312 0.57842 2.402965 
-0.8205495 1.319257 0.402965 
-1.921661 1.378598 0.5275983 
-0.8038767 -0.621402 0.9212435 
-0.76601 0.7054961 1.656583 
-2.534693 1.309074 2.402965 
-0.76601 0.02252494 1.623892 
-0.7835102 0.2949408 1.00907 
-0.76601 0.1014066 1.85501 
-0.9628998 1.378598 2.163568 
-2.144691 1.378598 0.6883969 
-1.167205 1.378598 2.293082 
-2.625165 0.7878108 2.402965 
-1.021166 -0.621402 1.654187 
-0.76601 0.5731937 1.08516 
-0.76601 0.291377 1.525938 
-2.76601 -0.4713314 0.7616825 
-2.175726 0.9842698 2.402965 
-2.601748 1.378598 2.402892 
-1.487481 0.5370239 2.402965 
-2.723745 1.378598 1.50121 
-2.249071 0.5892485 2.402965 
-0.76601 0.8550372 0.8847741 
-0.76601 0.1997162 1.947376 
-2.646687 0.9456159 2.402965 
-0.7660099 0.6820573 0.7924484 
-2.746782 1.378598 1.41582 
-1.914401 -0.621402 0.5002752 
-2.209332 0.9348947 2.402965 
-1.273796 0.2850581 0.402965 
-2.332161 -0.621402 1.72952 
-1.65385 1.435689 1.450054 
-2.76601 1.347952 2.40084 
-0.8041767 0.8337602 0.402965 
-2.480362 1.138572 2.402965 
-1.254576 0.1918902 2.402965 
-0.9655438 -0.621402 1.568206 
-0.7866926 -0.621402 1.835941 
-1.188471 -0.207255 0.402965 
-2.679366 1.378598 0.9376044 
-1.521764 1.378598 0.8246825 
-2.714531 0.416574 0.402965 
-0.7660099 -0.1039238 1.399843 
-1.378107 -0.1364485 0.402965 
-2.650153 -0.621402 1.290582 
-0.76601 0.01470669 1.532248 
-0.76601 -0.4358702 1.145509 
-1.496474 0.4251343 2.402965 
-0.76601 -0.02730763 0.9738771 
-2.76601 -0.1353008 1.830598 
-1.818835 0.3452705 2.402965 
-1.670191 -0.621402 1.126113 
-1.082945 1.378598 1.582419 
-2.262171 0.2694705 0.402965 
-1.131483 -0.621402 1.099806 
-0.76601 1.121246 1.481819 
-0.8155369 1.355301 2.402965 
-0.7660099 -0.5768561 2.313515 
-2.699986 -0.621402 0.6846136 
-0.76601 0.8409091 1.24289 
-1.262739 -0.621402 2.323248 
-2.343738 -0.04034007 2.402965 
-1.040261 1.378598 1.273256 
-2.76601 -0.2837277 2.073648 
-1.453833 0.2915381 2.402965 
-0.7660099 0.5580045 1.473069 
-2.729046 0.03580572 0.402965 
-2.324933 1.419502 1.453239 
-1.672392 1.378598 1.395427 
-0.76601 -0.2713726 1.181 
-2.76601 1.20367 0.9393818 
-1.080889 -0.621402 1.180105 
-2.504807 -0.621402 1.871688 
-1.466333 0.711113 2.402965 
-0.76601 -0.5781316 2.131794 
-1.513745 1.378598 1.966255 
-1.68323 -0.5676905 0.402965 
-2.76601 0.959515 1.045247 
-1.125873 1.080368 0.402965 
-0.7660099 0.4171661 1.079149 
-2.76601 -0.3274045 2.046338 
-2.76601 -0.6010503 1.046472 
-1.945213 1.688759 1.287112 
-0.9655775 -0.3224637 2.402965 
-1.729959 -0.621402 0.4497223 
-0.7660099 -0.1808698 1.831159 
-2.76601 0.6803083 1.685235 
-0.76601 -0.08776842 1.388896 
-2.506926 0.2167717 2.402965 
-2.002119 0.7890998 2.402965 
-0.5797046 0.3189114 0.9731607 
-1.054932 1.378598 1.617747 
-1.629581 0.7441716 2.402965 
-2.05035 1.378598 2.192855 
-2.085636 1.138481 0.402965 
-0.76601 0.2143971 0.5838156 
-2.197103 -0.372689 2.402965 
-2.76601 0.7544461 0.9316694 
-2.76601 -0.1030325 0.5801405 
-1.740528 -0.621402 0.9657227 
-0.76601 0.5285025 1.195493 
-2.024777 1.253124 2.402965 
-2.663775 0.4365454 0.402965 
-2.010892 -0.621402 0.8865784 
-0.8488715 -0.1671558 2.402965 
-2.76601 0.003417134 1.172691 
-0.8277133 -0.5797499 0.402965 
-2.192378 -0.2067195 0.402965 
-0.76601 0.3455676 2.259285 
-0.76601 -0.2630987 1.403861 
-2.76601 0.259534 1.979996 
-2.408662 0.8175262 0.402965 
-2.76601 1.279321 1.430666 
-2.619564 0.416292 0.402965 
-1.446231 1.018002 2.402965 
-0.9195056 -0.621402 1.238729 
-1.638397 -0.621402 1.642879 
-0.9346649 -0.621402 1.83296 
-0.7660099 -0.2472744 0.9577181 
-2.76601 -0.4885381 1.840662 
-0.76601 0.8256016 0.8851203 
-2.373597 -0.621402 1.951209 
-2.256187 -0.621402 2.104375 
-2.116036 -0.621402 2.150385 
-1.75212 -0.621402 2.369799 
-1.916746 1.378598 0.5225198 
-0.7660099 -0.3828969 1.489504 
-1.815056 1.593229 1.487929 
-0.877619 1.022331 0.402965 
-0.9063979 -0.228725 2.402965 
-0.76601 -0.02549469 1.786309 
-1.719592 1.545071 1.452955 
-2.76601 -0.3126568 1.260327 
-1.42934 -0.2314019 0.402965 
-2.76601 0.8147089 2.275162 
-2.76601 -0.5011343 1.675635 
-1.066242 1.348397 2.402965 
-0.9976827 0.3170861 2.402965 
-2.213737 -0.5490079 2.402965 
-2.76601 0.03430963 0.8454518 
-0.76601 0.6351448 0.8419966 
-2.525006 1.378598 0.6436023 
-0.76601 -0.4484109 0.4699675 
-1.571574 1.26648 0.402965 
-1.88289 0.5620652 2.402965 
-1.341438 -0.4877725 0.402965 
-2.416726 -0.01897025 2.402965 
-1.552067 -0.621402 0.9407786 
-1.818306 -0.621402 1.730725 
-2.689027 -0.621402 2.324636 
-0.9369749 -0.1098713 2.402965 
-0.8958743 0.7997902 2.402965 
-2.76601 -0.1565959 1.833795 
-1.246875 1.378598 0.8537288 
-1.821434 0.8590856 0.402965 
-1.061354 1.378598 2.092804 
-2.76601 1.154962 1.512643 
-0.76601 -0.03972042 0.947212 
-2.76601 0.08527467 1.383092 
-2.45691 1.378598 0.4212059 
-2.76601 1.265548 0.9661636 
-0.7905837 0.2711286 0.402965 
-1.976297 1.059831 2.402965 
-2.287345 1.380735 1.097307 
-2.76601 -0.4366341 0.7987076 
-2.513677 -0.2443852 0.402965 
-2.76601 -0.2682058 1.913838 
-1.782321 1.493027 1.56049 
-2.421908 -0.621402 0.9517128 
-2.76601 0.3420545 1.231582 
-1.654628 1.378598 0.8604782 
-1.622756 1.378598 1.74744 
-0.76601 1.132637 1.010869 
-1.796042 -0.621402 1.261695 
-2.272018 0.8588719 0.402965 
-1.726333 -0.621402 2.309455 
-2.544764 -0.621402 0.8624724 
-0.7660099 1.118572 1.667983 
-2.381969 1.378598 2.073228 
-1.53765 1.027209 2.402965 
-2.261331 1.378598 2.232268 
-2.260732 1.378598 0.7481724 
-1.110458 -0.1010323 0.402965 
-0.809103 1.032572 0.402965 
-0.76601 1.356546 1.645667 
-1.122686 -0.551706 2.402965 
-1.412149 1.378598 0.7761606 
-0.8558208 1.378598 2.384524 
-1.425153 1.209939 0.402965 
-1.651763 1.021652 0.402965 
-2.31645 1.378598 1.040929 
-2.105892 -0.621402 2.315744 
-2.76601 0.4466952 2.162587 
-2.017313 -0.05397503 2.402965 
-2.760807 1.378598 2.20567 
-1.514814 -0.621402 0.7542661 
-1.914813 1.485788 0.8868629 
-0.76601 0.3125261 1.055794 
-0.8150928 0.6499647 2.402965 
-0.76601 1.358533 2.137343 
-2.76601 -0.2633835 1.338196 
-2.003738 1.660095 1.110452 
-0.76601 -0.192222 1.714332 
-0.76601 0.5755131 0.9464791 
-1.269034 1.378598 1.895101 
-1.300679 -0.04187679 0.402965 
-2.128449 -0.621402 0.7394021 
-2.76601 1.208919 1.088715 
-2.301922 -0.621402 1.688188 
-1.982244 1.378598 1.507886 
-2.084586 1.378598 0.4583645 
-0.9999624 1.378598 1.076712 
-2.277143 1.26218 2.402965 
-2.670863 1.378598 0.5277916 
-2.76601 0.9682237 1.28516 
-2.506443 -0.6214021 0.663949 
-2.11042 1.393566 1.660775 
-2.629698 -0.4876413 0.402965 
-2.034881 1.668478 1.159962 
-1.361059 1.378598 1.948698 
-0.7660099 1.154291 0.5311769 
-1.879107 -0.621402 1.568776 
-1.685686 0.7614427 2.402965 
-2.256754 -0.1939701 0.402965 
-2.743343 -0.5380956 2.402965 
-1.581498 0.1161611 2.402965 
-1.479548 1.378598 0.6483376 
-1.07701 -0.621402 1.719061 
-2.22735 1.600216 1.359017 
-0.76601 1.257099 0.4559933 
-0.9233505 -0.621402 0.9528331 
-1.564072 0.007018805 0.402965 
-2.215636 -0.621402 1.894085 
-0.76601 1.352759 0.8678482 
-0.9519293 0.5972943 2.402965 
-2.298027 -0.3741815 0.402965 
-2.062281 1.378598 0.7530565 
-1.448114 -0.621402 1.249193 
-0.7660099 0.1951739 2.007414 
-0.76601 0.1066771 1.80907 
-0.7660099 0.9676829 1.863114 
-2.76601 1.116771 0.7545357 
-2.556859 1.378598 1.622429 
-1.997162 0.6742183 2.402965 
-2.376583 0.5436996 2.402965 
-1.234139 1.378598 0.6681021 
-2.563477 1.17835 0.402965 
-0.76601 -0.2779202 1.360173 
-0.76601 -0.2155858 2.262974 
-2.043156 0.2279555 0.402965 
-1.104127 0.4160802 0.402965 
-1.865403 1.378598 1.821505 
-1.485209 0.8242109 2.402965 
-1.796021 -0.6214021 0.5662522 
-2.76601 -0.1828562 0.800236 
-1.7017 0.1167088 0.402965 
-2.76601 1.007933 0.8755807 
-0.7773305 1.378598 2.238221 
-2.171933 1.378598 2.227314 
-0.7660099 0.6143234 1.368398 
-0.8736867 1.242126 2.402965 
-1.162337 -0.621402 0.6535307 
-2.139765 1.378598 0.5801608 
-0.76601 -0.3269919 0.8072196 
-2.12603 -0.4216783 0.402965 
-0.76601 0.4041412 2.19072 
-2.522443 1.236458 2.402965 
-1.409303 0.04530954 2.402965 
-2.76601 0.3941481 1.700317 
-1.400424 1.082306 2.402965 
-1.548718 -0.621402 1.68023 
-0.76601 -0.01168823 2.107359 
-1.013917 1.032967 0.402965 
-0.7855124 1.193939 0.402965 
-0.76601 -0.00624752 1.551777 
-0.76601 1.046985 1.187832 
-1.752874 1.629044 1.144225 
-1.662548 -0.3847684 0.402965 
-1.728746 1.378598 2.137701 
-2.362193 1.378598 1.45425 
-2.280781 1.378598 2.109482 
-2.603105 -0.621402 1.574262 
-2.76601 0.8034167 1.258146 
-0.994778 -0.6028216 0.402965 
-2.72465 1.225047 0.402965 
-0.9590456 -0.621402 1.794472 
-2.670175 1.053496 0.402965 
-1.932837 1.425095 0.8651696 
-2.326803 1.378598 1.255065 
-2.550576 0.1944679 0.402965 
-2.149371 -0.621402 0.6859337 
-1.322814 0.1918163 2.402965 
-1.554429 1.378598 1.504211 
-1.01793 0.6008201 2.402965 
-0.7660099 -0.08046126 1.074574 
-1.742423 1.316147 0.402965 
-2.506894 0.8993146 2.402965 
-2.184067 0.06616654 2.402965 
-1.330771 -0.3465233 0.402965 
-2.76601 0.6983534 2.212427 
-0.76601 0.7615654 1.894359 
-0.7660099 0.8592067 2.128096 
-2.1842 0.1542815 0.402965 
-2.76601 1.264455 1.199406 
-2.76601 -0.3989545 0.4389557 
-0.76601 -0.4654648 0.6029319 
-2.208728 -0.621402 2.072547 
-1.141919 -0.621402 1.695799 
-2.76601 0.5798191 0.688621 
-0.76601 0.4576776 1.373797 
-2.203257 -0.621402 0.9578382 
-1.494495 -0.621402 1.092741 
-2.76601 -0.3050113 1.134569 
-2.596396 -0.5296218 2.402965 
-2.76601 -0.07496832 0.9186611 
-0.76601 1.15041 0.7534838 
-2.287988 0.4907419 2.402965 
-1.896211 1.585537 1.545171 
-0.8765114 -0.621402 1.773308 
-2.375587 -0.621402 1.648108 
-2.283399 0.1471738 0.402965 
-1.155074 0.9571222 2.402965 
-2.705933 1.378598 2.040302 
-2.76601 1.068756 1.532639 
-0.6909226 0.3433652 0.8861529 
-2.350964 1.378598 2.395446 
-0.76601 0.6279559 0.6560661 
-2.76601 0.02980532 1.018491 
-1.1029 1.096692 0.402965 
-2.76601 -0.3436517 0.8541427 
-1.676547 -0.182242 0.402965 
-2.270772 0.1789448 2.402965 
-1.521268 -0.621402 1.975843 
-1.681288 -0.621402 0.8642678 
-1.22558 -0.5191246 2.402965 
-2.76601 0.6215041 1.020653 
-2.76601 0.4781768 1.022353 
-0.7660099 1.166145 0.7641459 
-2.487282 -0.3824059 2.402965 
-0.641454 0.5956926 0.9222041 
-1.164186 -0.1937213 2.402965 
-2.106702 -0.621402 1.635694 
-1.394158 1.344516 2.402965 
-0.8556422 1.378598 0.9460484 
-2.742826 0.9936773 2.402965 
-2.005276 0.9957951 2.402965 
-2.44995 -0.621402 2.275864 
-2.250978 1.06073 0.402965 
-2.18286 -0.621402 1.786039 
-2.675792 -0.621402 2.240638 
-0.8517357 1.317003 0.402965 
-0.7660099 0.1002716 1.681737 
-1.926242 0.6230853 0.402965 
-2.422338 -0.621402 1.856993 
-2.314654 1.378598 1.720937 
-2.76601 -0.2111549 1.188199 
-2.72382 -0.621402 0.4940953 
-0.853853 -0.4539998 2.402965 
-0.899276 0.3740188 2.402965 
-2.653764 1.378598 1.495148 
-2.463045 0.3633658 2.402965 
-0.9221489 1.378598 1.911457 
-2.535819 1.249532 0.402965 
-2.76601 0.8388755 1.040331 
-1.030138 1.378598 0.4681486 
-1.576637 0.2086829 0.402965 
-1.647106 -0.1338967 2.402965 
-0.76601 -0.2135844 1.210506 
-2.417183 0.02581085 0.402965 
-2.700013 0.2169109 0.402965 
-1.81523 1.378598 2.129056 
-2.76601 1.139585 1.071774 
-1.442864 1.378598 1.840213 
-2.329298 1.424242 1.208557 
-2.579783 0.2526031 0.402965 
-2.395693 -0.621402 0.5112581 
-2.621549 0.1125647 2.402965 
-2.76601 -0.6192248 1.134202 
-2.76601 0.6019654 0.7503157 
-2.216495 1.599435 1.216232 
-0.76601 0.5292847 1.039116 
-2.242453 -0.621402 1.42489 
-1.346947 -0.05869538 0.402965 
-2.76601 -0.2365894 0.7594882 
-1.450679 1.054134 2.402965 
-2.76601 0.007439137 1.421409 
-0.76601 0.2653838 0.489384 
-1.384145 -0.1339249 2.402965 
-2.289032 -0.621402 1.660398 
-2.455523 -0.621402 0.924948 
-0.7660099 0.6148776 0.9877532 
-2.012184 1.378598 0.957828 
-2.593461 1.378598 0.9019092 
-2.267255 1.378598 1.035359 
-0.76601 1.282691 1.148841 
-2.722239 1.378598 1.245694 
-0.76601 0.8153028 0.5483899 
-2.208496 1.378598 0.7260125 
-2.173084 0.1761034 2.402965 
-1.559638 -0.621402 0.4226242 
-2.76601 -0.4186807 1.246484 
-2.76601 0.7937772 0.4385104 
-2.76601 0.9032998 2.171796 
-2.345389 -0.621402 1.18367 
-1.533776 -0.621402 0.7117456 
-1.275177 -0.5700338 2.402965 
-0.9831936 0.3734692 2.402965 
-0.76601 -0.07438421 1.766901 
-1.551582 1.235415 2.402965 
-0.76601 0.6800203 2.177332 
-1.17218 0.188421 2.402965 
-0.76601 -0.0740502 1.541087 
-1.261934 0.1863702 0.402965 
-2.76601 1.219779 0.8098385 
-2.76601 0.4138876 1.989604 
-1.557784 -0.01588379 2.402965 
-0.76601 1.132263 1.85646 
-0.76601 -0.3940526 1.800251 
-2.76601 0.134275 2.245847 
-1.887948 1.378598 1.49593 
-2.713431 0.8624152 0.402965 
-0.76601 1.157938 1.244774 
-2.605844 1.311483 0.402965 
-1.387468 -0.621402 1.213174 
-0.7660099 -0.07372627 1.106789 
-0.76601 0.3184657 1.501352 
-1.106125 -0.621402 1.61839 
-1.605113 -0.621402 1.882828 
-2.76601 0.6750038 0.739788 
-1.264619 1.378598 1.400513 
-1.157745 0.03885211 2.402965 
-0.9804236 0.3982581 0.402965 
-1.919432 -0.0509709 0.402965 
-2.697129 1.378598 0.4488724 
-1.186592 -0.621402 2.180624 
-1.041667 -0.621402 1.055395 
-0.76601 0.7119163 2.043911 
-2.76601 -0.5449919 2.176001 
-2.188255 1.378598 1.425707 
-0.7660099 0.1927511 2.018525 
-2.76601 0.8817586 0.750655 
-1.878669 -0.6102397 2.402965 
-2.117888 0.8462257 0.402965 
-2.041713 -0.5210288 0.402965 
-2.76601 0.1799592 1.060343 
-1.315841 0.9638695 2.402965 
-0.76601 0.8115621 0.8764991 
-2.76601 0.7655575 1.917732 
-2.1175 0.9927964 0.402965 
-2.76601 1.214688 1.094818 
-2.734633 1.378598 1.010245 
-1.661127 0.04567276 0.402965 
-2.666725 -0.1450104 2.402965 
-2.238069 -0.621402 1.645032 
-0.8363571 0.662411 0.402965 
-2.76601 1.198184 1.623033 
-2.76601 1.233652 2.291274 
-2.356152 0.3059123 0.402965 
-0.76601 0.6586254 2.251571 
-1.436452 0.02106224 0.402965 
-1.878302 1.378598 1.967346 
-0.9035096 -0.621402 1.537744 
-2.351643 -0.621402 1.323699 
-1.631386 1.378598 0.4404037 
-2.755393 -0.621402 1.628606 
-1.102237 0.1680177 0.402965 
-2.185606 0.2689325 0.402965 
-0.76601 -0.5827368 0.8586828 
-0.76601 1.302333 2.119374 
-2.760676 0.5555286 2.402965 
-2.76601 0.961676 0.4779049 
-2.746511 1.378598 0.9050663 
-2.76601 -0.3741066 1.796936 
-1.935813 -0.621402 0.778939 
-2.76601 -0.09895803 1.206073 
-1.989547 0.6929829 2.402965 
-2.065857 1.378598 1.649471 
-1.062343 1.018394 2.402965 
-1.875605 -0.5997509 0.402965 
-2.76601 0.2827336 2.19942 
-1.151522 1.378598 0.415274 
-2.76601 -0.01430047 1.283434 
-0.76601 0.3845291 1.012932 
-0.9026867 0.08239663 0.402965 
-1.817356 1.378598 1.668164 
-1.211801 1.378598 0.843115 
-2.76601 0.2207823 2.143728 
-2.254438 -0.07296705 0.402965 
-2.76601 0.7533823 1.030648 
-2.76601 1.236528 0.5018446 
-2.76601 -0.416921 0.4296528 
-1.636101 -0.621402 1.49335 
-0.76601 0.7809787 0.8795772 
-2.237186 -0.59053 2.402965 
-1.273477 1.378598 0.8139418 
-0.76601 0.2211959 1.046119 
-2.663981 -0.621402 0.8319728 
-1.906268 0.8805267 0.402965 
-2.125157 -0.621402 1.714829 
-2.62053 0.9457108 0.402965 
-0.76601 0.360189 0.5856909 
-2.060301 -0.6214021 1.044172 
-2.105567 -0.621402 0.8205047 
-0.7660099 1.304893 0.6809609 
-2.566725 0.8072245 0.402965 
-1.098297 0.9498964 2.402965 
-2.76601 0.8581074 0.5215791 
-2.70043 1.378598 0.5315351 
-1.884543 -0.3031134 0.402965 
-2.76601 -0.6078382 0.8925444 
-0.7890455 0.7108904 2.402965 
-2.370574 1.378598 0.5316474 
-1.836568 -0.4911448 0.402965 
-2.486873 -0.1847616 2.402965 
-2.76601 0.1946903 0.7455313 
-2.01025 1.670076 1.150025 
-2.177738 -0.621402 0.8889056 
-2.76601 0.7311479 2.364971 
-0.9011554 -0.2805299 2.402965 
-0.9244559 0.5577011 0.402965 
-1.788063 0.5770144 0.402965 
-1.153877 -0.621402 2.212253 
-0.76601 1.137123 1.367009 
-1.013865 -0.621402 1.965915 
-1.406064 1.378598 1.45828 
-2.128164 0.142727 2.402965 
-1.178222 -0.621402 1.919712 
-1.747273 -0.2752632 2.402965 
-0.7753338 1.1828 2.402965 
-2.76601 0.2353128 2.131031 
-2.76601 -0.3725812 2.316349 
-1.264938 0.3962868 0.402965 
-0.76601 0.3138013 2.364571 
-1.769341 0.7137107 2.402965 
-0.76601 0.2882802 0.6415212 
-2.76601 1.02802 1.264839 
-0.76601 0.277436 1.487093 
-1.619419 1.378598 1.06776 
-2.659184 -0.07575715 0.402965 
-1.998826 -0.621402 0.9684514 
-0.76601 0.2159338 0.9814147 
-1.717994 1.378598 1.208775 
-1.931039 0.8943223 0.402965 
-2.287695 0.4427656 0.402965 
-0.8332817 -0.621402 1.923539 
-2.76601 -0.5403672 1.135759 
-0.8891034 0.9456738 0.402965 
-1.801922 1.378598 0.549894 
-2.440774 -0.621402 1.840456 
-2.757648 -0.621402 1.751071 
-0.76601 -0.02620196 2.389283 
-0.9933009 1.112868 2.402965 
-1.330217 1.378598 1.412934 
-2.581903 1.378598 1.427639 
-2.225961 0.7765973 0.402965 
-2.703753 0.541715 2.402965 
-1.594724 1.409639 1.337068 
-1.866864 1.378598 2.37097 
-1.561365 0.01566258 2.402965 
-2.408975 0.582361 0.402965 
-0.8966907 1.378598 1.460267 
-1.452766 -0.621402 0.9194161 
-2.76601 0.3934234 0.6926123 
-1.918307 0.2429014 0.402965 
-1.17996 -0.621402 1.54601 
-2.76601 0.06899537 1.059191 
-2.695174 -0.1823475 2.402965 
-1.442567 0.6603385 0.402965 
-0.8899271 0.7816917 2.402965 
-1.454522 -0.6214021 0.5037659 
-1.668848 -0.3132495 2.402965 
-1.814281 -0.621402 1.076592 
-0.76601 0.9286948 1.827211 
-0.76601 0.4256388 2.28375 
-0.76601 1.255404 1.533613 
-2.76601 0.00340271 0.8588204 
-2.724017 0.6230328 0.402965 
-1.309366 -0.02938747 2.402965 
-0.8779004 0.5898409 0.402965 
-0.8043156 1.347403 0.402965 
-1.937083 -0.621402 1.642049 
-2.76601 0.1138602 0.6471784 
-2.222092 1.378598 1.506778 
-2.76601 -0.0389998 2.159336 
-2.76601 -0.09933001 0.8543567 
-2.067504 1.630932 1.490036 
-1.829811 0.9095701 0.402965 
-2.76601 0.1430174 1.11185 
-1.626604 -0.621402 2.20065 
-1.365552 0.01242176 2.402965 
-1.306951 1.378598 2.096451 
-2.76601 1.219293 0.7226424 
-0.7660099 -0.4258947 0.9601624 
-2.509883 -0.6126643 0.402965 
-0.9954447 0.2316779 2.402965 
-2.76601 1.324146 1.160914 
-0.7660099 0.520664 1.735593 
-1.176232 1.378598 0.7488287 
-2.024565 0.3251469 2.402965 
-1.451599 0.1753321 0.402965 
-2.144035 1.378598 1.324937 
-1.853362 -0.621402 1.807197 
-0.76601 -0.5442568 2.11262 
-2.12331 1.378598 1.261803 
-1.314621 -0.1109942 0.402965 
-0.9252777 0.4982728 0.402965 
-0.76601 0.9037409 2.116747 
-2.76601 -0.01111566 1.492637 
-1.974939 -0.621402 0.9805289 
-2.255507 -0.621402 2.39118 
-0.76601 1.335732 0.7911301 
-0.76601 0.50907 0.6112902 
-2.358192 0.5084965 2.402965 
-0.76601 -0.1393276 0.6811469 
-1.351145 -0.07598911 2.402965 
-2.76601 1.266655 2.311464 
-2.747239 0.9715444 0.402965 
-1.806993 0.7429742 2.402965 
-0.76601 -0.4356524 1.525776 
-2.583109 1.378598 2.267442 
-0.76601 -0.4963877 1.616255 
-2.743194 1.378598 0.9821312 
-2.76601 0.955646 1.421797 
-2.76601 0.3523946 0.5459217 
-2.085726 1.378598 1.631775 
-0.76601 0.7112012 1.500738 
-1.205311 -0.5104607 2.402965 
-0.76601 0.5805469 2.362892 
-1.015588 0.5196643 2.402965 
-0.76601 1.15229 1.494734 
-2.717673 -0.621402 0.7033518 
-1.456901 -0.621402 0.7620227 
-1.684991 1.378598 1.540115 
-1.496867 1.378598 1.935231 
-2.76601 0.6337672 1.22543 
-2.529215 0.8038658 2.402965 
-2.76601 -0.2001492 1.601606 
-1.309646 0.6542165 0.402965 
-1.379451 1.378598 2.260048 
-1.595225 -0.621402 1.733506 
-2.246289 -0.1196605 2.402965 
-2.76601 -0.4338914 0.5087588 
-2.220626 0.7337372 2.402965 
-0.7270793 0.5235844 0.8372117 
-2.054871 -0.1495757 2.402965 
-2.76601 -0.1666326 2.398719 
-1.308695 -0.621402 0.7160685 
-1.663568 1.559187 1.31514 
-2.427763 0.7979552 0.402965 
-2.096102 0.5970005 0.402965 
-1.873441 -0.05436675 0.402965 
-0.76601 0.127044 1.338535 
-2.240054 -0.02775896 0.402965 
-1.332281 1.378598 0.6570924 
-0.76601 0.5340511 0.6121223 
-2.400872 1.356028 0.402965 
-0.76601 1.035244 0.6538966 
-1.965551 -0.621402 1.245226 
-1.056741 -0.1952772 0.402965 
-2.76601 1.095162 0.9113207 
-1.338953 1.378598 2.080004 
-0.972734 -0.08369911 0.402965 
-2.408315 1.154771 2.402965 
-2.409101 -0.3408065 2.402965 
-2.4298 0.9641222 0.402965 
-2.76601 -0.5679563 0.7885601 
-1.739642 -0.4847047 0.402965 
-1.781841 1.378598 1.067854 
-1.453516 -0.621402 1.764276 
-2.332962 0.121609 2.402965 
-1.698115 0.3830172 2.402965 
-0.4738928 0.3612944 0.9632061 
-2.25044 -0.2930375 2.402965 
-1.454251 -0.02378434 0.402965 
-0.7660099 0.7300818 2.027715 
-1.576473 1.167577 0.402965 
-1.500254 -0.6214021 1.739327 
-0.76601 0.1308072 0.6161742 
-1.66242 1.570614 1.218298 
-1.275755 -0.3158323 0.402965 
-1.022063 1.378598 0.7217792 
-0.8981574 -0.3893322 0.402965 
-2.28536 0.02813628 0.402965 
-2.631079 -0.2830907 0.402965 
-1.419412 1.16588 0.402965 
-1.319029 1.378598 0.593556 
-1.977785 1.378598 1.866109 
-1.553483 -0.621402 1.712642 
-1.363235 1.378598 1.873982 
-0.8100786 -0.621402 2.033852 
-1.066491 -0.2841013 0.402965 
-2.334705 -0.05820704 0.402965 
-1.1665 1.378598 2.001621 
-0.76601 0.988295 1.91041 
-0.76601 1.321419 0.4850299 
-0.7660099 -0.03375092 2.138946 
-2.76601 0.9664009 2.131991 
-0.76601 0.6437851 0.8030594 
-2.76601 0.562007 2.127382 
-0.5755622 0.3670412 1.15622 
-1.03053 1.202636 0.402965 
-2.195242 -0.621402 0.5020868 
-0.76601 0.8614172 1.633405 
-1.117417 0.5402744 2.402965 
-1.433121 1.141139 2.402965 
-1.876946 0.7801692 2.402965 
-2.572981 -0.5604928 0.402965 
-1.545678 1.378598 2.277905 
-1.718768 -0.621402 0.9529846 
-1.245044 -0.08645236 2.402965 
-1.473078 1.378598 2.177974 
-2.76601 0.8680786 2.255831 
-2.361954 -0.527204 2.402965 
-0.76601 -0.5840462 1.143702 
-1.675877 -0.621402 1.778456 
-1.43867 0.7222526 0.402965 
-1.548553 -0.621402 1.912504 
-0.9684864 0.233685 2.402965 
-2.76601 0.7862372 1.792067 
-0.76601 -0.5389159 0.9470242 
-2.744087 -0.621402 0.95138 
-1.531418 -0.621402 1.288336 
-0.76601 0.4154524 1.253666 
-0.8070381 0.4587075 0.402965 
-2.411053 1.378598 0.772077 
-2.118106 -0.621402 1.219654 
-0.76601 -0.2784263 2.093859 
-2.263001 1.570408 1.324351 
-2.76601 1.07163 0.6709492 
-2.76601 -0.3711851 1.746597 
-1.664285 0.7379652 0.402965 
-2.312913 0.3095349 2.402965 
-1.807505 1.60988 1.034941 
-2.141573 0.7940462 2.402965 
-2.76601 0.9152404 1.129217 
-1.951765 -0.5421659 0.402965 
-1.508657 0.5347656 0.402965 
-2.76601 -0.4258705 1.260441 
-2.233913 0.7255862 0.402965 
-1.93199 0.5623405 0.402965 
-2.76601 -0.5195329 1.672871 
-2.596882 0.07612935 2.402965 
-0.76601 0.9309678 0.9707999 
-0.9681264 -0.621402 1.573025 
-1.203182 -0.621402 0.5136716 
-1.236528 -0.621402 1.756869 
-1.458707 -0.5064175 0.402965 
-2.604891 1.035467 2.402965 
-1.930956 -0.621402 2.123541 
-1.332494 -0.5488492 0.402965 
-1.913301 -0.621402 0.7049881 
-0.76601 -0.37291 0.5205279 
-0.76601 0.4411308 0.9190676 
-1.26977 0.243791 0.402965 
-2.453026 -0.3752403 0.402965 
-0.76601 0.7545069 1.519008 
-0.9792224 1.311382 0.402965 
-2.472187 0.1351857 2.402965 
-0.76601 1.352464 1.115144 
-0.76601 0.08545184 2.365587 
-2.184855 -0.621402 1.520718 
-1.385816 0.08205235 2.402965 
-2.76601 0.7378023 1.554243 
-1.22342 -0.6033671 0.402965 
-0.8019868 -0.621402 1.96475 
-0.76601 0.6289087 0.5235952 
-2.76601 0.6469576 2.387837 
-2.743948 -0.621402 1.074099 
-2.412687 0.1850283 0.402965 
-0.76601 0.1004985 1.238412 
-0.7660099 -0.2089524 1.035505 
-2.76601 0.9411214 0.4308202 
-0.76601 0.5462377 2.16481 
-1.482811 1.378598 1.622266 
-0.76601 -0.5667056 1.320111 
-2.245912 1.296341 0.402965 
-2.204314 -0.621402 0.4167069 
-0.9239894 1.378598 0.9029865 
-0.76601 0.4833705 1.952665 
-2.76601 -0.25493 0.5151691 
-2.519986 -0.1376741 2.402965 
-0.76601 -0.3963983 1.282009 
-2.633772 0.6061082 0.402965 
-2.557226 0.8329003 2.402965 
-2.05949 -0.621402 1.312834 
-0.8500747 0.9122488 0.402965 
-1.145315 1.378598 1.853736 
-1.66165 1.378598 1.218166 
-2.264961 1.565301 1.271171 
-2.45673 -0.621402 2.177606 
-1.937459 1.378598 1.711956 
-2.712106 0.2938772 2.402965 
-2.530599 -0.621402 0.7607847 
-1.423924 -0.2428034 0.402965 
-1.596098 1.378598 2.126968 
-1.099233 1.377602 0.402965 
-1.962649 1.648215 1.07372 
-2.534911 -0.2798681 2.402965 
-2.357667 1.378598 1.57708 
-0.7846755 1.301821 0.402965 
-0.76601 -0.5145991 1.016814 
-2.624346 0.02214971 2.402965 
-1.290084 1.378598 2.161189 
-2.011939 0.02359549 0.402965 
-1.951099 0.9765916 2.402965 
-1.462184 -0.4535228 0.402965 
-2.123522 0.4941411 2.402965 
-0.7660099 0.4852137 1.594168 
-1.40669 0.5319343 0.402965 
-2.76601 -0.2100146 1.507264 
-2.519193 -0.621402 1.847719 
-1.651568 1.378598 1.870852 
-0.789417 0.2598765 0.402965 
-0.76601 -0.6050617 1.871633 
-0.76601 0.2136833 1.868503 
-0.8362386 -0.621402 1.372703 
-2.158949 -0.621402 1.432871 
-2.495533 1.152102 0.402965 
-2.76601 -0.5610709 1.759975 
-2.53928 1.09009 2.402965 
-1.443791 -0.621402 2.239499 
-0.894976 -0.4123578 0.402965 
-1.072745 -0.1022142 2.402965 
-1.078784 1.378598 1.933085 
-0.7660099 0.03352755 0.9471557 
-2.707161 -0.3119454 0.402965 
-1.510244 -0.621402 1.513227 
-1.098441 -0.6044535 2.402965 
-0.76601 -0.4892948 1.656836 
-1.783768 1.378598 0.9894447 
-2.581181 1.378598 1.223752 
-2.29938 -0.3372539 2.402965 
-2.606124 0.671098 2.402965 
-2.399833 0.2353587 2.402965 
-1.296778 1.178014 0.402965 
-2.543706 1.169926 2.402965 
-0.76601 0.1051612 1.474028 
-2.76601 1.209307 1.365779 
-2.261603 1.378598 0.4918707 
-1.68129 1.162561 0.402965 
-1.869497 -0.2247881 2.402965 
-0.76601 0.2359327 1.136034 
-2.311869 1.378598 2.151391 
-0.76601 1.026455 0.6611041 
-1.959735 -0.5022181 0.402965 
-1.284968 -0.621402 1.731548 
-1.983565 0.790754 2.402965 
-1.31169 1.378598 1.384479 
-0.5367758 0.4525881 0.8647026 
-1.839428 1.378598 2.287023 
-0.76601 0.2432443 0.4988338 
-2.086581 -0.621402 0.946781 
-0.9251414 1.378598 2.14902 
-2.134969 1.066958 2.402965 
-2.485443 -0.0878078 2.402965 
-2.163231 -0.621402 1.797704 
-1.296775 0.06013034 0.402965 
-2.76601 0.05236962 1.384101 
-2.76601 -0.4729738 0.4284095 
-2.611094 0.631401 0.402965 
-1.297244 0.8328595 0.402965 
-2.76601 -0.06853259 0.6033489 
-1.800274 -0.1526837 2.402965 
-0.76601 -0.5745205 0.8543203 
-0.76601 0.1722158 1.370555 
-2.146546 1.540568 1.016687 
-2.23655 1.378598 0.4988813 
-1.484571 -0.621402 2.202034 
-1.990002 -0.5871425 0.402965 
-2.76601 -0.3490344 1.224414 
-0.76601 0.4177797 0.6734017 
-1.266557 -0.621402 2.124846 
-2.76601 -0.06500756 2.401863 
-2.696782 0.2375406 0.402965 
-1.889619 1.162005 0.402965 
-2.236197 -0.621402 2.033324 
-1.642689 0.6732689 2.402965 
-1.973094 1.378598 2.142813 
-2.383582 0.4879509 0.402965 
-2.76601 0.6414948 1.501951 
-0.76601 -0.3969305 2.137537 
-2.737944 1.378598 1.183644 
-0.78672 -0.621402 0.7109822 
-1.577968 -0.621402 0.6091533 
-1.284668 -0.621402 0.7081163 
-0.7660099 -0.49601 1.693146 
-0.76601 1.186053 1.511077 
-1.39958 1.378598 0.5518319 
-2.76601 0.5894053 0.9951814 
-0.76601 -0.1318826 0.4518079 
-0.76601 0.7171181 1.557453 
-1.154819 1.378598 0.7371465 
-2.530563 1.256476 0.402965 
-1.410581 -0.6214021 0.6558789 
-1.415192 0.5291071 0.402965 
-2.76601 0.4628214 0.4570965 
-0.76601 0.8171387 2.225556 
-2.76601 0.1002344 0.4904763 
-2.05214 1.447567 1.659942 
-2.76601 -0.1610414 0.8952488 
-1.081445 -0.621402 1.992566 
-1.137516 0.08085775 2.402965 
-1.627416 1.378598 0.4860066 
-2.76601 0.1502119 0.4448891 
-1.749665 -0.1116432 0.402965 
-1.741754 1.378598 1.873122 
-1.784809 -0.621402 2.335241 
-0.7677403 0.1835749 0.402965 
-2.037972 0.4005105 0.402965 
-1.412688 -0.02691795 2.402965 
-0.8364752 1.378598 0.4555858 
-2.76601 0.1313548 1.32638 
-2.604453 1.378598 2.279602 
-1.472052 1.378598 2.092103 
-2.267483 -0.621402 1.711241 
-2.111662 1.609084 1.077349 
-2.76601 1.171571 2.008822 
-2.76601 0.676456 0.7615324 
-1.348867 1.378598 0.4193506 
-2.334059 0.8419005 0.402965 
-0.76601 0.1444089 0.5117072 
-2.340024 1.124458 2.402965 
-1.196 -0.621402 1.526798 
-2.76601 -0.55762 2.002368 
-0.8324134 -0.621402 1.089358 
-1.523865 -0.621402 0.6155672 
-1.304238 1.378598 0.5233133 
-2.76601 0.4356427 0.5109095 
-1.004052 -0.4700582 0.402965 
-1.068109 -0.6214021 2.256018 
-2.219681 1.378598 1.997953 
-1.023849 1.378598 0.5775791 
-1.348743 -0.621402 0.4269843 
-2.756249 -0.621402 0.6294116 
-2.339559 1.378598 1.46839 
-0.7660099 0.9655854 1.66339 
-2.377931 1.125887 0.402965 
-0.76601 1.353928 0.8754539 
-1.661376 1.556538 1.316425 
-1.658097 -0.621402 1.827044 
-1.430139 1.378598 1.796114 
-0.76601 0.1797365 0.764295 
-1.149533 -0.1790316 2.402965 
-2.646833 1.310272 0.402965 
-0.7680574 0.08988284 2.402965 
-2.011353 -0.621402 1.528734 
-2.225904 1.085697 0.402965 
-0.7235783 0.4282339 0.8282911 
-2.76601 -0.01449786 1.573272 
-2.152256 -0.621402 1.82183 
-1.850082 1.378598 2.321372 
-0.9307082 1.174838 2.402965 
-2.348534 -0.621402 2.099632 
-2.614944 1.357293 0.402965 
-1.066447 -0.5918353 0.402965 
-2.76601 1.078532 1.614756 
-2.762166 0.1779771 0.402965 
-1.130484 0.5123863 2.402965 
-1.147549 -0.621402 1.723638 
-2.76601 0.8117304 1.608882 
-1.658441 1.378598 0.477594 
-2.594116 0.9120421 0.402965 
-2.565127 -0.2027146 2.402965 
-2.314635 1.47338 1.219492 
-1.471849 0.5356494 0.402965 
-1.393213 -0.621402 2.159004 
-1.961199 -0.621402 2.211096 
-2.729567 1.378598 1.492457 
-2.76601 -0.1708044 1.423242 
-0.7660099 1.333096 1.725227 
-2.745957 1.378598 0.991923 
-1.027227 0.5316758 0.402965 
-1.692142 1.576412 1.103342 
-2.385933 1.378598 1.036182 
-1.685323 -0.2305095 0.402965 
-2.76601 0.4116068 2.18407 
-1.790316 -0.4348372 0.402965 
-2.348357 1.378598 2.039176 
-2.022653 1.462834 1.655708 
-2.597658 0.3469867 0.402965 
-0.7660099 0.5953724 1.926685 
-2.284937 1.319991 2.402965 
-0.936323 -0.621402 0.4906006 
-2.661882 0.1076606 2.402965 
-1.391236 1.378598 1.460761 
-2.76601 0.7456853 0.7634233 
-2.548722 -0.4548874 0.402965 
-2.76601 -0.2619001 0.6072591 
-0.7660099 0.924255 2.126035 
-1.846711 1.671884 1.306255 
-0.7660099 1.352188 1.578828 
-2.286338 -0.621402 1.165731 
-1.970059 -0.621402 1.13603 
-1.875458 1.30665 0.402965 
-0.7660099 1.074192 1.73537 
-1.920219 1.636211 1.046219 
-2.685038 -0.621402 0.9647015 
-0.5527098 0.5672846 0.9193805 
-0.775885 1.378598 1.864346 
-2.257055 -0.1748441 2.402965 
-1.259997 1.313993 0.402965 
-2.280316 -0.621402 0.4095062 
-0.76601 -0.5674732 0.8050421 
-2.76601 0.750775 2.265161 
-2.382173 0.1813586 0.402965 
-0.7947416 1.378598 2.047679 
-2.76601 -0.6140599 0.6895612 
-1.984031 1.432214 1.665017 
-0.76601 0.2505 1.919667 
-0.76601 0.2978124 0.4541022 
-1.230202 0.7164686 0.402965 
-2.76601 0.7209468 0.9862967 
-2.76601 -0.2031776 2.000973 
-2.76601 1.054295 1.725542 
-1.714104 -0.4087043 0.402965 
-2.76601 0.5725838 0.7045519 
-2.76601 1.325784 0.6296061 
-2.746184 1.095196 2.402965 
-2.76601 1.048953 0.7577986 
-2.724425 -0.5530199 0.402965 
-1.794101 -0.1775869 2.402965 
-1.474113 0.5688562 2.402965 
-2.698344 -0.3488967 0.402965 
-1.10343 -0.6214021 1.096767 
-2.76601 0.9335325 2.046047 
-2.76601 1.22184 1.883196 
-2.381316 1.378598 0.4884061 
-2.163317 1.378598 0.5110866 
-2.30223 0.5705855 2.402965 
-1.410728 -0.532156 0.402965 
-1.041509 -0.621402 2.229767 
-1.160557 1.180293 2.402965 
-0.7950521 1.176464 0.402965 
-2.604792 0.3288819 0.402965 
-1.292809 1.351335 2.402965 
-2.380577 -0.621402 0.5641515 
-2.192794 1.378598 1.343864 
-2.117404 0.7409793 2.402965 
-2.76601 0.1445411 1.11237 
-2.68827 -0.621402 1.118741 
-1.406842 -0.621402 0.4593579 
-0.76601 0.9428642 0.9671297 
-0.76601 -0.5767652 1.890544 
-2.052659 0.5595814 2.402965 
-1.733711 0.2507896 0.402965 
-1.76499 1.378598 1.389818 
-2.028625 1.124024 2.402965 
-1.785488 -0.621402 0.6407654 
-2.76601 0.7113467 1.777466 
-2.19676 1.378598 0.9428424 
-2.291363 -0.621402 1.294934 
-1.730857 0.9068729 0.402965 
-1.499888 1.137523 0.402965 
-0.7945474 -0.621402 1.813572 
-2.76601 0.3059325 0.615842 
-2.463562 -0.588695 2.402965 
-2.76601 1.353757 0.9823527 
-1.148699 -0.2272977 0.402965 
-1.587842 1.378598 1.40055 
-2.76601 1.289326 1.233165 
-2.76601 0.1360364 1.521253 
-1.932506 1.378598 1.124549 
-2.253789 -0.621402 2.167044 
-2.435966 -0.07959533 2.402965 
-1.17602 1.15234 0.402965 
-1.128881 -0.621402 1.989236 
-0.7660099 0.6720359 2.187844 
-1.111741 0.338842 0.402965 
-1.92584 -0.6214021 0.6982135 
-2.256743 0.9786857 2.402965 
-2.76601 -0.4341505 1.609004 
-2.76601 1.21843 0.5477306 
-2.76601 0.8674669 0.6516994 
-0.8168472 0.4087088 0.402965 
-0.76601 0.4279132 2.344047 
-1.584978 -0.2177558 0.402965 
-1.428323 0.5450655 2.402965 
-1.799335 1.378598 1.755581 
-0.76601 0.9830657 1.885362 
-0.8186045 1.378598 1.768186 
-0.892009 -0.3272826 0.402965 
-2.76601 0.3727359 0.8946554 
-0.9058321 0.4713414 0.402965 
-2.752222 -0.621402 0.688565 
-2.76601 1.241582 0.562915 
-2.419464 1.378598 1.868746 
-1.525259 1.378598 0.5756157 
-2.036571 1.378598 1.031842 
-1.935981 -0.621402 1.845658 
-2.368297 -0.621402 1.951497 
-0.76601 0.7602394 2.206833 
-2.76601 -0.06483611 1.850248 
-1.899513 0.8585211 2.402965 
-1.953211 -0.5045701 2.402965 
-0.76601 -0.2881677 1.057012 
-0.7006992 0.6288621 1.039864 
-1.618507 -0.621402 1.679194 
-2.003385 0.02921799 0.402965 
-2.196008 -0.621402 1.227171 
-0.76601 0.8310486 0.9888438 
-1.460691 0.250717 2.402965 
-1.836152 1.659772 1.355616 
-2.314006 0.3844645 0.402965 
-2.76601 0.5546871 1.21306 
-0.627651 0.4828577 0.8389168 
-0.8902568 1.378598 2.262794 
-0.76601 -0.4771857 1.63274 
-0.7660099 0.5988951 1.959897 
-0.76601 0.5328391 1.719343 
-1.52603 -0.621402 1.07503 
-2.76601 1.301607 1.86292 
-0.76601 0.07134822 1.798297 
-0.7758304 -0.621402 1.36648 
-2.259795 0.6134107 2.402965 
-0.9841452 0.9543829 0.402965 
-2.077883 0.6377733 2.402965 
-0.76601 0.6198123 1.439368 
-1.863552 1.428341 1.635114 
-0.9592916 -0.621402 2.102545 
-1.230441 0.3540329 0.402965 
-2.586003 1.378598 1.333848 
-1.295707 1.378598 1.044289 
-1.683134 -0.5788095 2.402965 
-1.683697 1.378598 2.161048 
-0.76601 0.9742023 1.56204 
-2.14525 0.2736024 0.402965 
-2.704386 -0.574424 0.402965 
-2.76601 0.9285555 0.9876051 
-2.684532 1.080812 2.402965 
-1.60766 -0.621402 1.663061 
-0.76601 0.7077396 1.295097 
-1.573491 -0.6214021 1.796634 
-1.940429 0.7594773 2.402965 
-2.76601 1.220984 2.294935 
-2.562935 -0.621402 1.303753 
-2.06383 -0.621402 1.953796 
-0.9873121 0.6087949 0.402965 
-1.019071 1.332597 2.402965 
-0.7660099 1.239059 2.069033 
-2.375036 0.9114465 2.402965 
-2.76601 0.8947673 1.392419 
-2.276271 1.378598 1.668923 
-0.76601 0.4903919 0.5853934 
-2.76601 0.8196942 0.5824537 
-0.7660099 1.313051 1.535575 
-2.76601 0.06957328 0.5021535 
-0.9223084 -0.621402 1.001252 
-1.977734 -0.01919306 0.402965 
-2.76601 0.1779752 1.669837 
-1.301685 1.375792 0.402965 
-0.911279 1.378598 1.148772 
-1.958819 1.490387 0.8950546 
-1.350793 -0.4764379 0.402965 
-1.979866 1.378598 0.8015173 
-0.8496471 1.378598 1.957544 
-2.665662 -0.621402 1.036191 
-2.338982 -0.621402 0.8389157 
-2.76601 1.080071 0.698163 
-1.322551 -0.621402 1.278101 
-2.336076 0.05403018 2.402965 
-0.76601 0.2649885 0.5576106 
-2.437142 1.378598 0.9906992 
-1.078377 -0.621402 1.259057 
-0.7862424 -0.621402 1.578515 
-1.401879 1.378598 1.759902 
-0.76601 -0.5168301 2.356431 
-2.76601 0.9086378 1.520772 
-0.9349309 0.9489372 2.402965 
-1.046683 -0.621402 1.382632 
-0.9803128 -0.621402 1.41315 
-2.578895 -0.621402 0.9872094 
-2.09256 -0.621402 2.282533 
-1.055478 0.3506209 2.402965 
-1.587693 -0.621402 1.918251 
-1.059149 0.2740826 2.402965 
-2.133607 -0.621402 1.271713 
-2.76601 -0.367591 1.14524 
-2.188549 -0.005607754 0.402965 
-0.7660099 -0.2271914 0.9828247 
-1.822901 -0.5320628 0.402965 
-1.317965 1.378598 1.315681 
-2.76601 0.7790219 2.262725 
-2.574838 0.2300891 0.402965 
-1.631492 1.378598 1.431033 
-0.8016904 -0.455366 0.402965 
-1.763851 -0.621402 1.704543 
-2.066808 0.6041309 0.402965 
-0.76601 0.9578192 0.8656617 
-1.923462 1.346005 2.402965 
-2.194556 1.378598 1.060512 
-0.76601 1.086848 0.9644217 
-2.76601 0.644807 1.496581 
-2.76601 0.6150309 1.135152 
-0.8148864 0.884774 0.402965 
-2.21023 0.9065756 2.402965 
-2.288212 -0.621402 1.212901 
-1.248382 0.5089823 0.402965 
-2.472895 -0.4931045 2.402965 
-0.76601 0.5229344 2.143007 
-1.772827 -0.5760434 2.402965 
-0.8536235 -0.3465797 2.402965 
-2.76601 1.315432 1.630429 
-1.192654 0.03634247 0.402965 
-2.598376 0.4328735 0.402965 
-2.76601 0.4678547 0.5538259 
-0.76601 0.9082638 2.214272 
-1.586141 1.378598 1.837698 
-0.76601 -0.5626506 0.9382325 
-2.76601 -0.2881552 0.7768904 
-2.76601 0.3354503 2.219813 
-1.162711 0.3633125 2.402965 
-1.613237 0.1664506 2.402965 
-0.7660099 0.4764368 1.115921 
-0.76601 1.003986 1.282273 
-2.76601 -0.6010013 1.380145 
-1.776564 1.64558 1.180568 
-0.76601 0.9971662 1.400037 
-0.9355702 -0.621402 1.997357 
-2.438051 0.0197109 2.402965 
-2.055457 1.378598 2.042646 
-1.522276 1.378598 1.090995 
-2.76601 0.4648352 1.276242 
-2.308336 0.2365301 0.402965 
-1.262316 1.328095 2.402965 
-1.703783 0.7209618 2.402965 
-0.8768816 -0.621402 2.038862 
-1.026543 1.378598 0.7609328 
-0.7660099 -0.5790919 1.664223 
-2.515295 0.982615 2.402965 
-1.145767 -0.197754 0.402965 
-0.76601 1.141567 1.256328 
-1.737438 1.59777 1.077053 
-1.406086 1.378598 2.302521 
-2.76601 -0.5332203 0.8449116 
-2.760949 -0.621402 1.460249 
-2.146153 0.2982332 0.402965 
-2.444332 1.378598 0.667226 
-2.167922 -0.1428504 2.402965 
-2.596539 0.4138327 2.402965 
-1.407917 1.054147 0.402965 
-2.76601 -0.3696756 2.210553 
-2.76601 1.361221 0.5241372 
-0.76601 0.5133753 1.467489 
-0.76601 -0.428687 1.729195 
-0.76601 1.038427 1.075174 
-2.76601 0.7563003 1.570541 
-1.876918 0.7085812 0.402965 
-2.76601 0.4681326 0.6945006 
-2.144829 -0.1546029 2.402965 
-1.783432 1.582364 1.474865 
-1.926051 -0.0234107 0.402965 
-1.832413 -0.4944881 0.402965 
-0.9988636 -0.621402 2.231942 
-2.76601 0.4270679 0.961631 
-2.76601 -0.5558385 1.036933 
-2.76601 1.197468 2.202323 
-1.176814 1.378598 0.5172588 
-1.068048 1.283453 0.402965 
-2.328889 -0.586213 0.402965 
-1.951463 1.076574 0.402965 
-0.8250424 0.9410765 2.402965 
-2.191682 0.5238847 2.402965 
-2.624854 0.7208247 2.402965 
-0.76601 0.754593 1.625749 
-1.505103 -0.621402 2.050862 
-2.205187 0.4404534 2.402965 
-1.496887 1.378598 1.161729 
-0.76601 1.361138 0.4349179 
-0.9058046 0.7460802 0.402965 
-2.3533 -0.621402 2.260781 
-2.62467 1.378598 1.718653 
-0.9704215 1.378598 1.322894 
-2.562206 1.10177 2.402965 
-2.194547 1.445103 1.611987 
-2.54192 -0.621402 1.220955 
-0.76601 0.8853508 2.225075 
-2.76601 0.9256626 1.327191 
-2.008835 0.3705211 0.402965 
-2.76601 -0.2053324 0.8264071 
-2.76601 0.04636726 0.4581159 
-2.207953 1.37944 1.6192 
-1.880412 1.326982 0.402965 
-0.822745 1.378598 2.126375 
-0.8050904 0.9961779 2.402965 
-2.76601 -0.600755 0.6150725 
-1.917625 0.3341228 2.402965 
-2.188803 1.544692 1.544767 
-2.76601 -0.06654213 1.032424 
-0.6481971 0.3240687 0.9246072 
-1.176621 0.8578596 0.402965 
-2.76601 0.6240116 1.873621 
-1.497814 -0.621402 1.316462 
-0.76601 -0.3078663 0.6752412 
-0.76601 0.08631456 0.4424605 
-1.53478 1.378598 1.055723 
-2.487092 -0.621402 1.226044 
-0.76601 0.6844206 1.046239 
-1.235353 -0.621402 0.9654722 
-2.223792 1.604554 1.29339 
-2.499831 -0.621402 1.11596 
-0.76601 0.1982144 0.6762257 
-1.916583 0.3934083 0.402965 
-2.042834 -0.621402 2.382005 
-0.76601 0.6923182 0.9556527 
-1.820255 -0.2646976 0.402965 
-1.285637 1.378598 1.851301 
-0.76601 0.2718025 1.320465 
-2.647645 1.378598 1.514448 
-1.078198 1.378598 1.049155 
-0.76601 -0.4714102 2.127227 
-2.010004 -0.621402 1.445772 
-2.066504 0.8733314 0.402965 
-2.76601 -0.3287702 1.021278 
-1.33832 0.6417282 2.402965 
-2.76601 0.9333038 2.360439 
-2.76601 0.2285378 2.132629 
-1.593154 1.378598 2.258148 
-1.808585 -0.3719989 0.402965 
-0.76601 0.7822753 0.6339419 
-1.075905 0.618945 2.402965 
-1.043474 1.378598 0.8859562 
-1.014471 -0.621402 0.578596 
-1.425041 -0.621402 1.125667 
-0.76601 0.6954895 1.717065 
-0.7660099 0.4721105 1.043251 
-0.76601 1.30687 1.544547 
-2.347257 0.5680783 0.402965 
-1.578561 -0.621402 2.177658 
-2.373785 0.6414322 2.402965 
-1.624041 -0.4874052 0.402965 
-2.76601 -0.1339082 1.999517 
-1.95775 1.405585 0.8632416 
-1.730902 -0.621402 1.730178 
-0.903864 1.378598 0.9241502 
-0.7660099 0.7290853 1.86645 
-2.76601 0.7269988 0.817745 
-0.9663035 0.7384787 0.402965 
-1.957684 -0.5470845 2.402965 
-1.202624 -0.621402 1.39981 
-2.536541 -0.4233371 2.402965 
-1.129126 0.09170663 0.402965 
-0.3955477 0.4267163 1.060932 
-1.703717 -0.3799667 0.402965 
-2.76601 -0.2773058 0.693777 
-2.76601 -0.04649514 0.4753725 
-2.76601 0.5177869 0.4682838 
-0.8311281 0.8957376 2.402965 
-1.509166 1.378598 1.305445 
-1.223916 -0.03727651 0.402965 
-1.552568 -0.3512753 0.402965 
-1.672591 1.555246 1.095089 
-2.584517 0.8652964 0.402965 
-1.577536 -0.621402 1.712613 
-2.76601 1.01846 1.42694 
-0.76601 0.247175 1.843868 
-2.76601 0.6359735 2.335901 
-0.76601 0.141869 0.4838639 
-2.76601 0.3041015 2.361612 
-1.876799 1.378598 2.160987 
-1.353854 -0.621402 1.896678 
-1.865169 1.378598 1.62237 
-2.698756 1.113368 0.402965 
-2.76601 0.6346304 0.807797 
-1.694291 -0.621402 2.230426 
-1.433733 -0.3357353 0.402965 
-2.76601 0.6339946 1.484308 
-1.285674 0.8690114 2.402965 
-1.83587 1.378598 0.7647481 
-2.064697 0.7893231 0.402965 
-2.76601 -0.241965 0.5332553 
-1.611337 1.378598 1.171267 
-0.76601 -0.6024026 0.7312735 
-1.41667 0.4014329 0.402965 
-1.207039 -0.621402 0.5246101 
-2.490029 -0.621402 1.741975 
-1.073839 1.378598 1.921209 
-1.33249 0.1681278 2.402965 
-2.195742 -0.621402 1.546074 
-2.186909 -0.621402 1.881338 
-1.38298 -0.2572471 0.402965 
-2.76601 -0.452236 1.688256 
-2.075897 1.339998 0.402965 
-2.270142 -0.621402 1.563079 
-1.779072 1.378598 0.8428489 
-2.76601 -0.4718212 0.7451347 
-0.7660099 0.762392 2.113681 
-2.76601 1.029504 1.405643 
-1.710979 -0.621402 1.429991 
-1.285848 1.378598 1.772387 
-2.268629 -0.1544366 0.402965 
-2.209355 -0.621402 2.350282 
