ply
format ascii 1.0
element vertex 1628
property float x
property float y
property float z
end_header
-0.579738 12.315661 50.045869
0.313585 14.160548 48.421215
-1.225757 14.819550 48.976500
0.593976 15.857642 48.324506
-0.828003 16.323594 49.760832
0.127286 17.838188 46.576697
-1.438650 17.985759 47.215929
-0.789164 18.554838 46.064087
-0.632556 20.438822 47.227842
-0.611827 20.390246 46.857529
-1.874800 20.209074 45.196434
-0.467575 22.682607 44.473476
0.753682 21.841658 43.839260
-0.054846 23.713323 42.584218
0.537986 23.102418 43.633670
-0.614483 24.430674 42.232790
-1.077374 25.602839 41.762116
-0.788095 27.639559 41.271231
-1.076747 28.318920 40.775698
-0.889783 27.753603 40.860567
-1.857760 30.692462 40.728192
-0.050273 29.097757 38.144597
0.911434 30.714702 39.542048
-0.653100 32.426144 39.014979
-0.653764 33.954864 38.464932
0.073104 33.586654 38.106681
-0.571587 33.211030 38.675981
-0.375071 35.645946 36.065056
-1.178583 35.974396 36.057310
-0.753129 36.801993 35.210128
-1.008917 38.182071 34.521841
-1.439719 38.306111 35.086789
0.413688 39.774895 34.097088
0.066391 40.093976 33.336029
-1.909581 41.535872 32.850160
-0.633367 42.237584 32.395420
-1.298824 43.571189 32.512747
-0.560190 43.904545 31.560483
-0.524487 44.135879 30.420887
0.524155 44.307315 29.795044
-1.066899 46.060472 29.257316
-0.271206 46.420531 29.693060
0.009110 48.559160 28.535132
-0.425528 48.539796 28.235046
-0.877906 49.430649 26.521096
-0.251768 50.775651 26.978344
0.227425 50.780741 27.259619
-1.108504 53.212116 26.186082
-0.373927 51.420932 26.662877
0.279062 52.491076 25.610474
-1.411098 52.699322 26.029584
-0.704110 54.578990 24.916064
-0.206328 56.055815 22.677480
-0.378538 56.573256 21.522724
-0.875030 57.910808 22.412249
-0.065911 0.392074 59.038675
0.190320 1.071399 59.063129
1.591053 2.536236 58.262716
0.423646 2.138998 56.543344
-0.414130 4.100143 55.702505
0.622745 4.154731 56.162409
1.490139 5.475168 54.682744
0.940830 5.458238 54.586330
0.689099 6.555234 53.447766
0.309381 7.244702 53.261135
-0.036109 7.839968 51.623165
1.539047 9.209350 52.577974
0.353604 9.625731 52.284638
0.152514 12.073372 51.561975
0.653432 10.979548 51.444316
0.420511 12.464487 49.337444
0.024048 12.788473 50.229034
1.183009 13.572068 50.072389
0.659223 15.427947 49.050009
1.105516 14.918619 48.969529
-0.243322 17.843609 49.008552
0.621638 17.160929 48.285520
1.159883 17.596784 46.383684
0.185156 19.033331 45.884795
1.429576 20.021077 45.535838
0.145949 19.889660 45.652723
0.050752 21.431695 45.112708
0.125294 22.506303 44.843272
0.207582 24.080168 43.207995
0.512610 24.109159 43.755866
0.262833 25.672107 42.644117
2.212729 25.584139 42.932326
0.029323 26.660443 42.943908
0.728712 26.536698 41.623544
0.986455 27.301040 40.814942
-0.195299 28.541218 42.091156
-0.381267 30.029550 39.863158
-1.254489 30.450836 39.373194
0.232331 31.532673 39.846449
0.833093 31.417190 39.204599
1.498180 33.831967 37.307706
0.111868 32.691486 37.189493
0.529503 34.306809 38.226627
-0.156203 35.416160 37.101673
0.339404 35.508444 35.518697
0.820995 37.493304 35.895096
-0.105819 37.742159 33.982306
-0.111020 38.893374 35.105194
-0.831322 38.605533 33.988059
0.414167 39.946072 33.400022
1.275919 40.913127 32.064167
-0.582652 42.102590 32.155897
1.015151 41.861039 31.384179
1.066972 43.706626 32.304907
0.492103 44.320040 31.340029
0.438105 45.411429 29.902117
0.583722 46.929231 30.275565
0.172542 47.098675 29.252410
0.677407 48.326461 28.836140
1.907442 48.579741 29.313342
0.486828 48.762316 27.790302
0.767218 49.485495 26.451718
0.302594 51.412190 26.393110
0.937695 52.129136 26.627912
2.044354 52.217141 24.911417
1.016442 53.493576 25.394372
-0.254903 54.093932 25.066550
0.589918 55.208042 23.841162
0.054809 55.135344 23.406229
0.293926 56.866998 22.943449
1.624913 56.878764 21.978902
0.728011 -0.277734 58.113742
2.485410 0.994754 58.556126
1.764259 0.537101 57.291014
1.267694 1.785209 58.053179
1.752309 4.254907 55.028972
2.197016 3.180853 54.531041
2.047858 4.404397 55.247213
1.307749 5.991061 55.023587
1.745301 6.623026 55.386854
1.779308 7.575180 53.043078
0.947211 8.318571 52.785814
0.886095 8.997527 52.969901
2.406257 11.170311 51.619145
1.160104 8.950500 51.483929
0.980554 11.393678 51.107494
1.547309 11.714161 50.524178
1.261866 13.038398 49.628493
1.878820 14.940012 50.342525
2.275800 14.899772 49.416891
3.025904 15.461179 48.535407
1.243166 15.995882 48.153513
1.592713 15.867896 47.855714
1.725568 17.153552 47.642821
2.710548 20.003299 46.218150
1.118757 19.379411 45.903974
0.877206 19.462510 45.826887
1.372517 21.750776 45.013011
1.743678 20.968952 44.735387
1.815823 23.240363 42.231941
1.231142 23.580394 43.258895
2.021781 23.697168 42.456342
1.149666 25.406286 43.781759
0.222741 26.746198 41.885935
0.943412 27.788606 40.793144
1.665337 28.588466 40.308676
1.008991 28.599347 39.532458
1.015815 28.815633 40.375288
1.424228 30.341292 38.928155
0.686996 30.902477 38.791907
1.040896 31.838697 39.143261
1.333125 32.440935 37.264847
3.406286 34.227914 37.143942
1.800221 33.559618 37.355876
1.424265 35.580551 36.468306
0.885984 35.745901 35.973178
2.241277 37.782768 36.824271
1.377017 38.252372 35.565060
1.142031 39.195599 33.387039
1.193705 39.591730 32.904194
1.567263 39.749482 33.857012
2.314749 39.387616 33.438123
2.615093 42.268973 32.710370
1.804979 41.570542 32.055942
2.890504 43.689070 31.081068
0.683345 44.463739 30.879610
1.109758 45.388524 31.304215
2.215126 46.754587 29.158025
2.058407 46.940592 29.908424
1.807893 46.733600 29.252300
1.117097 49.086229 27.552919
1.651727 50.685175 26.749554
1.800700 50.481503 27.375250
2.692143 51.360479 26.869648
2.830494 52.151340 26.116334
1.266145 52.726800 26.562664
1.358022 53.861270 25.193577
1.572722 54.314460 24.935908
1.531412 54.882691 24.937530
-0.211012 55.281330 24.596909
0.704664 56.490047 24.074931
2.221396 -1.609938 57.796395
1.236379 -0.673054 57.104419
2.747284 1.069886 58.753232
2.294869 2.484820 56.988383
2.651239 2.943543 56.236840
2.268386 4.925785 55.257835
3.264652 4.846891 55.070023
2.691037 5.945362 54.642836
2.818839 5.869603 54.036357
1.387086 7.180745 52.978236
2.528933 8.340812 53.280314
2.247141 9.892548 51.349709
2.643604 9.886536 51.681368
1.850641 10.986962 52.723259
1.416224 11.811423 50.971651
2.623650 11.980388 51.371581
2.368378 13.146799 50.917690
2.793942 13.990367 50.871290
3.899901 14.535102 49.417777
2.255698 15.591563 48.479750
2.219109 17.373563 48.279323
3.029297 17.907013 47.947702
3.010560 18.171580 46.318880
3.019081 19.081796 45.278722
2.482238 20.217999 45.659546
2.581455 19.532110 45.109204
4.523863 20.982747 44.182611
1.905487 23.003938 45.257513
1.765661 22.092246 43.202573
3.261886 23.585262 43.639867
2.296160 24.597204 42.354248
2.452325 25.783459 42.065706
2.664333 26.406536 42.220802
2.453911 28.184811 42.235335
2.231724 27.877164 40.629048
1.541703 29.305707 40.370604
0.913426 29.090933 39.476137
1.885054 31.421911 39.075616
1.942961 31.435484 39.245687
2.536605 31.287544 38.683247
2.302208 32.921124 37.556044
2.332306 33.479839 37.002234
3.350038 34.569384 37.186100
3.844981 35.112091 37.393460
3.001044 35.085904 36.010320
1.263821 37.086182 34.998563
3.145002 38.000013 34.332885
2.251530 37.761523 34.767044
1.677177 39.988230 34.194387
2.745514 40.260063 33.128521
2.787156 41.373915 32.420464
2.720986 42.545711 33.804821
1.524663 43.208401 31.228862
3.173808 43.146584 31.809522
2.461399 43.639978 31.695846
1.911684 45.335707 29.651271
3.029888 46.108347 30.116854
1.825081 46.333854 28.579319
2.732162 46.771996 28.551804
2.821753 49.251357 29.221649
1.150551 49.219637 28.654709
1.075050 49.993716 27.126248
1.947129 50.999240 26.099294
2.983119 51.484667 26.037698
3.496467 52.298506 26.083987
2.487439 53.414977 25.657870
2.517609 54.869302 24.232498
2.554161 55.646663 24.896036
2.298409 55.457007 22.359469
2.322568 55.795268 23.390664
3.269632 -0.150264 57.427668
4.551747 0.692123 57.558126
2.481131 1.102012 56.174248
3.855899 1.819179 55.960064
3.696045 3.517048 57.149454
3.810532 3.290471 56.181588
3.168165 5.670836 54.747475
3.599594 5.320441 54.660282
4.215884 6.548632 53.957647
3.558616 6.839276 53.712259
2.977808 8.314699 54.004120
2.156407 8.880679 53.225321
3.861911 9.381708 52.714887
4.383963 9.599285 52.357410
3.580451 10.312432 49.134952
3.416503 11.820939 50.746144
4.062226 12.560089 50.226489
4.541567 12.778072 49.593675
3.704565 14.615066 48.816646
2.171677 15.403640 49.439685
4.043969 16.790911 47.651931
3.814773 17.660629 47.800314
3.507606 18.409406 48.635583
3.186570 18.382407 46.035871
3.512068 20.318065 44.747485
4.070377 21.231564 46.593221
3.218363 21.117372 44.693672
4.340477 21.363792 43.395918
4.256235 23.410950 44.396905
3.564702 23.489697 43.204750
3.761034 23.750797 42.346613
3.691692 25.052866 42.664145
3.885147 27.132592 41.558666
2.727257 26.825793 41.480878
3.295082 28.045095 40.650957
4.039432 27.629563 39.660703
2.635490 29.249570 39.943675
3.302901 29.969172 39.682280
4.200098 29.611658 39.257490
3.626961 32.425333 38.149245
3.473525 32.289195 37.840380
4.264238 32.557782 37.623172
2.380070 34.167093 37.248470
4.230895 35.643733 36.513525
2.932441 35.700903 36.484571
4.157755 37.236741 33.984445
3.425502 37.933917 35.412251
3.961128 38.955043 34.627845
3.398983 37.769379 34.822812
4.406831 40.851088 34.158905
3.248239 41.170354 33.900682
2.862472 41.095627 32.024591
3.696192 42.854575 31.638160
3.259894 42.969763 31.249443
2.783541 44.388311 29.672295
2.894192 45.569513 30.284085
3.100557 46.055456 30.691613
3.302827 47.670078 28.562279
3.696340 46.821125 28.528051
3.675832 48.506712 28.075450
3.500745 49.123961 27.951374
2.280004 50.128969 26.599954
4.003286 51.551353 25.728723
3.207261 51.717108 27.660509
3.377590 52.062561 26.120613
2.633535 53.473253 25.243960
4.156206 53.970851 24.750862
3.623236 54.501534 25.521326
3.958435 56.353724 24.402348
3.981045 -0.508553 58.063433
4.120466 1.366985 57.253687
4.571738 2.003782 57.107702
4.396651 2.901053 56.336500
3.411376 3.696487 55.657323
4.014056 2.963939 55.388625
3.947850 3.830301 54.873802
6.089577 6.519309 55.127193
4.331957 6.100384 53.485425
3.826982 6.896077 53.733246
4.381897 7.932399 53.843012
5.222182 8.195490 52.781536
4.001737 9.076089 51.551021
3.859403 11.225193 51.250344
4.885692 10.404567 52.172511
3.932359 11.671155 51.279077
4.614855 12.798764 50.539042
5.252612 14.986227 50.114289
4.294815 14.647893 49.608207
5.328408 16.326139 48.296216
4.300753 16.016574 48.580368
3.607597 18.021352 47.457148
4.281500 18.893394 47.260374
4.881598 19.102414 46.486774
3.379803 18.334200 45.716494
4.077976 20.513069 44.258739
4.460865 20.921925 45.308229
4.509294 22.298574 45.690750
4.395987 23.722470 43.706958
4.453747 23.062362 43.596639
3.585283 25.314888 42.677534
3.333035 25.274463 43.246576
4.749739 26.341878 42.286345
5.618056 27.948497 41.557117
4.581438 27.166746 40.238745
4.792044 27.724834 38.840114
3.949288 29.982302 39.756822
3.702794 30.036595 40.120864
4.224183 32.228521 39.217250
4.265972 31.591429 38.475813
3.548989 33.290219 36.569035
3.922179 33.689191 38.572412
4.723035 34.462126 37.185879
4.222117 34.789653 37.708742
4.126441 36.150774 36.128164
4.827600 37.602591 34.905210
4.366701 37.326848 35.454077
4.545071 39.051347 33.206936
3.978574 39.982550 34.674023
3.008237 40.796611 33.770150
3.368923 40.461596 32.778163
4.968939 42.694980 33.080794
5.121859 43.433023 31.684671
4.960234 44.295549 31.521755
3.490602 44.011913 31.203117
3.237875 45.918654 30.598150
5.985565 45.937428 30.837783
4.227871 46.618265 30.289876
6.570283 47.667275 28.661164
4.885102 47.901450 28.024403
5.865029 49.040677 27.604040
4.389717 50.378893 27.112527
4.687110 51.196125 26.777180
4.580037 51.202506 26.364525
4.389459 50.379262 27.158742
5.290344 53.759397 24.873759
4.411736 53.281716 24.575480
4.358144 54.531631 24.729432
6.042292 0.182058 57.650335
5.402286 0.111795 57.298169
4.230084 2.514991 57.374002
4.891889 1.805458 56.099116
5.653501 4.088487 56.086834
4.824392 3.357968 54.435439
5.865398 6.100827 54.599719
4.646464 5.507109 54.816300
6.322608 8.088528 53.342131
5.818445 7.226149 53.437144
6.083049 7.880356 52.102027
4.974139 8.711678 53.057315
5.348620 10.330468 51.905879
6.028387 11.238140 52.060754
5.766070 11.517977 51.879175
5.265115 12.152967 50.989097
6.107613 13.423722 49.459676
5.917293 14.238115 49.547976
5.748292 14.405640 48.967684
4.617326 13.881301 49.651324
5.759283 16.023766 48.038067
6.262709 17.345827 46.750751
6.054390 18.693300 47.732227
5.127981 18.869088 48.101470
5.945251 20.458149 45.591569
6.646669 19.700336 44.984426
5.161656 20.697930 45.150329
4.877025 21.404733 45.045026
5.453370 23.820027 44.437588
5.282746 24.040149 44.193381
5.108433 24.240391 42.906545
5.292925 26.398495 42.462723
5.676959 26.227244 40.820954
5.451378 27.074537 41.753965
5.937321 27.887233 40.719450
5.440940 28.365430 39.813992
7.094511 29.151754 40.879009
5.537797 29.772102 39.229200
6.106912 30.199806 39.841544
4.801376 32.111157 39.227467
5.059931 33.130476 38.656322
6.026174 33.885117 37.374797
6.031817 34.073962 37.008947
5.699200 35.854339 35.478310
6.509314 36.070183 35.469052
5.719596 36.957347 35.195338
5.401585 37.437131 34.994579
5.919469 38.968506 34.402522
5.239924 37.330352 34.006317
5.023932 40.537650 33.929377
5.815568 41.154752 33.346836
5.898704 42.227183 31.845041
5.180246 44.110466 31.719858
5.389930 43.405028 31.259180
5.676811 44.222704 31.620309
6.659246 44.902102 29.509674
6.447165 45.607319 30.421145
5.726383 45.709966 29.194355
4.822289 46.491016 28.217379
5.653243 48.319895 29.004515
5.218863 49.469930 28.665848
5.764595 49.292114 26.550567
6.118641 51.342296 26.692016
5.587700 51.663073 26.170258
5.520941 52.731964 26.020031
4.880381 53.533041 25.722416
6.088434 54.696354 25.043903
6.982274 0.203082 58.423787
6.406003 0.845559 56.495247
5.764927 1.821945 57.686038
7.169975 2.130257 56.410120
6.017875 3.857263 56.112689
5.940678 3.744252 56.686416
7.108269 5.529940 54.390477
6.963058 4.341473 55.866970
6.564344 6.551952 54.035361
6.261160 7.136264 54.490727
6.551324 8.861979 53.045881
6.977184 8.095167 53.486605
6.575041 9.393326 54.169691
7.225633 10.541037 52.811596
6.308408 11.248467 49.853336
6.248398 12.538660 51.872462
4.667746 13.914792 50.859783
7.029633 13.865515 50.293175
7.634747 15.865425 49.793585
6.084045 14.909546 48.647718
7.065852 17.174354 48.220051
7.079057 17.465625 48.503355
6.751714 16.752810 47.025387
5.452558 18.584640 46.703724
7.173553 19.906738 45.266550
7.486991 20.741490 46.112146
6.398368 21.406135 44.368800
5.856472 21.757305 45.355403
7.587093 23.633359 43.670480
7.362656 23.936137 42.958809
6.868082 24.571091 43.027745
6.135534 25.186717 42.464678
6.777864 26.947657 41.043253
6.707675 26.520174 41.474534
5.744862 29.235149 40.969817
5.926883 29.554967 40.258588
4.455001 29.873643 39.443015
6.482094 29.966221 40.936695
7.084405 31.214846 39.397353
6.776795 32.889588 37.870367
5.997294 32.263450 38.045786
6.058742 33.260085 37.373580
7.414809 35.095530 36.818590
7.240165 35.312812 37.108939
7.439190 36.908956 36.224394
6.135460 36.306902 35.825127
6.805085 38.155367 34.932467
7.127448 38.373461 35.515156
6.924772 38.597566 33.743336
5.711298 39.201021 34.640274
6.499614 40.924081 33.374425
8.730489 41.399217 32.460114
6.817404 43.223302 31.566458
6.411609 42.739129 31.845668
8.059648 44.814097 30.948361
6.093597 43.870206 29.800170
6.050443 44.981512 30.429554
6.487221 45.717970 29.764246
6.964865 47.984069 28.764623
5.628494 47.934276 27.713621
5.819441 49.999544 28.151505
6.619264 48.634403 27.503716
6.953910 51.533132 27.572098
5.688319 51.232972 26.469533
7.126047 51.881278 25.091557
7.072565 53.374810 25.225666
5.426223 55.005366 25.175099
7.191847 0.217540 59.188718
6.549923 0.656862 57.627762
7.725407 2.770226 57.026152
7.565738 2.276169 55.948999
7.916686 2.871878 56.611652
7.618555 3.515978 56.362429
7.451619 4.148055 54.551807
8.034788 6.349644 54.814419
7.782282 7.997093 54.001686
7.951136 6.170906 54.399662
7.721203 8.156652 52.067577
8.396064 9.385618 53.372966
7.252558 9.618538 51.703793
8.164102 10.328439 51.594359
8.030141 11.812235 50.736259
6.899175 12.363388 49.482987
7.304490 13.816644 49.783036
7.974077 13.950938 49.729481
8.019149 14.538127 49.697835
7.521809 16.513582 48.355968
7.847640 16.738721 48.167603
7.198081 16.414365 48.531534
8.671991 18.521532 47.623162
7.178938 19.078366 46.902011
8.837710 20.010086 46.370222
8.380979 21.020110 45.742313
7.649279 20.367231 45.332129
8.110031 23.330838 45.322798
6.909023 22.557977 43.791275
7.245107 23.462624 43.700135
6.808625 24.912892 43.559866
8.011035 24.889692 42.124536
7.949292 25.529293 42.354985
7.258164 26.749480 41.407553
7.362250 28.016658 40.445035
7.954603 29.403154 40.514487
6.933145 29.329387 40.706025
7.438599 30.481265 38.645405
7.205125 31.163725 38.868846
7.458111 32.045357 38.377075
7.504732 31.818079 38.062347
7.111293 32.206465 37.898103
7.249497 34.926234 36.536873
7.224489 35.772900 36.478670
7.400167 36.594596 35.751581
7.368078 35.675637 36.203480
7.361697 38.288259 34.536188
7.149247 37.993890 34.394961
6.545497 39.482554 34.128439
7.633014 39.875477 32.699010
8.097048 39.765047 33.010678
6.822899 42.707041 32.750684
7.770221 42.896844 32.965938
7.663959 42.579755 30.936632
7.223789 43.006758 29.517899
6.525764 45.329326 30.649492
8.080118 46.030965 29.080089
7.036161 46.565484 29.607711
6.850341 48.374815 27.586630
7.880540 49.071992 28.125907
7.559135 48.942935 28.513002
6.909982 50.035321 27.235313
7.755209 50.951992 26.595380
6.394901 52.218874 26.170738
8.069459 52.320305 25.807765
7.762328 53.391297 24.792245
8.518223 0.388607 58.967932
8.098228 0.414278 58.283629
8.732849 1.998582 57.566757
9.130235 2.107426 56.759888
8.011551 3.367816 55.684764
9.226944 4.152886 54.604624
8.178008 4.742620 55.426283
8.884995 5.613371 55.010419
9.081548 6.800474 53.998662
8.127145 7.198560 54.144758
8.629981 7.910711 53.209903
8.573327 8.183282 52.974991
8.722006 9.554877 51.685314
8.110141 10.564090 51.815034
9.361643 11.710436 51.813043
8.038108 11.943135 51.126526
8.393851 13.160003 49.503199
8.779065 13.832873 49.744603
8.184794 15.883350 48.640341
9.136689 16.425688 48.854414
9.526108 16.258052 48.204781
9.045513 17.161998 47.133678
8.665094 18.473067 46.799216
9.286290 18.964653 46.000499
9.164610 19.851043 46.366238
8.593872 20.261153 46.357386
8.707215 21.277927 44.871304
9.711780 21.855268 43.891193
7.401347 22.736605 44.084316
7.724338 23.738182 42.760190
8.307654 24.082971 44.626175
8.557246 24.748538 42.497467
9.056209 25.920187 41.041630
9.340730 27.451747 41.586033
8.847115 28.553980 40.470338
7.914731 28.565930 40.235130
8.248640 29.238616 41.449416
9.296101 30.277888 39.133819
8.033165 30.834501 38.090526
9.108400 31.370753 37.711103
9.415420 32.531558 37.596653
8.074032 33.446201 37.845802
9.494277 34.653700 36.781596
8.926858 35.272019 36.003755
8.519256 36.045065 35.812439
9.528542 37.326442 34.743623
8.408273 38.814996 35.398751
7.920375 39.069899 33.904370
8.299687 39.391267 33.396223
8.827825 40.313287 34.446856
8.884958 38.888026 32.861557
7.935165 41.252641 32.274441
7.977581 42.768231 32.763225
8.973589 43.938551 31.715210
8.740005 44.506708 31.109358
7.337796 45.498991 29.200220
9.076569 46.863652 29.892785
8.935415 47.691987 30.039029
7.476848 47.773611 29.075774
9.303920 48.454005 28.041554
9.163799 49.298642 27.904421
8.184241 50.456533 27.402249
8.624190 51.656102 25.701466
9.435042 51.689113 26.097819
9.210199 52.092363 25.170119
10.329915 -0.591135 57.917004
9.274893 0.839806 59.046384
9.642144 0.954403 57.608804
9.677663 2.019384 55.535754
10.314571 2.903450 56.676900
10.408071 3.723302 54.910464
10.289158 4.623560 55.854134
9.436997 5.970738 54.424484
9.546689 6.712285 54.517763
8.675053 7.498240 53.508920
9.473438 9.519837 54.477302
9.059529 8.916272 53.143291
10.065458 10.721952 52.839517
9.115813 10.343636 50.791400
9.529132 11.052983 51.518379
8.859029 11.811387 50.713244
8.626182 12.974662 49.971106
9.889154 13.360061 50.434956
9.044886 14.416300 48.941681
9.977860 14.616320 47.882565
8.865188 16.835762 47.746907
9.218534 17.068387 48.523678
9.645906 18.498591 46.650796
9.846885 18.376284 46.588020
9.704699 20.074595 46.119634
8.453566 20.750822 45.523998
8.082921 20.475337 45.187324
10.354406 22.289353 44.287508
8.892814 22.326827 45.188209
8.915756 23.232396 44.045699
8.903400 25.053936 42.407840
9.317678 25.976656 43.584873
9.933193 25.956739 42.037195
9.680798 27.598618 41.455723
10.143504 27.641661 40.583165
9.561000 28.414596 40.230556
10.509612 30.405617 40.263420
10.400252 30.642632 40.577153
9.586154 31.435558 39.778178
9.195593 32.091904 40.602566
9.405535 32.136054 37.005628
9.310301 33.005477 37.226045
9.810149 35.222263 37.651868
9.940054 34.258749 34.335984
10.030161 35.033566 36.060224
9.802441 35.218021 35.543815
10.834964 38.014066 35.339811
9.738189 37.978584 33.803751
9.997150 39.017082 33.271261
9.048869 39.613455 32.942811
10.892613 40.871485 33.501711
9.913018 41.915811 33.431078
9.624698 42.565923 31.407084
9.491253 43.498860 31.361348
9.355299 44.484762 30.300461
10.481618 45.104593 30.030878
8.984728 46.380033 29.336653
10.144537 46.485815 28.607609
8.953525 46.657214 27.972471
8.532608 47.736653 28.116391
8.419633 49.186552 28.228186
10.262049 50.570319 27.359648
10.024554 51.340415 25.797733
9.652066 51.239722 26.112240
10.922415 -0.719196 58.799816
10.710739 0.893619 57.512279
11.747209 0.443416 57.211345
10.829616 2.078324 57.747339
11.023661 2.166956 56.702423
9.914346 4.046551 54.603887
11.028161 4.176160 54.012198
9.487749 5.659365 54.303395
11.256545 7.519891 53.904018
11.035869 8.287921 53.812657
10.213989 7.294458 53.457467
10.943623 9.041788 52.597928
9.667631 9.976237 52.108924
11.612841 10.499727 51.496027
9.594011 11.730132 49.810810
10.842488 12.289695 50.007289
9.634472 13.605374 50.368491
11.121255 13.607440 49.474245
10.275179 14.951040 49.262496
10.845992 15.132029 48.196114
11.816808 16.799394 47.761587
10.828214 16.933282 47.196270
9.297134 18.394947 46.553312
9.978265 18.597587 46.153604
9.987412 19.035618 45.667660
10.013489 21.081005 46.722904
10.687244 20.541986 44.782451
11.496510 21.230716 45.956239
11.351115 22.570148 43.759813
10.538271 23.659915 44.017151
9.230005 23.860452 44.727605
10.508506 25.238022 44.370681
10.265995 25.939219 41.472542
11.304899 27.195626 40.446437
10.823456 28.582344 40.542040
10.118534 29.115313 40.879267
10.897518 29.998052 40.408742
10.113075 30.673393 38.952277
11.471355 31.759582 39.146322
11.250238 31.396129 38.889464
10.967007 32.384318 38.115017
10.753709 33.627226 36.337995
10.755848 33.678125 36.796903
9.353271 36.292112 37.316926
10.344226 35.636873 36.091354
11.078359 37.485411 35.697805
10.196027 37.228959 34.284310
9.666856 38.671076 34.436123
10.932927 39.690321 34.851102
10.715903 41.521081 34.181146
9.693375 41.610045 32.353225
11.105284 41.553022 32.239144
10.180868 41.934917 31.712924
11.385343 43.467030 31.347406
10.891654 43.928814 29.932583
10.750647 44.655276 29.572819
10.515403 45.498180 30.044082
11.001272 47.923100 29.030333
10.368495 46.457267 27.852488
11.059069 47.949177 28.570098
10.016145 49.460857 27.312105
9.814059 50.783028 26.856074
10.347840 50.795052 26.112240
11.503407 0.083910 59.211586
12.228431 1.911093 57.375109
12.175097 1.644498 57.850835
11.672298 2.097983 57.198251
10.557930 4.193200 56.022066
11.881576 4.539612 55.415292
11.760487 3.682250 54.969847
10.966712 4.826789 54.775064
11.685724 5.852341 54.716382
11.417321 7.470024 53.683822
11.542283 8.320231 52.956291
11.040443 9.453004 52.759442
11.796559 10.927874 52.128398
12.024169 11.020009 52.378802
11.303719 10.901465 51.305486
11.991600 11.806481 52.721157
11.222132 13.816054 51.871282
11.477404 13.839807 50.081425
14.365880 14.044143 49.450492
13.060011 16.334401 48.071152
11.396002 15.154380 47.619142
12.126484 18.761424 47.428969
11.938672 17.974768 47.104650
11.026206 18.561109 46.307593
11.850557 19.508467 46.348239
11.824148 19.039527 44.893987
11.217522 21.456039 45.610564
11.880580 23.731801 44.378168
11.145820 21.861059 44.229564
13.520763 23.773259 43.748268
12.236066 24.039154 42.836502
11.628222 25.502589 43.308688
11.412858 24.932625 41.528753
12.587457 27.255415 41.604660
11.109452 27.286139 41.778566
12.687264 28.379483 40.378460
11.647955 30.483515 40.540306
12.121874 29.861619 38.933282
11.336361 30.701867 39.861424
11.297559 31.688912 37.253081
11.673958 33.073675 37.899652
11.093740 34.334176 37.160798
11.671192 34.791461 37.527090
11.494518 34.997825 35.876801
12.010928 35.856552 35.751507
12.668896 37.180420 35.728271
11.540771 37.687682 35.925193
12.208882 38.132020 34.745872
11.653192 39.631454 35.036258
10.926509 39.447810 33.224603
11.677204 41.452662 31.617727
10.790150 42.782910 33.097244
12.356344 43.671734 31.654389
10.637009 43.842912 31.108953
11.820939 45.894200 31.172725
11.533357 45.528498 30.315547
11.500936 45.469705 29.018789
12.349852 44.839510 29.208592
11.930152 47.652816 28.181971
12.406727 49.409847 27.448243
11.718476 47.345833 26.829039
11.264180 51.232898 27.740694
10.843041 50.243824 27.679209
12.667753 -0.159965 56.644626
11.964602 1.195955 57.397977
12.480236 2.304274 56.291797
12.093326 3.206929 55.895997
12.944123 2.449411 56.637987
12.126189 4.197516 54.558151
13.733066 4.591950 54.917509
13.453598 5.241104 55.503444
12.601547 6.349239 53.518694
12.532316 7.741378 53.411473
12.764204 7.463791 53.107329
12.934459 8.955701 53.290383
13.063294 9.583056 51.936935
12.105497 11.104473 52.211940
13.172654 11.481388 50.896187
12.422034 12.142492 50.759348
12.192543 12.097531 50.443218
12.875888 14.272453 49.570069
12.799133 13.560524 47.469836
12.744951 16.642380 49.279758
12.371577 16.869584 48.090221
13.290203 16.655880 47.212388
12.514058 16.576174 47.514502
11.940627 18.998476 45.374103
11.857012 19.032815 46.168099
11.405039 22.003836 44.556907
12.902813 20.907061 45.402430
13.046844 22.933490 45.177918
11.598125 22.294627 43.562891
12.056184 23.887340 43.672878
13.211050 24.222687 42.766018
12.415026 25.102216 43.065845
12.383453 26.374041 40.606992
13.849139 26.338448 42.323819
13.236869 28.666807 40.375768
12.508784 28.138153 39.417897
12.321820 28.159988 40.020946
11.793941 30.375630 38.801312
12.385150 31.568413 39.363162
12.686379 32.664708 38.477842
12.890457 32.250725 38.156621
12.297071 33.540402 37.780481
13.769802 35.501214 36.879412
12.195420 35.242844 35.120611
12.674908 34.796219 35.797132
12.284937 36.366507 36.042040
13.156425 36.852487 34.682359
12.971601 38.832257 33.625787
11.452434 38.929594 32.986924
13.585715 39.080706 33.253557
13.217874 41.195435 33.705272
12.999116 41.491537 32.474831
11.643418 44.193971 32.446873
13.143627 43.921548 31.689244
11.914071 44.310929 31.132595
11.700330 46.124429 29.407949
12.553229 46.610740 29.861213
12.196121 46.795048 29.191294
13.419665 48.005499 29.529739
13.308313 49.285401 28.793761
12.590445 50.108166 27.383401
13.764749 50.236632 26.446591
14.149889 0.546727 58.185924
13.750844 2.320687 57.965248
13.254684 1.127388 57.845671
13.744131 2.595287 56.373826
12.597231 3.681918 55.024251
14.267068 3.982852 56.656909
14.312878 3.949657 55.796891
13.601612 6.121076 54.874540
13.717870 6.893495 53.433013
13.247713 8.388540 53.380749
12.689514 7.436534 53.182867
14.163572 9.315612 52.174319
14.203296 10.119198 52.500703
13.988080 10.062877 51.569315
12.859954 11.457782 50.963131
13.967425 11.000977 49.732616
13.826271 13.953372 51.454090
12.579711 13.907858 48.713777
14.794284 14.688022 49.363410
15.340532 15.626455 48.407679
14.148782 16.639503 47.725109
13.898047 17.207181 47.789692
13.709755 17.847962 48.040649
12.966659 18.677292 46.338207
14.199202 19.656260 45.734346
12.897207 21.081521 44.998405
13.633037 21.366743 44.907302
13.027406 21.754465 44.269657
12.912145 21.298102 43.086574
13.916562 23.801180 43.868325
13.420771 24.063976 42.310430
13.459093 25.297294 42.464714
13.200907 26.980373 43.409676
14.876904 26.984430 42.083558
14.265335 27.728743 41.104996
13.283748 29.561791 40.674378
14.884391 30.842652 38.768670
13.535332 31.260287 39.368362
13.204743 31.474950 39.046515
13.532492 32.219227 38.850810
14.355552 32.518870 36.803173
13.725209 34.104169 38.452171
13.897383 34.492444 37.057376
14.595518 35.763974 36.022345
13.381306 36.416005 36.445917
13.278584 37.009869 35.713001
14.801993 36.934627 35.008817
14.515849 37.452548 34.225886
13.081810 38.535012 34.219579
14.173236 40.261244 33.016247
14.118390 41.763592 31.706285
14.465687 41.725565 32.757323
13.529172 43.216479 31.380749
13.573212 42.462575 31.518805
15.477924 43.809532 30.397834
14.609091 44.720413 30.116264
13.673093 46.229215 28.200449
13.495571 45.868972 28.737292
13.401260 47.089159 29.129440
13.662064 48.063886 28.240948
12.903071 49.391958 26.961377
13.821623 0.167526 57.335975
15.094444 0.510618 58.653572
13.792006 2.399508 57.698284
13.916120 1.641621 57.317533
15.135975 2.204245 56.458364
14.270019 3.420707 54.667548
15.231061 4.538985 54.566819
14.910800 6.294577 55.691957
13.473330 8.058357 53.714177
15.156040 7.124977 53.659958
15.248175 7.099048 53.445996
15.474568 8.602539 52.845455
15.754773 8.003289 53.189949
14.386240 10.223542 51.364868
14.622627 12.280326 51.162119
14.196952 13.281867 50.246665
14.067122 12.732926 50.362811
14.823054 12.954598 50.368971
14.018546 14.993456 49.682159
14.515333 15.749093 49.139083
14.363298 16.062863 48.897753
14.697132 17.841323 48.014424
15.183555 18.238155 46.724969
12.876957 19.000873 45.926105
15.111595 19.280636 46.196536
15.182227 21.299873 46.478734
14.407226 22.317606 44.146428
15.671674 21.426532 44.274415
13.699723 22.799344 44.009921
14.490399 23.979181 43.060940
14.293477 24.476484 42.432884
15.242422 26.092913 42.164149
14.315165 24.960362 40.960596
13.371826 26.900556 39.484436
14.236233 27.664935 40.209275
15.368896 29.866487 41.109127
15.246626 28.835071 40.259842
15.256954 31.038246 40.564207
14.127537 30.982736 40.360535
14.943258 32.207571 39.092730
14.154647 32.184962 37.384055
14.828180 33.489687 36.928430
16.385153 33.470986 36.351606
14.287760 34.634816 36.851343
15.689821 35.387207 35.462855
15.307189 37.485374 36.201894
14.146311 37.320467 36.078924
13.720894 37.745921 35.069269
15.465421 38.134049 34.205268
14.235459 40.242101 33.861880
14.979920 40.016483 32.815636
15.159876 41.045797 32.486228
14.714025 42.094955 31.589289
14.630705 42.528081 30.289175
14.811767 44.639342 32.848242
14.443004 45.710150 31.398748
14.967232 46.537416 29.594175
15.880731 46.422597 30.174614
15.677022 47.802970 28.100458
15.168543 48.385954 28.313019
15.813271 -0.015233 56.906759
15.902566 -0.597701 57.335422
16.022328 1.482062 56.541684
15.440856 3.434760 56.828234
15.837467 2.664259 57.624775
15.011972 4.283787 55.985699
15.418062 5.450493 56.699141
15.476264 5.539567 54.108686
16.461613 7.075073 53.058274
15.227631 7.703277 53.468864
15.131217 8.339521 53.651291
16.330528 9.317493 52.850397
15.554495 10.740984 52.239492
16.233192 11.898322 51.873975
15.799993 11.668536 52.217178
15.848384 12.335984 49.717420
16.292981 13.710935 50.240431
15.453544 14.473654 49.505707
16.434245 15.144458 48.982585
15.391911 15.358163 47.642083
16.117894 15.138815 48.422617
16.566215 17.114160 48.218908
16.443577 17.512984 47.066070
15.705644 19.172456 46.027978
15.342856 18.436589 47.312933
15.793796 21.187783 45.859050
15.998870 21.563665 45.260390
15.800915 22.492877 43.745022
16.379731 22.345010 43.681103
16.502591 23.453661 42.856051
14.819882 24.724416 44.259329
15.912746 26.081811 43.247608
14.760868 26.886946 41.920532
16.443798 26.425162 41.511049
14.965130 27.913973 41.491095
16.268490 27.816969 40.642585
16.970609 28.213359 40.609352
16.265945 30.031763 39.810488
15.195505 30.480196 37.570576
16.981342 31.769835 39.463670
16.385743 33.287785 37.694210
15.722943 34.227804 37.811132
15.346655 34.310239 37.177653
15.351081 34.995059 36.516771
15.887444 35.799493 34.706149
16.734737 36.397821 35.118583
16.031069 38.000234 34.747385
15.373433 38.257683 34.497977
15.415074 39.643036 32.837988
17.221233 39.593464 32.424189
14.940860 41.537494 34.054598
15.269052 41.488808 31.727862
16.396181 42.703905 32.515218
15.601042 43.947957 30.721710
16.484813 43.549096 31.808194
15.068220 44.140305 30.088122
15.080576 45.405897 28.678721
14.827848 46.654817 30.109072
14.611120 48.049427 28.720399
15.753114 47.293569 27.262644
16.209808 -0.353604 58.723393
18.139786 2.044539 58.113742
15.392981 2.629625 56.647061
17.110287 2.972128 56.265683
16.975662 3.510888 56.182068
17.208914 2.995770 56.102362
16.636258 4.768181 54.753376
16.777043 6.354365 54.500981
16.516275 7.197933 53.645611
16.368666 6.823674 53.738558
16.940327 6.788155 52.619800
16.291985 8.698400 51.598306
16.550945 9.761020 51.197453
16.931659 10.783990 50.844587
17.234143 12.683429 52.484990
16.630688 13.149381 51.246988
16.263437 13.541971 50.058115
16.994878 12.405178 50.052582
16.631315 14.632955 47.955964
16.384895 16.182588 48.294593
16.136741 16.341925 48.985241
15.933955 17.796509 47.479795
16.212390 17.309312 45.864988
16.291026 19.932962 46.540956
16.452650 19.356506 46.220216
17.490890 20.453059 45.813241
16.127041 22.725835 44.916745
16.856306 22.739961 44.075169
16.962457 22.354342 44.166198
16.389911 23.065755 43.930437
15.834922 25.594282 42.680632
17.649343 26.080778 42.439338
17.236614 25.986762 41.474202
17.157130 27.381409 41.212991
16.314226 27.866025 40.681976
17.550495 29.024948 40.639523
16.945048 29.476921 40.473473
16.003001 30.168196 39.910479
16.179969 30.527112 39.315988
17.355343 32.510866 37.760711
15.435840 32.331574 37.262670
16.420857 34.850659 37.356687
17.398681 34.758708 36.933188
16.382239 34.987461 36.082649
15.764400 36.343270 35.120390
16.411562 36.740212 35.292120
17.117848 37.290038 35.939061
16.975625 39.037479 33.887293
16.540876 39.163805 32.975232
16.466113 39.457584 33.589273
18.175194 41.324786 31.366770
17.163215 42.586062 33.614649
16.186571 41.116393 32.071065
16.602730 43.427749 31.339882
16.945860 44.299532 30.530616
15.420754 43.776374 31.405830
16.597898 45.311364 29.979536
16.360109 46.509532 28.100199
16.763801 48.095716 27.815789
17.512873 0.198287 56.713230
19.317225 2.039855 57.577084
18.153986 1.772152 56.749893
17.870903 2.285869 56.389317
18.446142 3.399721 55.469769
18.354560 3.629801 55.471724
17.996050 4.355046 56.678412
17.490079 5.436698 54.277540
16.528557 7.354099 54.895748
18.660252 6.726743 54.277244
16.972305 7.327506 53.458168
16.584583 9.293666 52.357631
17.514201 10.072872 51.810350
16.248683 9.840062 51.127927
16.622352 12.018341 50.275766
16.554191 12.537148 49.457390
17.901480 13.159339 50.872249
17.285706 14.081469 49.242099
17.750146 14.304542 49.103011
17.869354 16.520369 48.849435
17.313369 16.761367 49.038649
17.142376 16.828975 47.180889
19.288161 18.127909 46.997282
18.164977 18.887456 46.249759
18.586153 19.497992 46.069103
17.925233 20.030114 46.056009
17.721856 21.616372 46.629846
17.531278 21.918229 44.022868
16.245659 23.475386 43.821888
17.547986 23.527724 44.088078
17.994427 24.552096 42.581083
16.938372 25.740784 42.883824
17.773678 26.475914 42.346391
17.978567 26.428444 41.197722
17.706181 27.926330 39.645322
17.178043 28.131883 39.915680
18.119610 30.245099 39.505090
16.866633 31.369278 39.454006
18.324721 31.118063 38.172481
18.236642 31.206510 39.612016
17.503578 33.245590 37.702214
16.202542 34.877916 36.455544
17.965178 34.527115 37.561318
18.686181 34.637397 37.074010
17.200615 35.461859 35.339258
18.770387 36.989067 34.169085
18.027069 37.747544 34.815435
16.568428 39.898861 34.191252
18.369608 39.013947 34.941799
18.327192 40.168924 34.039807
17.642962 40.502537 32.797379
16.744364 41.888591 32.511014
17.189809 43.701721 30.762909
18.502795 43.723445 30.619653
16.808984 44.550637 31.791633
17.250335 46.184623 29.584364
18.277399 46.076074 30.533013
17.183723 47.169861 30.037480
19.586292 0.195816 58.640184
18.780751 1.108393 57.513718
20.257354 0.521573 57.068531
18.855551 3.449772 58.014562
19.321356 3.018527 55.756282
18.917221 4.331920 55.673699
19.144572 5.309376 55.397588
18.954252 4.801597 55.861917
18.940863 6.087807 53.465028
19.221696 7.514838 54.274699
18.626098 7.402011 53.611788
18.748183 9.975388 51.921776
19.085485 7.331600 52.452533
18.830434 10.017768 52.367811
19.196615 12.346274 50.144312
18.997701 12.321747 50.529932
19.224462 13.852016 50.991531
19.068592 14.999063 51.156881
18.785989 14.863367 49.548456
18.912426 15.891317 48.437997
19.091534 17.002919 47.668566
19.202406 18.203595 47.503068
18.081841 17.977571 46.078324
18.528983 18.860125 47.487577
18.817524 19.570506 46.405593
18.567674 21.201504 44.669734
18.963178 21.196967 45.226347
17.998890 22.966353 45.786057
17.713705 21.821003 42.828683
19.573788 22.989443 44.326531
17.819266 24.783098 42.992521
18.645351 25.899237 43.163846
18.207947 26.953521 41.431454
18.047318 27.311810 41.949523
19.653937 27.447689 39.549720
18.076715 29.406215 39.951900
18.697947 28.394310 39.193497
19.063834 31.404539 39.089780
18.553658 31.476019 39.286112
19.432081 32.199863 38.213791
18.814942 32.675884 37.107980
19.882653 32.925181 37.683293
18.805316 34.442393 37.753814
18.269211 35.594493 35.571588
18.682567 35.343426 36.431754
18.025926 35.548389 35.234840
18.247007 37.743487 34.488535
19.087255 38.956924 34.302087
18.073284 40.163354 34.810825
17.512726 39.682944 33.412747
17.831143 40.486345 33.189822
18.838769 41.441339 32.478335
19.489952 42.619774 31.741324
18.394579 43.300094 30.900375
18.396312 43.437375 30.650377
19.267432 44.955583 31.358987
18.746007 46.612511 28.754222
19.015737 0.060526 58.062953
19.403312 1.576632 57.309087
18.639007 2.001643 56.963523
19.304094 3.176759 56.446450
20.357863 4.184496 55.501415
19.907033 4.434383 54.731172
18.485497 6.248546 54.600752
19.027725 4.692606 54.484605
19.085595 6.612220 56.028631
19.765362 6.972020 52.490043
18.896603 8.729972 52.465331
20.149617 9.429915 52.709391
19.993968 9.954070 52.339373
19.447646 10.886933 51.264655
19.111893 11.849266 52.095203
19.235638 12.622386 51.064746
19.252457 13.723402 50.050480
19.494857 15.158880 49.731473
19.690525 14.695288 49.218641
20.531622 15.326701 48.067685
20.391279 17.769842 48.510031
19.928352 17.531684 48.584610
19.416479 17.874481 47.563336
20.818245 19.205135 46.801577
19.967116 19.490689 47.091114
20.361920 20.202803 44.380750
20.496287 22.096856 44.837555
20.117639 23.526138 44.664644
19.015737 21.651781 43.795996
19.644974 23.310589 42.413889
19.817258 24.810724 43.593652
19.742900 27.582831 42.261006
19.750978 26.473553 41.669759
20.140285 28.272963 41.898254
18.889964 28.864172 40.792406
18.757551 28.834923 41.234974
20.074743 28.198827 40.141667
19.505664 30.154918 39.940613
21.009340 30.578270 38.600185
18.801849 32.592047 39.050388
18.939573 33.828648 38.049068
19.704172 33.240795 37.138962
18.820180 33.889654 37.204579
20.102406 35.665089 36.468158
19.354404 35.019402 34.588969
19.677763 37.960584 35.603493
18.942818 38.050396 35.877982
20.750121 38.657355 33.679711
20.084923 37.869371 32.609530
17.716471 40.517881 32.775913
19.787345 41.452293 32.701076
19.462104 40.795873 32.718300
20.099787 42.417282 31.531197
19.046720 43.845457 32.385683
20.531364 43.910003 29.345247
19.978808 44.426080 29.440333
20.034724 45.619527 30.374118
19.759682 -0.891406 58.218381
21.077095 1.458383 58.443556
22.038801 2.225343 57.390268
21.641306 1.926658 56.487612
20.795857 3.672070 56.507972
20.853395 4.351284 56.010743
20.686939 4.927924 56.309132
21.345978 5.587036 54.556823
21.750186 6.477225 54.978330
21.329195 6.756250 53.138459
20.284353 9.261098 53.126989
21.406651 9.410477 52.209395
21.421036 10.225202 52.300424
20.205754 11.163229 51.195830
21.638355 11.704387 50.667323
20.355281 12.013214 50.832231
21.783087 12.677638 50.790589
20.694943 13.350102 49.312178
20.568948 15.233717 49.996630
19.812463 15.932553 49.421354
19.551916 17.092214 48.088413
21.163588 18.888821 48.795548
20.614352 17.244618 48.110138
19.908840 18.599689 46.286864
21.652850 18.942523 46.503372
21.185607 20.862653 45.139154
19.980026 20.330347 45.580135
20.712868 22.682681 44.704147
19.818106 23.896118 43.274275
20.578132 23.356989 44.347739
20.962313 24.741198 42.987172
22.748444 24.525871 43.093066
21.463120 25.996499 42.149174
20.840707 28.241759 41.568735
21.347416 26.949722 41.203439
21.191988 28.697421 40.112971
20.513254 29.661229 39.917967
20.124905 31.119981 39.415979
19.285173 30.432136 38.988202
21.001484 32.997805 38.254548
20.721831 32.921493 37.227668
21.732962 32.685142 37.141950
19.866055 33.288154 37.490132
19.936650 33.756061 36.973391
20.475153 36.275736 34.884297
19.968702 37.373211 34.563962
20.348642 37.676285 35.226025
19.212512 39.316209 35.060491
21.409381 40.714213 33.981494
20.637109 39.354125 33.364171
20.653928 41.075120 32.757618
20.224934 42.132060 32.464356
20.728839 42.961169 32.461958
21.278628 43.791238 32.154754
20.157916 45.289528 30.759037
20.776567 44.595008 30.914096
22.619388 0.896570 57.603898
21.416389 0.473329 57.646425
21.387951 0.635949 56.757343
21.277816 2.366571 57.620939
21.274497 3.088422 56.070605
21.687300 4.212417 55.754180
21.860801 4.528621 56.005874
20.955158 4.486905 53.632222
22.151444 6.780594 54.356249
21.823806 6.796232 52.509739
20.740089 8.398130 54.002830
22.273013 8.509666 52.764753
22.192533 10.244676 52.461385
21.964923 9.552590 52.391343
22.136838 11.255512 50.082532
21.119032 11.440004 51.457188
21.525011 13.460827 48.613711
21.525749 12.846233 51.556959
22.328265 15.280744 48.512060
21.994652 16.029299 47.952829
21.395955 15.989760 48.746862
21.536519 18.166195 47.743550
22.053260 18.158006 47.837456
20.184546 19.014004 47.677824
22.039392 19.871292 45.636457
21.974218 22.053481 44.025671
22.246272 20.505213 45.177402
23.219671 22.446662 45.472619
21.880054 23.228154 43.484992
21.342769 24.239985 43.747457
22.103606 24.430490 43.865116
22.187959 25.594688 42.714712
21.431585 27.484352 42.288410
22.976607 26.662656 40.625987
20.472571 27.757144 41.391177
21.171407 28.991126 40.741470
21.337162 29.220026 40.254199
21.648387 29.573372 39.601504
22.228458 30.393593 38.130250
22.950014 31.738115 38.317066
22.449686 32.053877 38.748236
21.872456 33.317513 38.250601
23.522929 34.622902 36.084494
21.142158 33.725115 36.158298
21.871386 33.984445 36.052331
22.053371 36.392141 36.379711
22.102094 38.153449 35.122345
22.084058 38.293276 34.509927
21.188263 38.033909 33.539553
21.096459 40.755818 34.272396
20.672960 41.206279 33.528931
21.945375 41.395750 31.964397
21.885439 44.057501 32.763335
22.389971 42.924839 31.144914
21.320122 43.699914 31.505084
22.302852 1.648112 57.454372
23.106954 3.092147 56.791202
22.154063 3.324072 56.144151
23.592086 2.869148 55.140361
22.440244 5.241694 55.168134
22.796098 6.682225 55.199670
22.377025 6.328067 55.698633
22.122786 6.702437 53.784035
22.567456 8.921583 52.357520
22.144178 7.450587 52.398129
22.405020 10.884572 52.642226
22.522310 11.067147 52.028702
22.429179 11.086142 51.699478
22.485279 12.877916 51.910268
22.742764 12.497461 49.807416
23.118278 13.992838 49.333940
22.518880 15.315451 48.241112
22.582468 15.758167 48.508851
22.559305 15.284321 48.685413
22.430470 17.444306 47.507605
23.065681 18.730294 46.506655
22.794106 18.396829 47.424322
22.882037 19.205062 46.667800
22.416343 20.079538 45.479000
24.054165 20.838421 45.416556
23.386607 21.528294 44.544108
23.244420 23.009766 44.535219
22.723622 23.847432 42.681554
23.033961 25.208737 42.674251
22.755157 24.784242 42.001086
23.171058 27.108580 42.296672
22.283304 27.016924 41.503783
21.922064 27.596700 42.210844
23.533957 28.827620 40.270022
21.652887 29.606494 40.284628
23.536613 31.136468 38.719246
22.726720 31.079667 38.528372
22.565759 31.092982 37.873059
23.423195 32.762155 37.340089
22.322917 33.399801 37.675104
23.292627 35.050606 36.692337
23.415339 34.543123 36.104263
22.834457 36.446581 36.196436
22.230523 37.293542 35.428480
22.960268 37.605874 33.801059
23.169398 38.515943 34.688629
22.317569 40.007926 33.452397
21.614270 39.667526 33.057852
22.686701 40.943556 32.757618
22.904610 41.415557 32.861483
22.666304 42.366309 32.120304
23.300041 43.186787 31.019251
24.028642 5.319556 54.764257
22.673202 6.576221 54.601047
23.171501 5.778721 53.289203
23.862038 7.062127 53.533152
24.513700 7.635153 52.849328
23.115954 8.763758 52.872343
23.881291 10.780118 53.057205
23.699196 10.219596 52.490007
24.197790 10.880220 50.257988
24.128597 12.495322 51.267237
24.343666 13.136398 50.187060
24.037162 13.752872 49.078188
23.235642 14.094120 48.913060
22.758772 15.345770 47.851435
23.493385 17.389534 48.357296
24.266505 16.746208 47.754652
24.762960 18.524741 46.489836
24.726666 18.231294 46.654153
24.157403 19.879259 46.751636
23.873398 20.888324 46.104438
23.212183 22.085718 45.608868
23.894200 22.876726 44.518917
23.722544 22.097594 43.844092
25.363833 24.374648 44.575054
22.990992 24.004335 43.101586
23.345408 24.088024 43.730675
22.577488 26.699761 42.115167
23.372406 28.144902 41.960846
24.521630 27.547681 41.372292
23.168808 28.968553 39.976796
25.170304 29.342849 38.922512
23.562099 30.201060 39.756601
23.031638 29.981196 38.260375
23.187730 31.227976 38.758785
23.025331 32.895711 36.118427
22.847145 32.979474 36.334787
23.371595 34.305001 37.537639
24.209151 34.481306 37.183370
24.125093 36.487706 36.917992
23.679869 36.198317 34.297883
22.392406 38.565957 34.640569
23.830982 38.632421 35.264863
23.948493 39.284120 33.521665
24.450149 40.609463 32.638152
24.255366 40.206213 32.873249
22.478751 42.508901 32.761971
23.266993 42.279374 31.406530
24.417286 43.528736 32.735009
23.230441 7.622428 53.770351
24.569099 8.200617 54.713726
24.545493 9.356148 52.562594
24.185545 10.153684 52.061676
24.402237 10.898219 50.958852
24.018867 11.538668 50.817034
24.125941 12.988568 50.209301
23.917363 12.392379 50.422379
24.785606 14.172757 48.259738
24.863800 14.464581 49.674450
24.402200 15.564011 48.643071
24.958370 16.793382 48.844382
24.466156 17.789612 48.030100
25.940362 18.370346 48.055181
25.907499 19.312578 46.867045
24.564525 19.891873 45.185775
24.472685 20.530073 45.326043
24.540256 21.842285 45.250284
24.745366 21.644072 45.264853
24.380217 22.285959 43.888463
25.499860 23.355477 42.820384
24.059919 24.718515 42.937674
24.139772 25.981783 43.007901
24.987545 26.079783 40.920762
24.591192 28.564086 42.090677
24.975926 28.481909 41.558223
24.752891 29.878290 39.871752
24.151796 29.387995 39.194013
25.022769 29.979499 38.744327
24.736883 31.902100 38.791538
25.191954 31.264454 37.754109
24.332195 32.958782 37.689895
25.244661 33.508645 37.313275
25.690622 34.797547 37.060179
24.327179 36.118685 36.833823
25.781024 36.162466 35.828705
25.001671 37.599751 33.993297
25.603392 37.605800 35.382818
24.580238 38.120438 32.584339
26.098335 39.337786 33.989609
25.095651 41.080689 33.216046
25.027932 40.317491 32.268651
23.956645 41.328548 31.601977
25.440256 41.905115 31.751172
26.628723 9.898560 51.970684
25.380688 11.347574 51.644558
25.329936 11.025321 51.641349
25.904364 13.570187 50.133874
26.777438 13.403878 50.413748
26.256714 13.347741 48.880417
25.238428 14.561806 50.317961
26.508925 15.424443 49.748033
25.958029 17.186932 47.333145
25.494512 17.119988 47.902335
26.876766 16.950507 46.885893
25.951944 19.368899 45.216351
25.951243 20.139179 46.992118
25.447559 20.560612 44.639895
26.689766 21.433171 46.188791
25.521806 23.381332 44.849801
24.660349 21.990705 44.189914
25.465964 23.737703 44.050752
24.816884 24.383168 42.726847
25.633047 25.563706 43.031876
26.931243 27.182827 43.571153
25.661816 27.713031 41.701922
26.205925 27.642694 41.935728
26.780684 29.050324 39.060310
25.853464 28.938788 39.508115
25.669636 30.116596 39.262322
25.621908 31.642771 38.747314
25.710613 32.491060 37.727885
27.350021 33.431189 37.191300
25.327576 33.051655 36.422090
24.489614 35.760618 36.773740
25.849259 36.293772 35.848290
26.482479 36.101829 35.100178
25.535047 37.408988 34.247647
25.197007 37.624463 35.198583
26.221527 38.352105 34.486137
26.204929 39.682575 32.870814
24.612991 40.451084 34.639205
26.121756 40.525331 33.258462
25.350776 41.100902 32.548709
28.002458 12.117005 50.194290
