ply
format ascii 1.0
element vertex 1594
property float x
property float y
property float z
end_header
32.790589 37.937580 -14.692632
32.790589 37.937580 -13.679370
32.790589 37.937580 -12.666047
32.790589 37.937580 -11.652785
32.790589 37.937580 -10.639462
32.790589 37.937580 -9.626200
32.790589 37.937580 -8.612939
32.790589 37.937580 -7.599616
32.790589 37.937580 -6.586354
32.790589 37.937580 -5.573093
32.790589 37.937580 -4.559769
32.790589 37.937580 -3.546508
32.790589 37.937580 -2.533184
32.790589 37.937580 -1.519923
32.790589 37.937580 -0.506662
32.790589 37.937580 0.506662
32.790589 37.937580 1.519923
32.790589 37.937580 2.533184
32.790589 37.937580 3.546508
32.790589 37.937580 4.559769
32.790589 37.937580 5.573093
32.790589 37.937580 6.586354
32.790589 37.937580 7.599616
32.790589 37.937580 8.612939
32.790589 37.937580 9.626200
32.790589 37.937580 10.639462
32.790589 37.937580 11.652785
32.790589 37.937580 12.666047
32.790589 37.937580 13.679370
32.790589 37.937580 14.692632
32.790589 37.937580 15.705893
32.790589 37.937580 16.719216
32.790589 37.937580 17.732478
32.790589 37.937580 18.745801
32.790589 37.937580 19.759063
32.790589 37.937580 20.772324
32.790589 37.937580 21.785648
32.790589 37.937580 22.798909
32.790589 37.937580 23.812170
32.790589 37.937580 24.825494
32.790589 37.937580 25.838755
32.790589 37.937580 26.852079
32.790589 37.937580 27.865340
32.790589 37.937580 28.878601
32.790589 37.937580 29.891925
32.790589 37.937580 30.905186
32.790589 37.937580 31.918448
32.790589 37.937580 32.931771
32.790589 37.937580 33.945032
33.610332 37.430980 -34.958356
33.610332 37.430980 -33.945032
33.610332 37.430980 -32.931771
33.610332 37.430980 -31.918448
33.610332 37.430980 -30.905186
33.610332 37.430980 -29.891925
33.610332 37.430980 -28.878601
33.610332 37.430980 -27.865340
33.610332 37.430980 -26.852079
33.610332 37.430980 -25.838755
33.610332 37.430980 -24.825494
33.610332 37.430980 -23.812170
33.610332 37.430980 -22.798909
33.610332 37.430980 -21.785648
33.610332 37.430980 -20.772324
33.610332 37.430980 -19.759063
33.610332 37.430980 -18.745801
33.610332 37.430980 -17.732478
33.610332 37.430980 -16.719216
33.610332 37.430980 -15.705893
33.610332 37.430980 -14.692632
33.610332 37.430980 -13.679370
33.610332 37.430980 -12.666047
33.610332 37.430980 -11.652785
33.610332 37.430980 -10.639462
33.610332 37.430980 -9.626200
33.610332 37.430980 -8.612939
33.610332 37.430980 -7.599616
33.610332 37.430980 -6.586354
33.610332 37.430980 -5.573093
33.610332 37.430980 -4.559769
33.610332 37.430980 -3.546508
33.610332 37.430980 -2.533184
33.610332 37.430980 -1.519923
33.610332 37.430980 -0.506662
33.610332 37.430980 0.506662
33.610332 37.430980 1.519923
33.610332 37.430980 2.533184
33.610332 37.430980 3.546508
33.610332 37.430980 4.559769
33.610332 37.430980 5.573093
33.610332 37.430980 6.586354
33.610332 37.430980 7.599616
33.610332 37.430980 8.612939
33.610332 37.430980 9.626200
33.610332 37.430980 10.639462
33.610332 37.430980 11.652785
33.610332 37.430980 12.666047
33.610332 37.430980 13.679370
33.610332 37.430980 14.692632
33.610332 37.430980 15.705893
33.610332 37.430980 16.719216
33.610332 37.430980 17.732478
33.610332 37.430980 18.745801
33.610332 37.430980 19.759063
33.610332 37.430980 20.772324
33.610332 37.430980 21.785648
33.610332 37.430980 22.798909
33.610332 37.430980 23.812170
33.610332 37.430980 24.825494
33.610332 37.430980 25.838755
33.610332 37.430980 26.852079
33.610332 37.430980 27.865340
33.610332 37.430980 28.878601
33.610332 37.430980 29.891925
33.610332 37.430980 30.905186
33.610332 37.430980 31.918448
33.610332 37.430980 32.931771
33.610332 37.430980 33.945032
33.610332 37.430980 34.958356
34.430137 36.924318 -34.958356
34.430137 36.924318 -33.945032
34.430137 36.924318 -32.931771
34.430137 36.924318 -31.918448
34.430137 36.924318 -30.905186
34.430137 36.924318 -29.891925
34.430137 36.924318 -28.878601
34.430137 36.924318 -27.865340
34.430137 36.924318 -26.852079
34.430137 36.924318 -25.838755
34.430137 36.924318 -24.825494
34.430137 36.924318 -23.812170
34.430137 36.924318 -22.798909
34.430137 36.924318 -21.785648
34.430137 36.924318 -20.772324
34.430137 36.924318 -19.759063
34.430137 36.924318 -18.745801
34.430137 36.924318 -17.732478
34.430137 36.924318 -16.719216
34.430137 36.924318 -15.705893
34.430137 36.924318 -14.692632
34.430137 36.924318 -13.679370
34.430137 36.924318 -12.666047
34.430137 36.924318 -11.652785
34.430137 36.924318 -10.639462
34.430137 36.924318 -9.626200
34.430137 36.924318 -8.612939
34.430137 36.924318 -7.599616
34.430137 36.924318 -6.586354
34.430137 36.924318 -5.573093
34.430137 36.924318 -4.559769
34.430137 36.924318 -3.546508
34.430137 36.924318 -2.533184
34.430137 36.924318 -1.519923
34.430137 36.924318 -0.506662
34.430137 36.924318 0.506662
34.430137 36.924318 1.519923
34.430137 36.924318 2.533184
34.430137 36.924318 3.546508
34.430137 36.924318 4.559769
34.430137 36.924318 5.573093
34.430137 36.924318 6.586354
34.430137 36.924318 7.599616
34.430137 36.924318 8.612939
34.430137 36.924318 9.626200
34.430137 36.924318 10.639462
34.430137 36.924318 11.652785
34.430137 36.924318 12.666047
34.430137 36.924318 13.679370
34.430137 36.924318 14.692632
34.430137 36.924318 15.705893
34.430137 36.924318 16.719216
34.430137 36.924318 17.732478
34.430137 36.924318 18.745801
34.430137 36.924318 19.759063
34.430137 36.924318 20.772324
34.430137 36.924318 21.785648
34.430137 36.924318 22.798909
34.430137 36.924318 23.812170
34.430137 36.924318 24.825494
34.430137 36.924318 25.838755
34.430137 36.924318 26.852079
34.430137 36.924318 27.865340
34.430137 36.924318 28.878601
34.430137 36.924318 29.891925
34.430137 36.924318 30.905186
34.430137 36.924318 31.918448
34.430137 36.924318 32.931771
34.430137 36.924318 33.945032
34.430137 36.924318 34.958356
35.249880 36.417657 -34.958356
35.249880 36.417657 -33.945032
35.249880 36.417657 -32.931771
35.249880 36.417657 -31.918448
35.249880 36.417657 -30.905186
35.249880 36.417657 -29.891925
35.249880 36.417657 -28.878601
35.249880 36.417657 -27.865340
35.249880 36.417657 -26.852079
35.249880 36.417657 -25.838755
35.249880 36.417657 -24.825494
35.249880 36.417657 -23.812170
35.249880 36.417657 -22.798909
35.249880 36.417657 -21.785648
35.249880 36.417657 -20.772324
35.249880 36.417657 -19.759063
35.249880 36.417657 -18.745801
35.249880 36.417657 -17.732478
35.249880 36.417657 -16.719216
35.249880 36.417657 -15.705893
35.249880 36.417657 -14.692632
35.249880 36.417657 -13.679370
35.249880 36.417657 -12.666047
35.249880 36.417657 -11.652785
35.249880 36.417657 -10.639462
35.249880 36.417657 -9.626200
35.249880 36.417657 -8.612939
35.249880 36.417657 -7.599616
35.249880 36.417657 -6.586354
35.249880 36.417657 -5.573093
35.249880 36.417657 -4.559769
35.249880 36.417657 -3.546508
35.249880 36.417657 -2.533184
35.249880 36.417657 -1.519923
35.249880 36.417657 -0.506662
35.249880 36.417657 0.506662
35.249880 36.417657 1.519923
35.249880 36.417657 2.533184
35.249880 36.417657 3.546508
35.249880 36.417657 4.559769
35.249880 36.417657 5.573093
35.249880 36.417657 6.586354
35.249880 36.417657 7.599616
35.249880 36.417657 8.612939
35.249880 36.417657 9.626200
35.249880 36.417657 10.639462
35.249880 36.417657 11.652785
35.249880 36.417657 12.666047
35.249880 36.417657 13.679370
35.249880 36.417657 14.692632
35.249880 36.417657 15.705893
35.249880 36.417657 16.719216
35.249880 36.417657 17.732478
35.249880 36.417657 18.745801
35.249880 36.417657 19.759063
35.249880 36.417657 20.772324
35.249880 36.417657 21.785648
35.249880 36.417657 22.798909
35.249880 36.417657 23.812170
35.249880 36.417657 24.825494
35.249880 36.417657 25.838755
35.249880 36.417657 26.852079
35.249880 36.417657 27.865340
35.249880 36.417657 28.878601
35.249880 36.417657 29.891925
35.249880 36.417657 30.905186
35.249880 36.417657 31.918448
35.249880 36.417657 32.931771
35.249880 36.417657 33.945032
35.249880 36.417657 34.958356
36.069623 35.911057 -34.958356
36.069623 35.911057 -33.945032
36.069623 35.911057 -32.931771
36.069623 35.911057 -31.918448
36.069623 35.911057 -30.905186
36.069623 35.911057 -29.891925
36.069623 35.911057 -28.878601
36.069623 35.911057 -27.865340
36.069623 35.911057 -26.852079
36.069623 35.911057 -25.838755
36.069623 35.911057 -24.825494
36.069623 35.911057 -23.812170
36.069623 35.911057 -22.798909
36.069623 35.911057 -21.785648
36.069623 35.911057 -20.772324
36.069623 35.911057 -19.759063
36.069623 35.911057 -18.745801
36.069623 35.911057 -17.732478
36.069623 35.911057 -16.719216
36.069623 35.911057 -15.705893
36.069623 35.911057 -14.692632
36.069623 35.911057 -13.679370
36.069623 35.911057 -12.666047
36.069623 35.911057 -11.652785
36.069623 35.911057 -10.639462
36.069623 35.911057 -9.626200
36.069623 35.911057 -8.612939
36.069623 35.911057 -7.599616
36.069623 35.911057 -6.586354
36.069623 35.911057 -5.573093
36.069623 35.911057 -4.559769
36.069623 35.911057 -3.546508
36.069623 35.911057 -2.533184
36.069623 35.911057 -1.519923
36.069623 35.911057 -0.506662
36.069623 35.911057 0.506662
36.069623 35.911057 1.519923
36.069623 35.911057 2.533184
36.069623 35.911057 3.546508
36.069623 35.911057 4.559769
36.069623 35.911057 5.573093
36.069623 35.911057 6.586354
36.069623 35.911057 7.599616
36.069623 35.911057 8.612939
36.069623 35.911057 9.626200
36.069623 35.911057 10.639462
36.069623 35.911057 11.652785
36.069623 35.911057 12.666047
36.069623 35.911057 13.679370
36.069623 35.911057 14.692632
36.069623 35.911057 15.705893
36.069623 35.911057 16.719216
36.069623 35.911057 17.732478
36.069623 35.911057 18.745801
36.069623 35.911057 19.759063
36.069623 35.911057 20.772324
36.069623 35.911057 21.785648
36.069623 35.911057 22.798909
36.069623 35.911057 23.812170
36.069623 35.911057 24.825494
36.069623 35.911057 25.838755
36.069623 35.911057 26.852079
36.069623 35.911057 27.865340
36.069623 35.911057 28.878601
36.069623 35.911057 29.891925
36.069623 35.911057 30.905186
36.069623 35.911057 31.918448
36.069623 35.911057 32.931771
36.069623 35.911057 33.945032
36.069623 35.911057 34.958356
36.889428 35.404395 -33.945032
36.889428 35.404395 -32.931771
36.889428 35.404395 -31.918448
36.889428 35.404395 -30.905186
36.889428 35.404395 -29.891925
36.889428 35.404395 -28.878601
36.889428 35.404395 -27.865340
36.889428 35.404395 -26.852079
36.889428 35.404395 -25.838755
36.889428 35.404395 -24.825494
36.889428 35.404395 -23.812170
36.889428 35.404395 -22.798909
36.889428 35.404395 -21.785648
36.889428 35.404395 -20.772324
36.889428 35.404395 -19.759063
36.889428 35.404395 -18.745801
36.889428 35.404395 -17.732478
36.889428 35.404395 -16.719216
36.889428 35.404395 -15.705893
36.889428 35.404395 -14.692632
36.889428 35.404395 -13.679370
36.889428 35.404395 -12.666047
36.889428 35.404395 -11.652785
36.889428 35.404395 -10.639462
36.889428 35.404395 -9.626200
36.889428 35.404395 -8.612939
36.889428 35.404395 -7.599616
36.889428 35.404395 -6.586354
36.889428 35.404395 -5.573093
36.889428 35.404395 -4.559769
36.889428 35.404395 -3.546508
36.889428 35.404395 -2.533184
36.889428 35.404395 -1.519923
36.889428 35.404395 -0.506662
36.889428 35.404395 0.506662
36.889428 35.404395 1.519923
36.889428 35.404395 2.533184
36.889428 35.404395 3.546508
36.889428 35.404395 4.559769
36.889428 35.404395 5.573093
36.889428 35.404395 6.586354
36.889428 35.404395 7.599616
36.889428 35.404395 8.612939
36.889428 35.404395 9.626200
36.889428 35.404395 10.639462
36.889428 35.404395 11.652785
36.889428 35.404395 12.666047
36.889428 35.404395 13.679370
36.889428 35.404395 14.692632
36.889428 35.404395 15.705893
36.889428 35.404395 16.719216
36.889428 35.404395 17.732478
36.889428 35.404395 18.745801
36.889428 35.404395 19.759063
36.889428 35.404395 20.772324
36.889428 35.404395 21.785648
36.889428 35.404395 22.798909
36.889428 35.404395 23.812170
36.889428 35.404395 24.825494
36.889428 35.404395 25.838755
36.889428 35.404395 26.852079
36.889428 35.404395 27.865340
36.889428 35.404395 28.878601
36.889428 35.404395 29.891925
36.889428 35.404395 30.905186
36.889428 35.404395 31.918448
36.889428 35.404395 32.931771
36.889428 35.404395 33.945032
37.709171 34.897734 -32.931771
37.709171 34.897734 -31.918448
37.709171 34.897734 -30.905186
37.709171 34.897734 -29.891925
37.709171 34.897734 -28.878601
37.709171 34.897734 -27.865340
37.709171 34.897734 -26.852079
37.709171 34.897734 -25.838755
37.709171 34.897734 -24.825494
37.709171 34.897734 -23.812170
37.709171 34.897734 -22.798909
37.709171 34.897734 -21.785648
37.709171 34.897734 -20.772324
37.709171 34.897734 -19.759063
37.709171 34.897734 -18.745801
37.709171 34.897734 -17.732478
37.709171 34.897734 -16.719216
37.709171 34.897734 -15.705893
37.709171 34.897734 -14.692632
37.709171 34.897734 -13.679370
37.709171 34.897734 -12.666047
37.709171 34.897734 -11.652785
37.709171 34.897734 -10.639462
37.709171 34.897734 -9.626200
37.709171 34.897734 -8.612939
37.709171 34.897734 -7.599616
37.709171 34.897734 -6.586354
37.709171 34.897734 -5.573093
37.709171 34.897734 -4.559769
37.709171 34.897734 -3.546508
37.709171 34.897734 -2.533184
37.709171 34.897734 -1.519923
37.709171 34.897734 -0.506662
37.709171 34.897734 0.506662
37.709171 34.897734 1.519923
37.709171 34.897734 2.533184
37.709171 34.897734 3.546508
37.709171 34.897734 4.559769
37.709171 34.897734 5.573093
37.709171 34.897734 6.586354
37.709171 34.897734 7.599616
37.709171 34.897734 8.612939
37.709171 34.897734 9.626200
37.709171 34.897734 10.639462
37.709171 34.897734 11.652785
37.709171 34.897734 12.666047
37.709171 34.897734 13.679370
37.709171 34.897734 14.692632
37.709171 34.897734 15.705893
37.709171 34.897734 16.719216
37.709171 34.897734 17.732478
37.709171 34.897734 18.745801
37.709171 34.897734 19.759063
37.709171 34.897734 20.772324
37.709171 34.897734 21.785648
37.709171 34.897734 22.798909
37.709171 34.897734 23.812170
37.709171 34.897734 24.825494
37.709171 34.897734 25.838755
37.709171 34.897734 26.852079
37.709171 34.897734 27.865340
37.709171 34.897734 28.878601
37.709171 34.897734 29.891925
37.709171 34.897734 30.905186
37.709171 34.897734 31.918448
37.709171 34.897734 32.931771
38.528976 34.391072 -30.905186
38.528976 34.391072 -29.891925
38.528976 34.391072 -28.878601
38.528976 34.391072 -27.865340
38.528976 34.391072 -26.852079
38.528976 34.391072 -25.838755
38.528976 34.391072 -24.825494
38.528976 34.391134 -23.812170
38.528976 34.391134 -22.798909
38.528976 34.391134 -21.785648
38.528976 34.391134 -20.772324
38.528976 34.391134 -19.759063
38.528976 34.391134 -18.745801
38.528976 34.391134 -17.732478
38.528976 34.391134 -16.719216
38.528976 34.391134 -15.705893
38.528976 34.391134 -14.692632
38.528976 34.391134 -13.679370
38.528976 34.391134 -12.666047
38.528976 34.391134 -11.652785
38.528976 34.391134 -10.639462
38.528976 34.391134 -9.626200
38.528976 34.391134 -8.612939
38.528976 34.391134 -7.599616
38.528976 34.391134 -6.586354
38.528976 34.391134 -5.573093
38.528976 34.391134 -4.559769
38.528976 34.391134 -3.546508
38.528976 34.391134 -2.533184
38.528976 34.391134 -1.519923
38.528976 34.391134 -0.506662
38.528976 34.391134 0.506662
38.528976 34.391134 1.519923
38.528976 34.391134 2.533184
38.528976 34.391134 3.546508
38.528976 34.391134 4.559769
38.528976 34.391134 5.573093
38.528976 34.391134 6.586354
38.528976 34.391134 7.599616
38.528976 34.391134 8.612939
38.528976 34.391134 9.626200
38.528976 34.391134 10.639462
38.528976 34.391134 11.652785
38.528976 34.391134 12.666047
38.528976 34.391134 13.679370
38.528976 34.391134 14.692632
38.528976 34.391134 15.705893
38.528976 34.391134 16.719216
38.528976 34.391134 17.732478
38.528976 34.391134 18.745801
38.528976 34.391134 19.759063
38.528976 34.391134 20.772324
38.528976 34.391134 21.785648
38.528976 34.391134 22.798909
38.528976 34.391134 23.812170
38.528976 34.391072 24.825494
38.528976 34.391072 25.838755
38.528976 34.391072 26.852079
38.528976 34.391072 27.865340
38.528976 34.391072 28.878601
38.528976 34.391072 29.891925
38.528976 34.391072 30.905186
39.348719 33.884472 -29.891925
39.348719 33.884472 -28.878601
39.348719 33.884472 -27.865340
39.348719 33.884472 -26.852079
39.348719 33.884472 -25.838755
39.348719 33.884472 -24.825494
39.348719 33.884472 -23.812170
39.348719 33.884472 -22.798909
39.348719 33.884472 -21.785648
39.348719 33.884472 -20.772324
39.348719 33.884472 -19.759063
39.348719 33.884472 -18.745801
39.348719 33.884472 -17.732478
39.348719 33.884472 -16.719216
39.348719 33.884472 -15.705893
39.348719 33.884472 -14.692632
39.348719 33.884472 -13.679370
39.348719 33.884472 -12.666047
39.348719 33.884472 -11.652785
39.348719 33.884472 -10.639462
39.348719 33.884472 -9.626200
39.348719 33.884472 -8.612939
39.348719 33.884472 -7.599616
39.348719 33.884472 -6.586354
39.348719 33.884472 -5.573093
39.348719 33.884472 -4.559769
39.348719 33.884472 -3.546508
39.348719 33.884472 -2.533184
39.348719 33.884472 -1.519923
39.348719 33.884472 -0.506662
39.348719 33.884472 0.506662
39.348719 33.884472 1.519923
39.348719 33.884472 2.533184
39.348719 33.884472 3.546508
39.348719 33.884472 4.559769
39.348719 33.884472 5.573093
39.348719 33.884472 6.586354
39.348719 33.884472 7.599616
39.348719 33.884472 8.612939
39.348719 33.884472 9.626200
39.348719 33.884472 10.639462
39.348719 33.884472 11.652785
39.348719 33.884472 12.666047
39.348719 33.884472 13.679370
39.348719 33.884472 14.692632
39.348719 33.884472 15.705893
39.348719 33.884472 16.719216
39.348719 33.884472 17.732478
39.348719 33.884472 18.745801
39.348719 33.884472 19.759063
39.348719 33.884472 20.772324
39.348719 33.884472 21.785648
39.348719 33.884472 22.798909
39.348719 33.884472 23.812170
39.348719 33.884472 24.825494
39.348719 33.884472 25.838755
39.348719 33.884472 26.852079
39.348719 33.884472 27.865340
39.348719 33.884472 28.878601
39.348719 33.884472 29.891925
40.168462 33.377810 -28.878601
40.168462 33.377810 -27.865340
40.168462 33.377810 -26.852079
40.168462 33.377810 -25.838755
40.168462 33.377810 -24.825494
40.168462 33.377810 -23.812170
40.168462 33.377810 -22.798909
40.168462 33.377810 -21.785648
40.168462 33.377810 -20.772324
40.168462 33.377810 -19.759063
40.168462 33.377810 -18.745801
40.168462 33.377810 -17.732478
40.168462 33.377810 -16.719216
40.168462 33.377810 -15.705893
40.168462 33.377810 -14.692632
40.168462 33.377810 -13.679370
40.168462 33.377810 -12.666047
40.168462 33.377810 -11.652785
40.168462 33.377810 -10.639462
40.168462 33.377810 -9.626200
40.168462 33.377810 -8.612939
40.168462 33.377810 -7.599616
40.168462 33.377810 -6.586354
40.168462 33.377810 -5.573093
40.168462 33.377810 -4.559769
40.168462 33.377810 -3.546508
40.168462 33.377810 -2.533184
40.168462 33.377810 -1.519923
40.168462 33.377810 -0.506662
40.168462 33.377810 0.506662
40.168462 33.377810 1.519923
40.168462 33.377810 2.533184
40.168462 33.377810 3.546508
40.168462 33.377810 4.559769
40.168462 33.377810 5.573093
40.168462 33.377810 6.586354
40.168462 33.377810 7.599616
40.168462 33.377810 8.612939
40.168462 33.377810 9.626200
40.168462 33.377810 10.639462
40.168462 33.377810 11.652785
40.168462 33.377810 12.666047
40.168462 33.377810 13.679370
40.168462 33.377810 14.692632
40.168462 33.377810 15.705893
40.168462 33.377810 16.719216
40.168462 33.377810 17.732478
40.168462 33.377810 18.745801
40.168462 33.377810 19.759063
40.168462 33.377810 20.772324
40.168462 33.377810 21.785648
40.168462 33.377810 22.798909
40.168462 33.377810 23.812170
40.168462 33.377810 24.825494
40.168462 33.377810 25.838755
40.168462 33.377810 26.852079
40.168462 33.377810 27.865340
40.168462 33.377810 28.878601
40.988267 32.871149 -26.852079
40.988267 32.871149 -25.838755
40.988267 32.871149 -24.825494
40.988267 32.871149 -23.812170
40.988267 32.871149 -22.798909
40.988267 32.871149 -21.785648
40.988267 32.871149 -20.772324
40.988267 32.871149 -19.759063
40.988267 32.871149 -18.745801
40.988267 32.871149 -17.732478
40.988267 32.871149 -16.719216
40.988267 32.871149 -15.705893
40.988267 32.871149 -14.692632
40.988267 32.871149 -13.679370
40.988267 32.871149 -12.666047
40.988267 32.871149 -11.652785
40.988267 32.871149 -10.639462
40.988267 32.871149 -9.626200
40.988267 32.871149 -8.612939
40.988267 32.871149 -7.599616
40.988267 32.871149 -6.586354
40.988267 32.871149 -5.573093
40.988267 32.871149 -4.559769
40.988267 32.871149 -3.546508
40.988267 32.871149 -2.533184
40.988267 32.871149 -1.519923
40.988267 32.871149 -0.506662
40.988267 32.871149 0.506662
40.988267 32.871149 1.519923
40.988267 32.871149 2.533184
40.988267 32.871149 3.546508
40.988267 32.871149 4.559769
40.988267 32.871149 5.573093
40.988267 32.871149 6.586354
40.988267 32.871149 7.599616
40.988267 32.871149 8.612939
40.988267 32.871149 9.626200
40.988267 32.871149 10.639462
40.988267 32.871149 11.652785
40.988267 32.871149 12.666047
40.988267 32.871149 13.679370
40.988267 32.871149 14.692632
40.988267 32.871149 15.705893
40.988267 32.871149 16.719216
40.988267 32.871149 17.732478
40.988267 32.871149 18.745801
40.988267 32.871149 19.759063
40.988267 32.871149 20.772324
40.988267 32.871149 21.785648
40.988267 32.871149 22.798909
40.988267 32.871149 23.812170
40.988267 32.871149 24.825494
40.988267 32.871149 25.838755
40.988267 32.871149 26.852079
41.808010 32.364549 -25.838755
41.808010 32.364549 -24.825494
41.808010 32.364549 -23.812170
41.808010 32.364549 -22.798909
41.808010 32.364549 -21.785648
41.808010 32.364549 -20.772324
41.808010 32.364549 -19.759063
41.808010 32.364549 -18.745801
41.808010 32.364549 -17.732478
41.808010 32.364549 -16.719216
41.808010 32.364549 -15.705893
41.808010 32.364549 -14.692632
41.808010 32.364549 -13.679370
41.808010 32.364549 -12.666047
41.808010 32.364549 -11.652785
41.808010 32.364549 -10.639462
41.808010 32.364549 -9.626200
41.808010 32.364549 -8.612939
41.808010 32.364549 -7.599616
41.808010 32.364549 -6.586354
41.808010 32.364549 -5.573093
41.808010 32.364549 -4.559769
41.808010 32.364549 -3.546508
41.808010 32.364549 -2.533184
41.808010 32.364549 -1.519923
41.808010 32.364549 -0.506662
41.808010 32.364549 0.506662
41.808010 32.364549 1.519923
41.808010 32.364549 2.533184
41.808010 32.364549 3.546508
41.808010 32.364549 4.559769
41.808010 32.364549 5.573093
41.808010 32.364549 6.586354
41.808010 32.364549 7.599616
41.808010 32.364549 8.612939
41.808010 32.364549 9.626200
41.808010 32.364549 10.639462
41.808010 32.364549 11.652785
41.808010 32.364549 12.666047
41.808010 32.364549 13.679370
41.808010 32.364549 14.692632
41.808010 32.364549 15.705893
41.808010 32.364549 16.719216
41.808010 32.364549 17.732478
41.808010 32.364549 18.745801
41.808010 32.364549 19.759063
41.808010 32.364549 20.772324
41.808010 32.364549 21.785648
41.808010 32.364549 22.798909
41.808010 32.364549 23.812170
41.808010 32.364549 24.825494
41.808010 32.364549 25.838755
42.627753 31.857887 -24.825494
42.627753 31.857887 -23.812170
42.627753 31.857887 -22.798909
42.627753 31.857887 -21.785648
42.627753 31.857887 -20.772324
42.627753 31.857887 -19.759063
42.627753 31.857887 -18.745801
42.627753 31.857887 -17.732478
42.627753 31.857887 -16.719216
42.627753 31.857887 -15.705893
42.627753 31.857887 -14.692632
42.627753 31.857887 -13.679370
42.627753 31.857887 -12.666047
42.627753 31.857887 -11.652785
42.627753 31.857887 -10.639462
42.627753 31.857887 -9.626200
42.627753 31.857887 -8.612939
42.627753 31.857887 -7.599616
42.627753 31.857887 -6.586354
42.627753 31.857887 -5.573093
42.627753 31.857887 -4.559769
42.627753 31.857887 -3.546508
42.627753 31.857887 -2.533184
42.627753 31.857887 -1.519923
42.627753 31.857887 -0.506662
42.627753 31.857887 0.506662
42.627753 31.857887 1.519923
42.627753 31.857887 2.533184
42.627753 31.857887 3.546508
42.627753 31.857887 4.559769
42.627753 31.857887 5.573093
42.627753 31.857887 6.586354
42.627753 31.857887 7.599616
42.627753 31.857887 8.612939
42.627753 31.857887 9.626200
42.627753 31.857887 10.639462
42.627753 31.857887 11.652785
42.627753 31.857887 12.666047
42.627753 31.857887 13.679370
42.627753 31.857887 14.692632
42.627753 31.857887 15.705893
42.627753 31.857887 16.719216
42.627753 31.857887 17.732478
42.627753 31.857887 18.745801
42.627753 31.857887 19.759063
42.627753 31.857887 20.772324
42.627753 31.857887 21.785648
42.627753 31.857887 22.798909
42.627753 31.857887 23.812170
42.627753 31.857887 24.825494
43.447558 31.351226 -23.812170
43.447558 31.351226 -22.798909
43.447558 31.351226 -21.785648
43.447558 31.351226 -20.772324
43.447558 31.351226 -19.759063
43.447558 31.351226 -18.745801
43.447558 31.351226 -17.732478
43.447558 31.351226 -16.719216
43.447558 31.351226 -15.705893
43.447558 31.351226 -14.692632
43.447558 31.351226 -13.679370
43.447558 31.351226 -12.666047
43.447558 31.351226 -11.652785
43.447558 31.351226 -10.639462
43.447558 31.351226 -9.626200
43.447558 31.351226 -8.612939
43.447558 31.351226 -7.599616
43.447558 31.351226 -6.586354
43.447558 31.351226 -5.573093
43.447558 31.351226 -4.559769
43.447558 31.351226 -3.546508
43.447558 31.351226 -2.533184
43.447558 31.351226 -1.519923
43.447558 31.351226 -0.506662
43.447558 31.351226 0.506662
43.447558 31.351226 1.519923
43.447558 31.351226 2.533184
43.447558 31.351226 3.546508
43.447558 31.351226 4.559769
43.447558 31.351226 5.573093
43.447558 31.351226 6.586354
43.447558 31.351226 7.599616
43.447558 31.351226 8.612939
43.447558 31.351226 9.626200
43.447558 31.351226 10.639462
43.447558 31.351226 11.652785
43.447558 31.351226 12.666047
43.447558 31.351226 13.679370
43.447558 31.351226 14.692632
43.447558 31.351226 15.705893
43.447558 31.351226 16.719216
43.447558 31.351226 17.732478
43.447558 31.351226 18.745801
43.447558 31.351226 19.759063
43.447558 31.351226 20.772324
43.447558 31.351226 21.785648
43.447558 31.351226 22.798909
43.447558 31.351226 23.812170
44.267301 30.844626 -21.785648
44.267301 30.844626 -20.772324
44.267301 30.844626 -19.759063
44.267301 30.844626 -18.745801
44.267301 30.844626 -17.732478
44.267301 30.844626 -16.719216
44.267301 30.844626 -15.705893
44.267301 30.844626 -14.692632
44.267301 30.844626 -13.679370
44.267301 30.844626 -12.666047
44.267301 30.844626 -11.652785
44.267301 30.844626 -10.639462
44.267301 30.844626 -9.626200
44.267301 30.844626 -8.612939
44.267301 30.844626 -7.599616
44.267301 30.844626 -6.586354
44.267301 30.844626 -5.573093
44.267301 30.844626 -4.559769
44.267301 30.844626 -3.546508
44.267301 30.844626 -2.533184
44.267301 30.844626 -1.519923
44.267301 30.844626 -0.506662
44.267301 30.844626 0.506662
44.267301 30.844626 1.519923
44.267301 30.844626 2.533184
44.267301 30.844626 3.546508
44.267301 30.844626 4.559769
44.267301 30.844626 5.573093
44.267301 30.844626 6.586354
44.267301 30.844626 7.599616
44.267301 30.844626 8.612939
44.267301 30.844626 9.626200
44.267301 30.844626 10.639462
44.267301 30.844626 11.652785
44.267301 30.844626 12.666047
44.267301 30.844626 13.679370
44.267301 30.844626 14.692632
44.267301 30.844626 15.705893
44.267301 30.844626 16.719216
44.267301 30.844626 17.732478
44.267301 30.844626 18.745801
44.267301 30.844626 19.759063
44.267301 30.844626 20.772324
44.267301 30.844626 21.785648
45.087044 30.337964 -20.772324
45.087044 30.337964 -19.759063
45.087044 30.337964 -18.745801
45.087044 30.337964 -17.732478
45.087044 30.337964 -16.719216
45.087044 30.337964 -15.705893
45.087044 30.337964 -14.692632
45.087044 30.337964 -13.679370
45.087044 30.337964 -12.666047
45.087044 30.337964 -11.652785
45.087044 30.337964 -10.639462
45.087044 30.337964 -9.626200
45.087044 30.337964 -8.612939
45.087044 30.337964 -7.599616
45.087044 30.337964 -6.586354
45.087044 30.337964 -5.573093
45.087044 30.337964 -4.559769
45.087044 30.337964 -3.546508
45.087044 30.337964 -2.533184
45.087044 30.337964 -1.519923
45.087044 30.337964 -0.506662
45.087044 30.337964 0.506662
45.087044 30.337964 1.519923
45.087044 30.337964 2.533184
45.087044 30.337964 3.546508
45.087044 30.337964 4.559769
45.087044 30.337964 5.573093
45.087044 30.337964 6.586354
45.087044 30.337964 7.599616
45.087044 30.337964 8.612939
45.087044 30.337964 9.626200
45.087044 30.337964 10.639462
45.087044 30.337964 11.652785
45.087044 30.337964 12.666047
45.087044 30.337964 13.679370
45.087044 30.337964 14.692632
45.087044 30.337964 15.705893
45.087044 30.337964 16.719216
45.087044 30.337964 17.732478
45.087044 30.337964 18.745801
45.087044 30.337964 19.759063
45.087044 30.337964 20.772324
45.906849 29.831302 -19.759063
45.906849 29.831302 -18.745801
45.906849 29.831302 -17.732478
45.906849 29.831302 -16.719216
45.906849 29.831302 -15.705893
45.906849 29.831302 -14.692632
45.906849 29.831302 -13.679370
45.906849 29.831302 -12.666047
45.906849 29.831302 -11.652785
45.906849 29.831302 -10.639462
45.906849 29.831302 -9.626200
45.906849 29.831302 -8.612939
45.906849 29.831302 -7.599616
45.906849 29.831302 -6.586354
45.906849 29.831302 -5.573093
45.906849 29.831302 -4.559769
45.906849 29.831302 -3.546508
45.906849 29.831302 -2.533184
45.906849 29.831302 -1.519923
45.906849 29.831302 -0.506662
45.906849 29.831302 0.506662
45.906849 29.831302 1.519923
45.906849 29.831302 2.533184
45.906849 29.831302 3.546508
45.906849 29.831302 4.559769
45.906849 29.831302 5.573093
45.906849 29.831302 6.586354
45.906849 29.831302 7.599616
45.906849 29.831302 8.612939
45.906849 29.831302 9.626200
45.906849 29.831302 10.639462
45.906849 29.831302 11.652785
45.906849 29.831302 12.666047
45.906849 29.831302 13.679370
45.906849 29.831302 14.692632
45.906849 29.831302 15.705893
45.906849 29.831302 16.719216
45.906849 29.831302 17.732478
45.906849 29.831302 18.745801
45.906849 29.831302 19.759063
46.726592 29.324703 -17.732478
46.726592 29.324703 -16.719216
46.726592 29.324703 -15.705893
46.726592 29.324703 -14.692632
46.726592 29.324703 -13.679370
46.726592 29.324703 -12.666047
46.726592 29.324703 -11.652785
46.726592 29.324703 -10.639462
46.726592 29.324703 -9.626200
46.726592 29.324703 -8.612939
46.726592 29.324703 -7.599616
46.726592 29.324703 -6.586354
46.726592 29.324703 -5.573093
46.726592 29.324703 -4.559769
46.726592 29.324703 -3.546508
46.726592 29.324703 -2.533184
46.726592 29.324703 -1.519923
46.726592 29.324703 -0.506662
46.726592 29.324703 0.506662
46.726592 29.324703 1.519923
46.726592 29.324703 2.533184
46.726592 29.324703 3.546508
46.726592 29.324703 4.559769
46.726592 29.324703 5.573093
46.726592 29.324703 6.586354
46.726592 29.324703 7.599616
46.726592 29.324703 8.612939
46.726592 29.324703 9.626200
46.726592 29.324703 10.639462
46.726592 29.324703 11.652785
46.726592 29.324703 12.666047
46.726592 29.324703 13.679370
46.726592 29.324703 14.692632
46.726592 29.324703 15.705893
46.726592 29.324703 16.719216
46.726592 29.324703 17.732478
47.546335 28.818041 -16.719216
47.546335 28.818041 -15.705893
47.546335 28.818041 -14.692632
47.546335 28.818041 -13.679370
47.546335 28.818041 -12.666047
47.546335 28.818041 -11.652785
47.546335 28.818041 -10.639462
47.546335 28.818041 -9.626200
47.546335 28.818041 -8.612939
47.546335 28.818041 -7.599616
47.546335 28.818041 -6.586354
47.546335 28.818041 -5.573093
47.546335 28.818041 -4.559769
47.546335 28.818041 -3.546508
47.546335 28.818041 -2.533184
47.546335 28.818041 -1.519923
47.546335 28.818041 -0.506662
47.546335 28.818041 0.506662
47.546335 28.818041 1.519923
47.546335 28.818041 2.533184
47.546335 28.818041 3.546508
47.546335 28.818041 4.559769
47.546335 28.818041 5.573093
47.546335 28.818041 6.586354
47.546335 28.818041 7.599616
47.546335 28.818041 8.612939
47.546335 28.818041 9.626200
47.546335 28.818041 10.639462
47.546335 28.818041 11.652785
47.546335 28.818041 12.666047
47.546335 28.818041 13.679370
47.546335 28.818041 14.692632
47.546335 28.818041 15.705893
47.546335 28.818041 16.719216
48.366140 28.311379 -15.705893
48.366140 28.311379 -14.692632
48.366140 28.311379 -13.679370
48.366140 28.311379 -12.666047
48.366140 28.311379 -11.652785
48.366140 28.311379 -10.639462
48.366140 28.311379 -9.626200
48.366140 28.311379 -8.612939
48.366140 28.311379 -7.599616
48.366140 28.311379 -6.586354
48.366140 28.311379 -5.573093
48.366140 28.311379 -4.559769
48.366140 28.311379 -3.546508
48.366140 28.311379 -2.533184
48.366140 28.311379 -1.519923
48.366140 28.311379 -0.506662
48.366140 28.311379 0.506662
48.366140 28.311379 1.519923
48.366140 28.311379 2.533184
48.366140 28.311379 3.546508
48.366140 28.311379 4.559769
48.366140 28.311379 5.573093
48.366140 28.311379 6.586354
48.366140 28.311379 7.599616
48.366140 28.311379 8.612939
48.366140 28.311379 9.626200
48.366140 28.311379 10.639462
48.366140 28.311379 11.652785
48.366140 28.311379 12.666047
48.366140 28.311379 13.679370
48.366140 28.311379 14.692632
48.366140 28.311379 15.705893
49.185883 27.804780 -13.679370
49.185883 27.804780 -12.666047
49.185883 27.804780 -11.652785
49.185883 27.804780 -10.639462
49.185883 27.804780 -9.626200
49.185883 27.804780 -8.612939
49.185883 27.804780 -7.599616
49.185883 27.804780 -6.586354
49.185883 27.804780 -5.573093
49.185883 27.804780 -4.559769
49.185883 27.804780 -3.546508
49.185883 27.804780 -2.533184
49.185883 27.804780 -1.519923
49.185883 27.804780 -0.506662
49.185883 27.804780 0.506662
49.185883 27.804780 1.519923
49.185883 27.804780 2.533184
49.185883 27.804780 3.546508
49.185883 27.804780 4.559769
49.185883 27.804780 5.573093
49.185883 27.804780 6.586354
49.185883 27.804780 7.599616
49.185883 27.804780 8.612939
49.185883 27.804780 9.626200
49.185883 27.804780 10.639462
49.185883 27.804780 11.652785
49.185883 27.804780 12.666047
49.185883 27.804780 13.679370
50.005626 27.298118 -12.666047
50.005626 27.298118 -11.652785
50.005626 27.298118 -10.639462
50.005626 27.298118 -9.626200
50.005626 27.298118 -8.612939
50.005626 27.298118 -7.599616
50.005626 27.298118 -6.586354
50.005626 27.298118 -5.573093
50.005626 27.298118 -4.559769
50.005626 27.298118 -3.546508
50.005626 27.298118 -2.533184
50.005626 27.298118 -1.519923
50.005626 27.298118 -0.506662
50.005626 27.298118 0.506662
50.005626 27.298118 1.519923
50.005626 27.298118 2.533184
50.005626 27.298118 3.546508
50.005626 27.298118 4.559769
50.005626 27.298118 5.573093
50.005626 27.298118 6.586354
50.005626 27.298118 7.599616
50.005626 27.298118 8.612939
50.005626 27.298118 9.626200
50.005626 27.298118 10.639462
50.005626 27.298118 11.652785
50.005626 27.298118 12.666047
50.825431 26.791456 -11.652785
50.825431 26.791456 -10.639462
50.825431 26.791456 -9.626200
50.825431 26.791456 -8.612939
50.825431 26.791456 -7.599616
50.825431 26.791456 -6.586354
50.825431 26.791456 -5.573093
50.825431 26.791456 -4.559769
50.825431 26.791456 -3.546508
50.825431 26.791456 -2.533184
50.825431 26.791456 -1.519923
50.825431 26.791456 -0.506662
50.825431 26.791456 0.506662
50.825431 26.791456 1.519923
50.825431 26.791456 2.533184
50.825431 26.791456 3.546508
50.825431 26.791456 4.559769
50.825431 26.791456 5.573093
50.825431 26.791456 6.586354
50.825431 26.791456 7.599616
50.825431 26.791456 8.612939
50.825431 26.791456 9.626200
50.825431 26.791456 10.639462
50.825431 26.791456 11.652785
51.645174 26.284794 -9.626200
51.645174 26.284794 -8.612939
51.645174 26.284857 -7.599616
51.645174 26.284857 -6.586354
51.645174 26.284857 -5.573093
51.645174 26.284857 -4.559769
51.645174 26.284857 -3.546508
51.645174 26.284857 -2.533184
51.645174 26.284857 -1.519923
51.645174 26.284857 -0.506662
51.645174 26.284857 0.506662
51.645174 26.284857 1.519923
51.645174 26.284857 2.533184
51.645174 26.284857 3.546508
51.645174 26.284857 4.559769
51.645174 26.284857 5.573093
51.645174 26.284857 6.586354
51.645174 26.284857 7.599616
51.645174 26.284794 8.612939
51.645174 26.284794 9.626200
52.464979 25.778195 -8.612939
52.464979 25.778195 -7.599616
52.464979 25.778195 -6.586354
52.464979 25.778195 -5.573093
52.464979 25.778195 -4.559769
52.464979 25.778195 -3.546508
52.464979 25.778195 -2.533184
52.464979 25.778195 -1.519923
52.464979 25.778195 -0.506662
52.464979 25.778195 0.506662
52.464979 25.778195 1.519923
52.464979 25.778195 2.533184
52.464979 25.778195 3.546508
52.464979 25.778195 4.559769
52.464979 25.778195 5.573093
52.464979 25.778195 6.586354
52.464979 25.778195 7.599616
52.464979 25.778195 8.612939
53.284722 25.271533 -7.599616
53.284722 25.271533 -6.586354
53.284722 25.271533 -5.573093
53.284722 25.271533 -4.559769
53.284722 25.271533 -3.546508
53.284722 25.271533 -2.533184
53.284722 25.271533 -1.519923
53.284722 25.271533 -0.506662
53.284722 25.271533 0.506662
53.284722 25.271533 1.519923
53.284722 25.271533 2.533184
53.284722 25.271533 3.546508
53.284722 25.271533 4.559769
53.284722 25.271533 5.573093
53.284722 25.271533 6.586354
53.284722 25.271533 7.599616
54.104465 24.764871 -6.586354
54.104465 24.764871 -5.573093
54.104465 24.764871 -4.559769
54.104465 24.764871 -3.546508
54.104465 24.764871 -2.533184
54.104465 24.764871 -1.519923
54.104465 24.764871 -0.506662
54.104465 24.764871 0.506662
54.104465 24.764871 1.519923
54.104465 24.764871 2.533184
54.104465 24.764871 3.546508
54.104465 24.764871 4.559769
54.104465 24.764871 5.573093
54.104465 24.764871 6.586354
54.924270 24.258272 -4.559769
54.924270 24.258272 -3.546508
54.924270 24.258272 -2.533184
54.924270 24.258272 -1.519923
54.924270 24.258272 -0.506662
54.924270 24.258272 0.506662
54.924270 24.258272 1.519923
54.924270 24.258272 2.533184
54.924270 24.258272 3.546508
54.924270 24.258272 4.559769
55.744013 23.751610 -3.546508
55.744013 23.751610 -2.533184
55.744013 23.751610 -1.519923
55.744013 23.751610 -0.506662
55.744013 23.751610 0.506662
55.744013 23.751610 1.519923
55.744013 23.751610 2.533184
55.744013 23.751610 3.546508
56.563756 23.244948 -2.533184
56.563756 23.244948 -1.519923
56.563756 23.244948 -0.506662
56.563756 23.244948 0.506662
56.563756 23.244948 1.519923
56.563756 23.244948 2.533184
57.383561 22.738349 -0.506662
57.383561 22.738349 0.506662
58.203304 22.231687 0.000000
57.568108 22.624269 1.027778
56.932911 23.016851 2.055494
56.297715 23.409370 3.083273
55.662519 23.801952 4.111051
55.027322 24.194534 5.138829
54.392188 24.587116 6.166545
53.756992 24.979698 7.194323
53.121795 25.372218 8.222102
52.486599 25.764799 9.249818
51.851403 26.157381 10.277596
51.216206 26.549963 11.305374
50.581010 26.942545 12.333153
49.945813 27.335065 13.360869
49.310617 27.727647 14.388647
48.675421 28.120229 15.416425
48.040224 28.512810 16.444141
47.405028 28.905392 17.471920
46.769894 29.297912 18.499698
46.134697 29.690494 19.527476
45.499501 30.083076 20.555192
44.864305 30.475658 21.582970
44.229108 30.868240 22.610749
43.593912 31.260759 23.638465
42.958715 31.653341 24.666243
42.323519 32.045923 25.694021
41.688323 32.438505 26.721800
41.053126 32.831087 27.749516
40.417930 33.223606 28.777294
39.782733 33.616188 29.805072
39.147599 34.008770 30.832788
38.512403 34.401352 31.860566
37.877207 34.793934 32.888345
37.242010 35.186454 33.916123
36.606814 35.579035 34.943839
35.971617 35.971617 35.971617
35.971617 35.971617 35.971617
34.943839 36.606814 35.579035
33.916123 37.242010 35.186454
32.888345 37.877207 34.793934
31.860566 38.512403 34.401352
30.832788 39.147599 34.008770
29.805072 39.782733 33.616188
28.777294 40.417930 33.223606
27.749516 41.053126 32.831087
26.721800 41.688323 32.438505
25.694021 42.323519 32.045923
24.666243 42.958715 31.653341
23.638465 43.593912 31.260759
22.610749 44.229108 30.868240
21.582970 44.864305 30.475658
20.555192 45.499501 30.083076
19.527476 46.134697 29.690494
18.499698 46.769894 29.297912
17.471920 47.405028 28.905392
16.444141 48.040224 28.512810
15.416425 48.675421 28.120229
14.388647 49.310617 27.727647
13.360869 49.945813 27.335065
12.333153 50.581010 26.942545
11.305374 51.216206 26.549963
10.277596 51.851403 26.157381
9.249818 52.486599 25.764799
8.222102 53.121795 25.372218
7.194323 53.756992 24.979698
6.166545 54.392188 24.587116
5.138829 55.027322 24.194534
4.111051 55.662519 23.801952
3.083273 56.297715 23.409370
2.055494 56.932911 23.016851
1.027778 57.568108 22.624269
0.000000 58.203304 22.231687
0.000000 58.203304 22.231687
0.000000 58.203304 20.961294
0.000000 58.203304 19.690901
0.000000 58.203304 18.420571
0.000000 58.203304 17.150178
0.000000 58.203304 15.879785
0.000000 58.203304 14.609392
0.000000 58.203304 13.339000
0.000000 58.203304 12.068607
0.000000 58.203304 10.798276
0.000000 58.203304 9.527884
0.000000 58.203304 8.257491
0.000000 58.203304 6.987098
0.000000 58.203304 5.716705
0.000000 58.203304 4.446312
0.000000 58.203304 3.175982
0.000000 58.203304 1.905589
0.000000 58.203304 0.635196
0.000000 58.203304 -0.635196
0.000000 58.203304 -1.905589
0.000000 58.203304 -3.175982
0.000000 58.203304 -4.446312
0.000000 58.203304 -5.716705
0.000000 58.203304 -6.987098
0.000000 58.203304 -8.257491
0.000000 58.203304 -9.527884
0.000000 58.203304 -10.798276
0.000000 58.203304 -12.068607
0.000000 58.203304 -13.339000
0.000000 58.203304 -14.609392
0.000000 58.203304 -15.879785
0.000000 58.203304 -17.150178
0.000000 58.203304 -18.420571
0.000000 58.203304 -19.690901
0.000000 58.203304 -20.961294
0.000000 58.203304 -22.231687
0.000000 58.203304 -22.231687
1.027778 57.568108 -22.624269
2.055494 56.932911 -23.016851
3.083273 56.297715 -23.409370
4.111051 55.662519 -23.801952
5.138829 55.027322 -24.194534
6.166545 54.392188 -24.587116
7.194323 53.756992 -24.979698
8.222102 53.121795 -25.372218
9.249818 52.486599 -25.764799
10.277596 51.851403 -26.157381
11.305374 51.216206 -26.549963
12.333153 50.581010 -26.942545
13.360869 49.945813 -27.335065
14.388647 49.310617 -27.727647
15.416425 48.675421 -28.120229
16.444141 48.040224 -28.512810
17.471920 47.405028 -28.905392
18.499698 46.769894 -29.297912
19.527476 46.134697 -29.690494
20.555192 45.499501 -30.083076
21.582970 44.864305 -30.475658
22.610749 44.229108 -30.868240
23.638465 43.593912 -31.260759
24.666243 42.958715 -31.653341
25.694021 42.323519 -32.045923
26.721800 41.688323 -32.438505
27.749516 41.053126 -32.831087
28.777294 40.417930 -33.223606
29.805072 39.782733 -33.616188
30.832788 39.147599 -34.008770
31.860566 38.512403 -34.401352
32.888345 37.877207 -34.793934
33.916123 37.242010 -35.186454
34.943839 36.606814 -35.579035
35.971617 35.971617 -35.971617
35.971617 35.971617 -35.971617
36.606814 35.579035 -34.943839
37.242010 35.186454 -33.916123
37.877207 34.793934 -32.888345
38.512403 34.401352 -31.860566
39.147599 34.008770 -30.832788
39.782733 33.616188 -29.805072
40.417930 33.223606 -28.777294
41.053126 32.831087 -27.749516
41.688323 32.438505 -26.721800
42.323519 32.045923 -25.694021
42.958715 31.653341 -24.666243
43.593912 31.260759 -23.638465
44.229108 30.868240 -22.610749
44.864305 30.475658 -21.582970
45.499501 30.083076 -20.555192
46.134697 29.690494 -19.527476
46.769894 29.297912 -18.499698
47.405028 28.905392 -17.471920
48.040224 28.512810 -16.444141
48.675421 28.120229 -15.416425
49.310617 27.727647 -14.388647
49.945813 27.335065 -13.360869
50.581010 26.942545 -12.333153
51.216206 26.549963 -11.305374
51.851403 26.157381 -10.277596
52.486599 25.764799 -9.249818
53.121795 25.372218 -8.222102
53.756992 24.979698 -7.194323
54.392188 24.587116 -6.166545
55.027322 24.194534 -5.138829
55.662519 23.801952 -4.111051
56.297715 23.409370 -3.083273
56.932911 23.016851 -2.055494
57.568108 22.624269 -1.027778
58.203304 22.231687 0.000000
0.000000 -58.203304 -21.785648
0.000000 -58.203304 -20.772324
0.000000 -58.203304 -19.759063
0.000000 -58.203304 -18.745801
0.000000 -58.203304 -17.732478
0.000000 -58.203304 -16.719216
0.000000 -58.203304 -15.705893
0.000000 -58.203304 -14.692632
0.000000 -58.203304 -13.679370
0.000000 -58.203304 -12.666047
0.000000 -58.203304 -11.652785
0.000000 -58.203304 -10.639462
0.000000 -58.203304 -9.626200
0.000000 -58.203304 -8.612939
0.000000 -58.203304 -7.599616
0.000000 -58.203304 -6.586354
0.000000 -58.203304 -5.573093
0.000000 -58.203304 -4.559769
0.000000 -58.203304 -3.546508
0.000000 -58.203304 -2.533184
0.000000 -58.203304 -1.519923
0.000000 -58.203304 -0.506662
0.000000 -58.203304 0.506662
0.000000 -58.203304 1.519923
0.000000 -58.203304 2.533184
0.000000 -58.203304 3.546508
0.000000 -58.203304 4.559769
0.000000 -58.203304 5.573093
0.000000 -58.203304 6.586354
0.000000 -58.203304 7.599616
0.000000 -58.203304 8.612939
0.000000 -58.203304 9.626200
0.000000 -58.203304 10.639462
0.000000 -58.203304 11.652785
0.000000 -58.203304 12.666047
0.000000 -58.203304 13.679370
0.000000 -58.203304 14.692632
0.000000 -58.203304 15.705893
0.000000 -58.203304 16.719216
0.000000 -58.203304 17.732478
0.000000 -58.203304 18.745801
0.000000 -58.203304 19.759063
0.000000 -58.203304 20.772324
0.000000 -58.203304 21.785648
0.819743 -57.696642 -21.785648
0.819743 -57.696642 -20.772324
0.819743 -57.696642 -19.759063
0.819743 -57.696642 -18.745801
0.819743 -57.696642 -17.732478
0.819743 -57.696642 -16.719216
0.819743 -57.696642 -15.705893
0.819743 -57.696642 -14.692632
0.819743 -57.696642 -13.679370
0.819743 -57.696642 -12.666047
0.819743 -57.696642 -11.652785
0.819743 -57.696642 -10.639462
0.819743 -57.696642 -9.626200
0.819743 -57.696642 -8.612939
0.819743 -57.696642 -7.599616
0.819743 -57.696642 -6.586354
0.819743 -57.696642 -5.573093
0.819743 -57.696642 -4.559769
0.819743 -57.696642 -3.546508
0.819743 -57.696642 -2.533184
0.819743 -57.696642 -1.519923
0.819743 -57.696642 -0.506662
0.819743 -57.696642 0.506662
0.819743 -57.696642 1.519923
0.819743 -57.696642 2.533184
0.819743 -57.696642 3.546508
0.819743 -57.696642 4.559769
0.819743 -57.696642 5.573093
0.819743 -57.696642 6.586354
0.819743 -57.696642 7.599616
0.819743 -57.696642 8.612939
0.819743 -57.696642 9.626200
0.819743 -57.696642 10.639462
0.819743 -57.696642 11.652785
0.819743 -57.696642 12.666047
0.819743 -57.696642 13.679370
0.819743 -57.696642 14.692632
0.819743 -57.696642 15.705893
0.819743 -57.696642 16.719216
0.819743 -57.696642 17.732478
0.819743 -57.696642 18.745801
0.819743 -57.696642 19.759063
0.819743 -57.696642 20.772324
0.819743 -57.696642 21.785648
1.639548 -57.190043 -22.798909
1.639548 -57.190043 -21.785648
1.639548 -57.190043 -20.772324
1.639548 -57.190043 -19.759063
1.639548 -57.190043 -18.745801
1.639548 -57.190043 -17.732478
1.639548 -57.190043 -16.719216
1.639548 -57.190043 -15.705893
1.639548 -57.190043 -14.692632
1.639548 -57.190043 -13.679370
1.639548 -57.190043 -12.666047
1.639548 -57.190043 -11.652785
1.639548 -57.190043 -10.639462
1.639548 -57.190043 -9.626200
1.639548 -57.190043 -8.612939
1.639548 -57.190043 -7.599616
1.639548 -57.190043 -6.586354
1.639548 -57.190043 -5.573093
1.639548 -57.190043 -4.559769
1.639548 -57.190043 -3.546508
1.639548 -57.190043 -2.533184
1.639548 -57.190043 -1.519923
1.639548 -57.190043 -0.506662
1.639548 -57.190043 0.506662
1.639548 -57.190043 1.519923
1.639548 -57.190043 2.533184
1.639548 -57.190043 3.546508
1.639548 -57.190043 4.559769
1.639548 -57.190043 5.573093
1.639548 -57.190043 6.586354
1.639548 -57.190043 7.599616
1.639548 -57.190043 8.612939
1.639548 -57.190043 9.626200
1.639548 -57.190043 10.639462
1.639548 -57.190043 11.652785
1.639548 -57.190043 12.666047
1.639548 -57.190043 13.679370
1.639548 -57.190043 14.692632
1.639548 -57.190043 15.705893
1.639548 -57.190043 16.719216
1.639548 -57.190043 17.732478
1.639548 -57.190043 18.745801
1.639548 -57.190043 19.759063
1.639548 -57.190043 20.772324
1.639548 -57.190043 21.785648
1.639548 -57.190043 22.798909
2.459291 -56.683381 -22.798909
2.459291 -56.683381 -21.785648
2.459291 -56.683381 -20.772324
2.459291 -56.683381 -19.759063
2.459291 -56.683381 -18.745801
2.459291 -56.683381 -17.732478
2.459291 -56.683381 -16.719216
2.459291 -56.683381 -15.705893
2.459291 -56.683381 -14.692632
2.459291 -56.683381 -13.679370
2.459291 -56.683381 -12.666047
2.459291 -56.683381 -11.652785
2.459291 -56.683381 -10.639462
2.459291 -56.683381 -9.626200
2.459291 -56.683381 -8.612939
2.459291 -56.683381 -7.599616
2.459291 -56.683381 -6.586354
2.459291 -56.683381 -5.573093
2.459291 -56.683381 -4.559769
2.459291 -56.683381 -3.546508
2.459291 -56.683381 -2.533184
2.459291 -56.683381 -1.519923
2.459291 -56.683381 -0.506662
2.459291 -56.683381 0.506662
2.459291 -56.683381 1.519923
2.459291 -56.683381 2.533184
2.459291 -56.683381 3.546508
2.459291 -56.683381 4.559769
2.459291 -56.683381 5.573093
2.459291 -56.683381 6.586354
2.459291 -56.683381 7.599616
2.459291 -56.683381 8.612939
2.459291 -56.683381 9.626200
