ply
format ascii 1.0
element vertex 1540
property float x
property float y
property float z
end_header
12.674074 5.061210 -15.509708
0.068483 -26.140135 -15.011613
-0.288754 -24.734777 -15.311446
-0.057694 -23.470485 -15.770172
-0.284350 -22.532805 -14.955803
1.884302 -16.258016 -15.163504
0.010118 -19.446776 -15.096469
0.027302 -18.064953 -14.907127
16.729056 -3.062403 -14.922809
15.438768 -3.499339 -15.478463
14.202813 -5.022203 -15.077220
0.661633 -17.546129 -15.379054
8.921523 -10.544425 -15.020936
12.868379 -5.776738 -15.066203
9.876944 -9.004395 -14.796195
11.813135 -7.015708 -14.963868
10.912820 -8.133509 -15.283427
0.726820 -16.491739 -15.557849
0.023499 -16.207954 -15.356224
1.802620 -14.345796 -15.012510
3.149501 -14.103424 -15.404497
4.567841 -11.740399 -15.298268
4.918544 -10.017918 -15.223962
7.847384 -9.825516 -15.102457
5.925153 -8.405876 -15.183972
15.749700 0.392251 -15.142412
15.891981 -1.771151 -15.005793
15.612374 -0.967938 -14.975466
15.100396 1.637389 -15.032974
14.199441 0.524649 -15.237447
13.436642 2.051596 -15.134264
12.425786 2.979909 -15.258119
10.881796 3.184055 -15.555462
10.232668 3.971470 -14.568449
10.940284 4.431988 -15.109535
11.384139 6.023816 -15.026477
0.635283 -14.831646 -15.158038
-1.149818 -19.187019 -15.061081
-1.182940 -18.332881 -15.372230
-0.960887 -17.037892 -15.344892
14.781487 -2.142550 -15.323562
13.220837 -3.154084 -15.100440
11.731870 -4.043774 -15.171470
-0.763352 -16.206532 -15.400251
8.511867 -8.077183 -14.940923
10.838480 -5.362218 -15.167535
9.380627 -6.814389 -14.867124
-0.028929 -14.626328 -14.928002
-0.692616 -14.904741 -15.122059
-0.076506 -14.163637 -15.406303
1.262450 -13.726625 -15.164798
2.151426 -12.297229 -14.959246
3.024971 -10.812915 -15.344553
3.975435 -9.135743 -15.245736
4.353354 -7.672382 -15.491519
6.525951 -7.562755 -15.420170
5.665456 -6.071952 -14.984853
14.155871 -0.887431 -15.313801
13.076298 1.339313 -15.221185
12.513914 0.233752 -15.103368
10.726890 6.501959 -15.144105
12.079927 1.471560 -15.176305
10.970600 2.283890 -15.220080
9.686125 2.854784 -14.812813
9.011004 3.772701 -15.292484
9.489454 4.699786 -15.361657
9.992576 5.649675 -15.042570
9.937623 7.011720 -15.460464
8.739085 7.699602 -15.204489
8.181689 8.186006 -15.192552
0.084057 -14.483557 -15.188851
-2.120935 -19.349636 -15.302469
-2.205167 -18.333342 -15.067583
-1.901817 -17.476216 -15.187554
-1.894074 -15.922687 -15.211771
12.574128 -2.219209 -14.898778
11.178766 -2.660754 -15.215143
9.653386 -3.672976 -15.204425
-1.311093 -14.792870 -15.396425
8.154648 -4.789562 -15.174877
-1.415276 -14.316635 -15.098059
-0.735396 -14.174350 -15.206836
-0.713204 -13.583930 -15.315055
0.062831 -12.614771 -14.938589
0.980661 -11.291248 -15.540752
2.152526 -9.390651 -15.525215
2.821487 -7.915747 -15.187272
3.855123 -6.485148 -15.187250
4.419986 -5.361685 -15.065002
6.184149 -4.856313 -15.099588
5.226967 -4.700802 -15.563671
11.580689 -0.651083 -15.303219
11.307121 0.697767 -15.280136
11.114145 0.039965 -15.176442
9.227815 6.283749 -14.979050
10.193175 1.291814 -15.188504
9.191409 1.688996 -15.282304
7.996106 2.542874 -14.928844
6.559017 3.091670 -15.394192
8.028521 4.464893 -14.948380
8.532345 5.086801 -15.471174
8.466769 6.971437 -14.921125
7.656355 7.355461 -15.512785
7.412571 8.917484 -15.385468
6.717300 8.332274 -15.608562
-3.267858 -19.084748 -15.100265
-3.214730 -18.154247 -15.154479
-3.367899 -16.752741 -15.310017
-2.754750 -15.907878 -15.246201
-3.429925 -14.795627 -14.783633
10.140102 -1.516736 -15.528413
8.622127 -2.669569 -15.252948
7.376907 -3.490841 -15.190854
-2.424440 -14.051930 -15.034465
5.718196 -3.673110 -15.187929
-2.596482 -13.011202 -15.086977
-1.622952 -13.170853 -15.141988
-0.743706 -11.896278 -15.108452
-0.458389 -10.330394 -14.826964
0.448749 -8.204137 -14.663106
1.903159 -6.770065 -15.100170
2.645194 -6.090613 -15.291663
3.707487 -4.529373 -15.645798
4.472696 -3.767877 -15.561097
5.285640 -3.378354 -15.303258
4.825915 -3.852065 -15.254836
9.663421 -0.073237 -15.074770
7.352554 6.078753 -14.851381
8.271092 0.846058 -15.011083
6.770265 1.434301 -14.998003
5.628176 2.542268 -15.037635
4.917724 3.346351 -14.924249
5.901317 4.189374 -15.408388
6.569760 5.010820 -15.058602
6.374550 6.916454 -15.198523
5.666191 7.653457 -14.917860
5.502393 8.978457 -15.516815
5.995692 10.031291 -15.186269
5.095064 8.484043 -14.941950
-4.397747 -18.784969 -15.024233
-4.297845 -17.668910 -14.987874
-4.075973 -16.609155 -15.243156
-3.845569 -15.617171 -15.235086
-3.490353 -14.818068 -15.108210
-3.964470 -13.732874 -15.389985
8.241976 -1.663891 -15.281976
6.753681 -2.376279 -15.579255
6.031853 -2.749445 -15.106559
-3.293484 -11.980471 -15.329051
5.158322 -2.667829 -15.387598
-3.642362 -11.372840 -15.330200
-1.994693 -11.692828 -14.945670
-1.893062 -10.040082 -14.794765
-0.956154 -7.681295 -15.218188
-1.102856 -6.641266 -14.854130
0.172982 -6.483521 -15.002820
1.135009 -5.748014 -15.314165
1.726180 -4.854611 -15.047408
2.985730 -4.009015 -15.162978
4.087430 -3.582146 -14.931454
4.221316 -3.169361 -14.992366
7.211402 -0.272755 -15.326395
5.479462 10.858666 -15.069451
5.642711 5.725872 -15.051200
5.873708 0.644817 -15.023938
5.164940 1.446466 -14.971375
3.847652 2.672849 -15.080029
2.939866 3.200449 -15.118854
4.023135 4.229585 -15.155734
5.087997 4.856030 -15.265171
4.816922 6.835990 -15.345220
3.990749 7.345249 -15.099852
3.788174 9.230771 -14.957480
4.808955 10.079673 -14.972064
3.351246 8.088011 -15.042412
5.266523 11.581740 -14.511474
-5.475892 -18.483196 -15.094639
-5.451580 -17.537762 -15.298821
-5.468414 -16.670430 -15.119124
-5.626395 -15.571096 -15.058518
-4.986914 -14.241762 -15.260296
-4.996073 -13.097105 -15.304809
-4.608082 -11.987571 -14.919626
6.131182 -1.484258 -15.047978
5.446730 -1.725606 -15.225604
4.384133 -2.043071 -15.133251
-4.436704 -10.825910 -15.042882
4.083493 -2.454824 -15.091910
-4.140587 -9.071733 -15.195054
-3.180591 -9.162256 -15.200940
-2.269555 -7.226481 -15.141881
-0.851539 -6.178360 -15.599035
-0.312255 -5.683889 -15.246627
0.241402 -5.008118 -15.473648
1.575347 -3.974893 -15.259489
2.132863 -3.440795 -15.503788
3.757607 -3.065357 -15.111120
5.446747 0.393834 -15.047245
4.197347 11.408247 -15.368693
4.084212 5.418986 -14.992025
4.111354 0.844939 -15.469029
3.278868 1.692405 -15.162218
2.149950 2.924789 -15.351798
1.081652 3.704581 -14.737831
2.052848 5.021956 -15.548787
3.265635 5.171774 -15.009646
3.214830 7.212399 -15.019302
2.144198 7.998664 -15.044341
2.906410 9.539097 -14.871517
3.180733 10.181295 -15.149733
1.919268 8.773558 -15.285863
2.951516 11.821021 -14.908896
3.908117 12.624238 -15.342916
4.821866 13.300456 -15.397290
-6.725903 -18.542218 -15.046184
-6.894110 -17.502470 -14.907817
-6.570854 -16.208225 -15.000175
-6.177918 -14.848415 -15.122182
-6.077463 -14.031244 -15.189593
-6.094264 -12.460748 -15.491638
-5.412562 -11.679284 -15.386092
-5.553205 -10.333243 -15.511800
4.545663 -0.834686 -15.082869
4.218275 -1.578958 -15.082377
3.620393 -1.874794 -15.267478
-5.148026 -9.425529 -15.478974
2.747837 -2.357681 -15.317151
-5.313178 -8.620239 -14.842931
-4.650381 -8.274019 -15.143508
-4.084889 -7.630631 -14.820975
-3.001897 -6.859513 -15.412301
-1.765360 -5.743700 -15.011254
-1.129906 -4.513947 -15.032536
-0.043428 -3.976351 -15.161156
0.651861 -3.322643 -15.390266
1.909992 -2.644810 -15.339549
3.232722 -0.075955 -15.144050
2.843122 11.115909 -15.355102
2.315609 5.966998 -15.475074
2.214535 1.097562 -15.507852
1.208971 1.997238 -15.303570
0.224950 3.240796 -14.821936
-0.149698 4.517255 -15.363301
0.763837 5.197548 -15.268084
1.587232 5.636313 -15.148809
1.337669 7.303892 -15.145302
1.034218 7.961288 -15.268371
0.892590 9.649998 -15.308974
2.232193 10.530327 -15.463602
0.704850 8.814480 -15.078572
1.650292 11.885765 -15.130028
3.018042 12.793227 -15.205667
3.682845 13.282380 -14.797376
4.142687 14.090470 -14.819399
-8.168043 -18.421525 -15.380668
-7.804201 -17.402587 -15.140657
-7.471410 -16.049749 -15.028482
-7.749418 -15.238380 -15.096525
-7.612440 -13.889444 -15.005379
-7.046175 -12.760216 -15.204531
-7.041415 -11.501478 -15.012804
-6.563700 -10.150128 -15.419252
-6.471222 -9.241517 -15.332426
2.932849 -0.792040 -15.123212
-6.076129 -8.233739 -15.054298
1.240170 -1.604028 -15.128364
-5.673849 -7.141379 -15.301136
-4.917529 -6.839324 -15.028204
-3.520128 -5.377113 -15.362038
-3.195607 -4.701636 -15.125306
-1.776513 -3.964083 -15.294211
-0.940404 -2.668046 -15.210481
0.332777 -2.281808 -15.443617
1.398557 0.446390 -15.008298
1.123217 11.182970 -14.996957
1.244934 6.554581 -15.146486
0.229133 1.481382 -15.290960
-0.716411 3.941716 -15.074984
-0.524244 3.068430 -15.264362
-1.319357 3.238144 -15.177033
-1.762592 3.895657 -15.152175
-1.119237 4.555253 -14.774412
-0.210621 5.059040 -15.118268
0.095651 5.575498 -15.197836
0.264026 7.601968 -15.416935
-0.095095 8.061916 -15.123393
-0.143707 9.255176 -15.644672
0.053952 9.719065 -15.040241
-0.944416 8.980452 -15.188391
0.308233 11.722127 -15.089076
1.367590 12.706970 -15.212001
2.300738 13.420930 -15.326181
2.710458 13.963957 -14.956053
4.033892 14.664029 -15.448851
-9.039994 -18.255435 -15.637362
-8.931651 -16.977373 -15.254669
-8.646684 -16.034091 -15.240649
-8.208851 -14.796748 -15.224772
-8.334962 -13.174392 -15.306852
-8.389664 -12.350175 -15.302284
-8.233643 -11.486614 -14.913764
-7.573403 -9.989728 -15.557678
-7.674337 -8.729888 -15.020331
-7.199604 -7.758175 -15.035871
0.224772 -0.587473 -15.323572
-6.309589 -6.940617 -15.462824
-0.743281 -1.334543 -15.138630
-5.546657 -5.609947 -15.537073
-4.737168 -4.354893 -15.292744
-3.760538 -3.296057 -15.314668
-2.756739 -2.839146 -15.378094
-1.612346 -2.068012 -15.037355
-0.576089 0.589867 -15.077956
0.219745 11.151831 -15.123967
-0.089652 6.442744 -15.379131
-1.515678 2.850800 -15.237073
-2.163637 2.825634 -15.035888
-2.621906 3.771910 -15.129416
-2.339542 4.402872 -15.365114
-1.489620 5.022058 -15.258354
-0.725896 5.613932 -15.205992
-0.838983 7.254142 -15.094512
-1.223371 7.912340 -15.237594
-1.451456 9.165415 -15.204875
-0.761898 10.233238 -15.204670
-1.948535 8.991619 -15.366954
-0.624224 11.741700 -14.844153
-0.121601 12.439108 -15.470895
0.559440 13.473431 -15.140938
1.013899 13.685260 -15.110826
2.330655 14.718374 -15.624756
2.861679 15.690662 -15.101718
-10.293494 -18.164329 -15.368848
-10.073243 -16.969227 -15.274416
-10.251689 -15.624223 -15.211366
-9.582086 -14.976254 -15.464075
-9.710071 -13.600500 -15.054716
-9.555045 -12.479926 -15.296744
-9.694367 -11.375513 -15.136550
-9.178929 -9.726854 -15.098294
-8.947787 -8.714038 -15.243091
-8.751054 -7.273210 -15.173453
-7.987493 -6.067791 -15.108403
-1.607310 -0.083695 -15.140941
-7.552607 -4.229752 -15.235006
-2.409429 -0.702031 -15.230603
-5.254420 -3.279164 -15.303461
-4.360191 -2.605019 -15.052320
-3.375261 -1.494084 -15.284606
-2.324237 1.282758 -15.265276
-1.208915 10.924617 -14.960848
-1.089719 6.664597 -15.091546
-3.197914 1.920152 -15.205949
-3.383243 2.741376 -15.249546
-3.684449 3.574361 -14.852305
-3.304349 4.408001 -15.078186
-2.878809 5.123661 -15.247490
-1.869580 5.393866 -15.204222
-2.166754 7.335446 -15.892143
-2.791323 7.981751 -15.416441
-2.457005 9.850862 -15.207997
-2.100458 10.181921 -15.242642
-3.380237 8.635617 -15.292691
-2.044995 11.953846 -15.179975
-1.097492 12.536722 -15.456191
-0.628116 13.443127 -15.270854
0.040573 14.360204 -15.284850
0.806671 14.955119 -15.182994
1.520155 15.519584 -15.095624
2.584305 16.321864 -15.003368
-11.371407 -18.023970 -14.769645
-11.108716 -16.783112 -14.915224
-11.102689 -15.898815 -15.410189
-10.593375 -14.652646 -15.271528
-10.645492 -13.176461 -15.150446
-10.503147 -12.289095 -15.050638
-10.424215 -11.139790 -15.482145
-10.065851 -9.688248 -15.165462
-10.449667 -8.765197 -15.060659
-9.761905 -7.074238 -15.394788
-9.265869 -5.924303 -15.165344
-9.133383 -4.257816 -15.002123
-9.079266 -2.678636 -15.559179
-7.951303 -2.636646 -15.370506
-3.106420 0.159586 -15.258943
-6.128221 -2.365928 -15.133850
-4.596797 -0.004793 -14.826052
-5.125531 -1.378361 -14.992194
-3.753366 1.785641 -15.414476
-2.621704 10.670421 -15.380554
-2.983191 6.505333 -15.248019
-4.393605 2.268972 -15.491431
-4.689379 2.984802 -14.904983
-4.895762 4.083602 -15.140622
-4.696595 4.663641 -15.312797
-4.036837 4.946885 -15.307976
-2.858787 5.419122 -15.400692
-3.287700 7.180572 -15.887285
-3.888645 7.666626 -15.444755
-3.621779 9.930218 -15.220258
-3.254095 10.044433 -15.271309
-4.340016 8.712810 -15.161055
-3.343958 11.648130 -15.312721
-2.444260 12.624679 -14.804204
-1.920175 13.214085 -15.112606
-1.173618 14.260673 -15.245298
-0.745678 15.141957 -15.323284
0.044838 15.651058 -14.754544
1.227432 16.581213 -15.263703
1.386536 17.514025 -15.388139
-12.670018 -17.828987 -15.153617
-12.857072 -16.980239 -15.473417
-11.827528 -15.698840 -14.930817
-12.316856 -14.469257 -15.209220
-11.904622 -12.858228 -15.334572
-11.405496 -12.151897 -14.879512
-11.729856 -10.831482 -15.261661
-11.359055 -9.841366 -14.996028
-11.240466 -7.964049 -15.157352
-11.289336 -7.104518 -14.623581
-11.084824 -5.642101 -15.405618
-10.565592 -4.046098 -15.146262
-9.311420 -1.877168 -15.045053
-8.616563 -1.809020 -15.320560
-8.865153 -1.304279 -15.232623
-10.428980 -2.991727 -15.264702
-10.138325 -1.824725 -14.880483
-9.721807 -0.951070 -15.443928
-6.971691 -1.242825 -15.210599
-4.617676 0.507505 -15.005845
-5.787260 -0.279218 -15.476015
-5.008462 1.774240 -15.340153
-3.852778 10.606868 -14.917411
-3.464789 6.554318 -15.167253
-5.755732 2.610377 -14.801443
-6.238945 3.601782 -15.106672
-6.194641 4.513248 -14.718345
-5.475025 4.238970 -15.481543
-5.131691 5.170872 -15.088320
-4.432779 5.889153 -15.223481
-4.505857 6.927750 -15.035556
-4.595412 7.764961 -14.861472
-4.963887 9.296094 -15.201914
-4.278815 10.337448 -15.211484
-5.482733 8.658209 -15.117710
-4.179370 11.497262 -14.938414
-3.878339 12.586828 -15.164398
-3.076589 13.062565 -15.092644
-2.592382 14.223986 -15.180649
-2.255542 14.708380 -14.894615
-1.524501 15.719938 -15.425018
-0.801850 16.655194 -15.640841
-0.031247 17.178442 -15.209761
0.944142 18.067948 -15.196139
-13.922291 -17.402547 -15.282344
-13.818024 -16.776408 -15.133622
-13.578235 -15.766702 -15.284557
-13.446282 -14.446833 -15.302301
-13.130924 -13.285820 -15.392440
-13.165382 -12.322159 -15.399172
-13.075079 -10.757925 -15.451698
-12.643192 -9.560513 -15.194984
-12.619843 -7.817985 -15.292564
-12.547636 -7.084106 -15.232101
-12.039716 -5.298747 -15.239407
-11.712951 -3.790789 -14.910303
-11.578085 -2.892995 -15.319290
-8.813924 -0.886028 -15.352721
-7.674828 -0.176829 -15.248194
-9.067211 -0.646762 -15.321739
-10.124286 0.163089 -15.208278
-11.026869 -1.454589 -15.060243
-11.250362 -0.145719 -15.375802
-6.529063 1.195678 -14.890576
-6.444145 2.518616 -14.757284
-5.139667 10.674521 -15.043279
-5.024700 6.476680 -15.440441
-6.596847 3.837622 -14.977449
-6.030339 4.647698 -15.075851
-6.300382 4.618479 -15.180290
-5.237841 5.796192 -14.795941
-5.778042 7.310907 -15.353401
-5.988513 8.068798 -15.210321
-5.894219 9.173507 -15.136916
-5.279368 10.001229 -15.466015
-6.338019 8.165692 -15.180733
-6.073253 11.347097 -15.363535
-4.995045 12.073281 -14.971511
-4.532150 12.852550 -15.237496
-4.225597 13.833184 -15.264808
-3.484896 14.846089 -15.144653
-2.677559 15.904179 -15.478449
-2.081441 16.577338 -15.170753
-1.301678 17.186468 -15.111826
-0.867195 18.018192 -15.252418
-0.129097 18.798710 -15.197608
-15.000921 -17.512357 -15.323848
-14.704532 -16.663235 -15.291473
-14.521114 -15.351392 -15.422236
-14.412437 -14.648054 -15.237508
-14.414345 -12.994561 -15.420501
-14.241153 -11.749859 -15.117495
-14.073356 -10.564165 -15.658625
-14.029879 -9.476556 -15.062631
-14.046363 -8.476025 -15.317116
-14.277353 -6.935669 -15.091942
-14.475199 -4.848004 -15.380673
-13.507075 -3.867406 -15.712888
-12.937351 -2.139378 -15.383258
-12.738693 -1.168300 -15.071681
-8.599369 0.567349 -14.753755
-7.669326 1.268065 -15.141282
-9.337287 1.026513 -15.281126
-10.332652 1.723523 -15.255627
-11.157893 1.338042 -15.271284
-12.369557 0.364093 -15.410595
-7.880593 2.989350 -15.259011
-7.599393 3.682039 -15.355930
-6.325743 10.644151 -15.292270
-6.277229 6.592959 -15.312638
-7.109441 4.420901 -15.503419
-6.979204 5.720767 -15.248966
-6.556530 7.292173 -15.191028
-7.356812 7.742026 -15.173822
-7.415801 8.713119 -15.093017
-6.800906 9.900734 -15.571312
-7.743490 8.709401 -15.354842
-6.322844 11.510538 -15.155299
-5.670468 12.224231 -15.221900
-5.709454 13.295232 -15.209444
-4.870045 13.873325 -15.212513
-4.781752 14.118725 -15.339018
-3.996021 15.195940 -15.353002
-3.663556 16.202935 -15.314695
-2.867214 17.258638 -15.059658
-2.342305 17.989978 -15.011785
-1.176150 18.550070 -15.022869
-0.925504 19.611419 -15.812674
-15.927677 -17.634095 -15.121466
-15.760428 -16.267767 -14.916146
-15.919841 -15.111446 -15.448151
-15.667073 -14.438657 -14.886928
-15.815884 -12.759869 -14.792572
-15.899716 -11.554821 -15.035699
-15.459366 -10.400020 -15.026351
-15.259985 -9.228748 -15.294052
-15.179182 -7.920312 -15.065148
-15.385481 -7.225457 -15.125275
-15.845027 -5.672946 -15.416161
-15.937407 -4.247870 -15.384286
-14.964401 -3.903305 -15.215693
-14.755554 -3.083154 -14.822859
-14.474026 -2.435113 -15.000150
-14.077881 -0.723534 -14.880272
-13.887906 0.663062 -15.428515
-8.726440 2.132769 -14.986210
-8.175795 3.060422 -15.073295
-9.916604 2.308974 -15.202112
-10.095279 2.821851 -15.266543
-10.306536 2.572118 -15.174614
-11.442440 1.878944 -15.197754
-12.856098 1.915043 -14.907784
-14.132449 1.614441 -15.109758
-8.293264 4.076789 -15.336614
-8.383266 4.949413 -15.167152
-7.389126 10.549651 -15.142510
-7.494961 6.595923 -15.100790
-8.053751 5.323099 -15.179223
-7.693821 6.996551 -15.280774
-7.635528 7.762730 -15.208001
-8.111948 8.243872 -14.865543
-8.089868 9.316995 -15.052941
-7.633422 9.786705 -15.503577
-8.514425 8.820765 -15.339216
-7.852329 10.884301 -15.143452
-7.297822 11.667181 -15.395184
-6.648679 12.389481 -15.749320
-6.310130 13.503866 -14.998709
-5.853981 14.489486 -15.262446
-5.389921 14.991694 -14.862041
-4.811732 16.264899 -15.074338
-3.914217 16.935364 -14.904427
-3.597666 17.712143 -15.165550
-3.117173 18.897000 -14.808062
-2.615433 19.599149 -15.295979
-1.581691 20.386159 -15.433298
-17.257541 -17.374191 -15.199126
-16.888727 -16.266287 -15.213456
-17.139412 -14.858925 -15.402605
-16.912805 -13.886703 -15.105905
-16.655412 -12.841825 -15.158515
-16.413336 -11.722110 -15.268520
-16.681847 -10.563295 -14.810188
-16.795154 -9.316491 -14.734251
-16.654191 -7.818735 -15.248324
-17.249189 -6.763909 -15.359134
-17.231236 -5.698622 -15.245338
-17.286701 -4.766014 -15.065320
-15.977326 -3.770220 -15.153616
-16.360342 -3.607232 -15.100723
-17.460502 -3.712432 -15.133575
-15.599647 -2.743414 -15.376012
-15.366319 -1.841799 -15.017157
-14.942245 -0.638952 -15.279373
-15.144612 0.916513 -15.074578
-15.351329 1.523525 -15.347231
-9.727075 2.976282 -15.361292
-9.553086 4.271957 -15.743800
-9.691699 3.566924 -15.245427
-10.575238 3.049721 -15.338881
-11.374066 3.166627 -15.163398
-13.312780 3.483522 -15.243642
-13.972560 2.980330 -15.335709
-15.118543 2.550140 -15.030699
-9.331492 4.797704 -14.913532
-8.701047 6.012613 -15.135260
-7.928282 9.973567 -15.497258
-8.810351 7.084294 -15.524688
-8.859243 8.267909 -15.102602
-8.632343 8.955823 -15.227441
-7.936883 9.498181 -15.325378
-8.757870 10.882957 -14.909786
-8.246148 11.828093 -14.950988
-8.111816 12.331345 -15.584725
-7.071288 13.132830 -15.434508
-6.819558 13.880250 -15.067713
-6.207550 15.063532 -15.156492
-5.638488 15.351956 -14.635397
-5.682273 16.731016 -15.155026
-5.037698 17.778867 -15.328948
-4.653273 18.448832 -15.144309
-3.817133 19.397363 -15.310154
-3.242430 20.321951 -14.808990
-2.784852 20.873198 -14.992734
-18.181261 -17.546415 -15.175982
-18.252196 -16.245151 -15.488987
-18.354564 -15.564583 -15.158251
-18.004012 -14.132841 -15.303781
-17.996333 -12.730616 -15.127153
-17.651068 -11.649031 -15.197189
-17.800024 -10.448532 -14.864352
-18.059963 -8.985218 -15.095940
-18.382271 -8.462550 -15.081839
-18.296884 -7.469183 -15.072666
-18.240513 -6.099256 -15.476370
-18.327032 -4.710518 -15.257781
-18.782327 -4.058270 -14.975739
-16.482745 -2.567499 -15.225773
-17.266651 -2.908866 -15.409695
-18.576781 -2.802597 -15.525522
-16.396588 -1.578737 -14.909467
-16.094828 -0.774488 -14.547559
-16.075889 0.969173 -15.064369
-16.106249 1.765719 -15.388577
-16.184198 2.826033 -15.219098
-10.252809 4.068395 -15.405064
-10.120004 5.387235 -15.275645
-10.743675 4.145420 -15.414450
-12.129326 4.017796 -15.264354
-12.836725 4.290296 -14.999109
-13.834383 3.473631 -15.041946
-15.967886 4.330206 -15.412362
-15.308578 4.050004 -15.356692
-9.976397 5.884303 -15.119705
-9.806263 6.980608 -15.335354
-8.933716 9.543589 -14.957757
-9.687803 7.875924 -15.199238
-9.279274 9.325807 -15.518601
-9.858302 10.564425 -15.179695
-9.273975 11.098194 -14.995796
-8.717809 12.022712 -15.665094
-8.877115 12.293241 -15.193942
-7.986014 13.759728 -15.068770
-7.519677 14.580826 -15.165850
-7.285658 15.726051 -15.337450
-6.747720 16.306751 -15.245734
-6.498262 17.143769 -15.288326
-5.865678 18.527253 -15.109240
-5.799684 19.051486 -15.525787
-4.419038 19.586621 -15.020263
-3.997565 20.778545 -15.402910
-3.403753 21.825411 -15.035705
-4.591879 22.365019 -15.332705
-19.074247 -17.513517 -15.217748
-19.540681 -16.489007 -15.298842
-19.128619 -15.041705 -14.834662
-19.784408 -13.789982 -14.797056
-19.032665 -13.173294 -15.177098
-19.261224 -11.566758 -15.176066
-19.199532 -10.513656 -15.185860
-19.288026 -9.147259 -14.883774
-19.537327 -8.208826 -15.097033
-19.535982 -7.318375 -15.224653
-19.479914 -6.212505 -14.970146
-19.870624 -4.711689 -15.193112
-19.498822 -3.838435 -15.449674
-19.009586 -2.982465 -14.977601
-17.265481 -1.281507 -15.038831
-18.657437 -1.567969 -15.143119
-19.811092 -1.868855 -15.161329
-17.464325 -0.783930 -15.234723
-17.381988 0.525605 -15.150863
-16.769576 1.572872 -15.083240
-16.945216 2.774372 -15.097171
-17.251323 4.164487 -15.026366
-10.781353 4.434540 -15.506634
-10.835759 6.114303 -15.458788
-11.834559 5.143311 -15.546204
-13.100569 5.267205 -15.386992
-17.404173 5.062073 -15.082967
-14.087994 5.408854 -15.393502
-16.315373 5.320908 -15.496428
-14.588240 5.203237 -15.150253
-11.132295 7.474637 -15.115698
-10.661441 8.377977 -15.196705
-10.405137 9.396033 -15.133134
-10.854354 10.485883 -14.734892
-10.536247 10.955856 -15.284064
-10.104585 11.726778 -15.392435
-9.499452 12.414595 -15.164643
-9.168343 13.223338 -15.135436
-8.966313 14.002741 -14.934515
-8.363897 15.054327 -15.425147
-7.842429 16.034262 -15.274946
-7.945551 16.851625 -15.419860
-7.054536 18.161946 -15.253957
-6.436796 19.121434 -15.215602
-6.289155 19.658682 -15.145490
-5.605310 20.519741 -15.366816
-4.666895 21.262109 -15.290673
-5.626532 22.043492 -14.998215
-5.505875 22.629678 -15.372525
-20.256624 -17.359177 -15.304624
-20.770940 -16.157149 -15.422378
-20.625550 -14.996462 -15.052091
-20.099270 -13.801906 -15.503767
-20.486658 -12.542107 -15.218190
-20.689376 -11.716389 -15.074981
-20.514640 -10.456006 -15.116167
-20.670553 -9.508735 -15.254719
-20.467483 -8.344926 -15.130503
-20.499799 -7.284367 -15.330755
-20.764845 -6.142886 -15.311650
-20.711256 -5.204635 -15.169561
-20.713585 -3.611265 -15.471519
-20.629698 -2.881553 -15.285505
-20.295451 -1.819556 -15.139817
-18.297140 -0.659299 -15.016623
-19.500648 -0.506027 -15.088123
-20.846634 -0.216484 -15.618736
-18.358656 0.476476 -15.306869
-18.371389 1.867469 -15.681135
-18.720770 3.022048 -15.525788
-18.151599 4.135305 -15.456692
-18.793466 5.095872 -15.230969
-18.207100 6.731557 -15.157158
-11.951094 6.245995 -15.259971
-11.820120 7.175761 -14.921955
-12.961506 6.269372 -15.009692
-17.347069 6.457247 -15.109248
-13.839272 6.115355 -15.106539
-16.423240 6.355006 -14.885179
-15.011686 6.518680 -14.968389
-12.310195 8.641468 -15.318798
-11.804558 9.541190 -15.117560
-11.507965 10.525172 -15.063840
-11.465080 11.409837 -14.887060
-10.932266 12.085503 -15.068130
-10.418308 13.127332 -15.625509
-9.748047 13.875386 -15.186337
-9.430278 14.862601 -15.303977
-9.119497 15.465351 -15.198405
-8.553538 16.238016 -15.444467
-8.432921 17.673181 -15.079143
-8.040674 18.454344 -15.123324
-7.366125 19.457058 -15.012577
-6.829484 20.293264 -15.315910
-6.380226 21.272688 -15.429555
-7.198838 21.982748 -15.367378
-6.547451 22.596503 -15.070830
-6.111618 23.504268 -15.153034
-21.483597 -17.272882 -15.244430
-21.562089 -15.977989 -14.858783
-21.419469 -14.915378 -15.061991
-21.310923 -13.912680 -15.024032
-21.209572 -12.871755 -15.382347
-21.805045 -11.634605 -15.177937
-21.845878 -10.349223 -15.349143
-21.579521 -9.507064 -15.248478
-21.400460 -8.101022 -15.022846
-21.822440 -7.446974 -15.268148
-21.892075 -6.153763 -15.148558
-21.588512 -5.021760 -15.086450
-21.577210 -4.000741 -15.131234
-21.733995 -2.971760 -14.863147
-21.734638 -1.743989 -15.182387
-21.670818 -0.104123 -14.815417
-19.671719 0.980213 -15.097905
-20.905917 1.057701 -15.136165
-22.123448 0.900819 -15.156695
-19.921676 1.753613 -15.377189
-19.881915 2.979900 -15.312156
-19.740905 4.266193 -15.214381
-19.513132 5.262927 -15.302733
-19.418754 6.317146 -15.366535
-17.096139 7.259443 -14.898827
-18.433056 7.224691 -15.286247
-19.576442 7.311273 -15.237326
-12.921303 7.434802 -15.275786
-12.507872 8.675338 -15.308580
-14.067850 7.543772 -15.217501
-16.019240 7.618668 -15.285635
-14.941764 7.625879 -14.827912
-12.619961 10.000740 -15.148904
-12.548973 10.790158 -14.808479
-12.335987 11.568439 -15.134572
-12.446177 12.833879 -15.140843
-11.421851 13.724525 -15.087827
-10.768736 14.595848 -15.593981
-10.438696 15.361961 -15.345048
-9.819489 16.227917 -15.165037
-9.650675 16.977988 -14.994779
-9.020623 17.899806 -15.396297
-8.858092 19.020347 -14.857840
-8.277392 20.037563 -15.422399
-7.947452 20.812861 -15.405119
-8.475245 21.133281 -15.480335
-7.954932 22.123510 -15.426180
-7.553283 23.334146 -14.706376
-7.389464 24.182531 -15.013115
-23.017993 -17.046847 -15.368392
-22.729369 -15.842508 -15.447904
-22.630939 -15.036406 -15.033844
-22.840442 -13.411432 -15.066856
-22.540185 -12.536075 -15.255225
-22.867954 -11.867434 -15.099530
-22.775678 -11.000299 -15.035747
-23.118710 -9.373659 -15.547286
-22.931965 -8.555418 -15.291215
-22.926732 -7.194274 -15.144451
-23.329137 -5.666461 -15.244807
-22.983857 -4.822236 -15.548060
-23.111830 -3.684507 -15.405985
-23.201645 -2.522070 -15.252559
-22.939428 -1.827144 -15.258739
-23.000094 -0.204810 -15.133180
-22.633002 0.897477 -14.974653
-20.749808 1.778974 -14.874545
-21.574277 1.717646 -15.209464
-22.385399 1.838411 -15.492234
-20.622108 2.805298 -15.345861
-20.742666 3.885300 -15.191672
-21.213651 5.426841 -15.438035
-20.882937 6.582679 -15.056947
-20.518946 7.162957 -15.314501
-16.219050 9.119259 -15.273175
-17.245543 8.737155 -15.286214
-18.236484 8.373900 -15.366928
-19.441652 8.342581 -15.285853
-20.777553 8.785548 -15.023754
-14.003665 8.428997 -15.183180
-13.700598 10.224108 -14.816208
-15.075296 9.652887 -15.089140
-13.593998 11.168162 -15.422596
-13.590617 11.849666 -15.129164
-13.242635 12.814495 -15.178268
-13.091548 13.332521 -15.381816
-12.840789 13.549785 -15.262037
-11.999890 14.415537 -15.075831
-11.425125 15.002762 -15.053574
-11.402402 15.642286 -15.076691
-10.664809 16.972957 -14.955650
-10.496925 17.408751 -15.261790
-10.024885 18.396226 -14.932453
-9.525424 19.723883 -15.275522
-9.147087 20.285769 -15.337321
-9.807071 21.123067 -15.167085
-9.576092 21.835693 -15.336767
-8.980543 23.021021 -15.395522
-8.478874 23.549294 -15.125370
-8.107612 24.816695 -15.385401
-24.068699 -17.479008 -15.384917
-23.757507 -15.899595 -15.050999
-23.839878 -14.842748 -15.187520
-24.322488 -13.582410 -15.387349
-24.254045 -12.471003 -15.531336
-24.115191 -11.575081 -15.438141
-23.860690 -10.509705 -15.274987
-23.840971 -9.213928 -15.066174
-23.987233 -8.107283 -15.434391
-24.349363 -7.089928 -15.518925
-23.799675 -5.975683 -14.836108
-23.890647 -4.680303 -15.394538
-23.635771 -3.840540 -15.257602
-24.346130 -3.247731 -15.123201
-23.804379 -1.558774 -15.027957
-24.283765 -0.458596 -15.229215
-23.982826 1.066705 -15.362412
-24.053531 1.664889 -15.045153
-21.628405 2.604406 -15.421422
-22.797030 2.656225 -15.526126
-23.804262 2.960156 -15.146534
-22.000313 4.306713 -15.326321
-21.825921 5.119498 -15.141936
-21.427142 6.304909 -14.963284
-21.942818 7.271099 -15.047314
-21.919299 8.208983 -15.407616
-15.829075 10.229417 -15.470299
-16.512712 10.218576 -15.491458
-17.364147 9.706372 -15.029174
-18.344139 9.422821 -15.504613
-19.428215 9.611541 -15.219353
-20.764941 9.604789 -15.106209
-21.605020 9.942103 -15.436170
-15.083968 10.584852 -15.082159
-14.537018 11.323324 -15.245193
-15.674001 10.813368 -14.899447
-14.264411 11.841784 -15.331843
-13.850700 12.886979 -14.931557
-13.734021 13.377227 -15.402178
-13.279717 13.734707 -15.262887
-12.445544 14.610088 -15.321613
-12.123915 15.493818 -15.140957
-11.882836 15.938941 -15.088736
-11.326236 17.250359 -15.021780
-10.885169 18.129304 -15.063049
-10.789462 18.825493 -15.428690
-10.469730 20.003942 -15.083650
-11.264540 20.681409 -15.520247
-11.039536 21.392757 -15.439415
-10.717057 22.424206 -15.129777
-9.908949 23.141506 -15.315027
-9.800570 24.440800 -15.564433
-8.779342 25.362895 -15.631193
-24.664064 -17.079069 -15.297561
-25.332170 -16.010480 -15.558642
-24.876150 -15.113171 -15.451808
-25.156586 -14.039511 -15.455753
-25.466029 -12.770581 -14.866164
-25.518774 -11.726114 -15.236541
-25.244913 -10.730334 -15.254551
-25.222887 -9.282228 -15.305884
-25.198520 -8.087213 -15.323089
-24.689223 -7.209557 -15.139919
-24.907342 -6.163489 -15.453886
-24.854906 -5.122721 -15.257567
-25.101789 -3.890142 -14.887005
-25.319169 -2.593200 -15.293927
-25.179215 -1.728375 -14.798313
-25.321799 -0.213975 -15.183510
-25.120313 1.175100 -15.556466
-25.062350 1.735088 -15.051052
-25.123614 3.078090 -15.166802
-22.942643 4.174873 -14.964206
-24.332849 4.021042 -15.223189
-25.286503 3.776716 -15.291030
-22.971321 5.123840 -14.917901
-22.834177 6.033871 -15.241351
-22.497662 7.771251 -15.366017
-22.905488 8.386141 -15.013148
-23.224194 9.749317 -15.431894
-16.538065 10.660256 -15.129691
-17.219771 10.857271 -15.286410
-18.496053 10.633648 -14.922714
-19.415116 10.629675 -15.035209
-20.700155 10.623094 -15.005844
-21.860029 10.733005 -14.948470
-23.111437 10.961186 -15.149323
-15.599442 11.477991 -15.070326
-15.141431 12.597210 -15.437045
-15.882414 12.074603 -14.920915
-14.506669 13.395796 -15.030747
-14.511120 13.761999 -15.360442
-13.789090 14.548386 -15.054026
-13.537833 15.358652 -14.849920
-12.769657 15.894344 -15.291520
-12.280513 16.612278 -15.074111
-12.516713 17.649589 -15.241308
-11.956421 18.535404 -15.279596
-11.355329 19.507152 -14.838124
-12.354204 19.622319 -15.185913
-12.003499 20.873260 -15.177880
-11.408834 21.535708 -15.061235
-11.504785 23.214583 -15.339034
-10.687360 23.778682 -15.165501
-10.911836 24.722020 -15.186256
-10.160663 25.831000 -15.668817
-26.476152 -17.374377 -15.276541
-26.287643 -16.320461 -15.280151
-26.338848 -14.817696 -14.999398
-26.120337 -13.575630 -15.258197
-26.421626 -12.742993 -15.080841
-26.097529 -11.727673 -14.571495
-26.469769 -10.139721 -15.016650
-26.142100 -9.645500 -15.430511
-26.083535 -8.382629 -15.146769
-26.458290 -7.264840 -14.956350
-26.238297 -6.143997 -15.393102
-26.397184 -4.736094 -15.083831
-26.371363 -3.683738 -15.132786
-25.971134 -2.453595 -14.870490
-26.020398 -1.598754 -15.252689
-25.907860 -0.469215 -15.321269
-26.187195 0.673608 -15.407048
-26.250033 1.467062 -14.968852
-26.147213 3.329182 -15.253022
-26.257390 3.864196 -15.494679
-24.173755 5.038750 -15.124820
-24.912746 5.070300 -15.407918
-25.919223 4.878284 -15.274194
-24.028698 6.376589 -15.514863
-24.111163 7.317448 -15.619198
-23.958468 8.635060 -15.124697
-23.963795 9.745050 -15.010624
-23.853632 10.491258 -15.088245
-17.216378 11.719901 -14.975596
-18.166934 11.566177 -15.164598
-19.854799 11.683284 -15.218988
-20.662612 12.192301 -15.077023
-21.940510 11.939114 -15.364021
-22.607643 12.015914 -15.166658
-24.077204 11.608115 -15.527410
-15.727505 13.983242 -15.171086
-16.322049 13.158416 -15.402687
-16.388587 13.507136 -15.078564
-16.047411 14.255615 -15.175476
-17.241122 13.122423 -14.626394
-15.217511 14.261598 -15.413558
-14.464442 15.003176 -15.517604
-14.278721 15.592165 -15.100959
-13.836500 16.500811 -15.125007
-12.847111 17.323444 -15.128113
-13.235731 17.956952 -14.858011
-12.967099 18.691384 -15.062248
-13.866962 19.525837 -15.183241
-13.098707 20.261345 -14.971954
-13.130872 21.185173 -15.079777
-12.427941 22.433225 -14.971308
-12.583749 22.974570 -15.091892
-11.834161 24.532199 -15.277471
-11.455953 25.327074 -14.725233
-11.269767 26.021867 -15.249803
-24.995131 6.397743 -14.859305
-26.101408 6.020194 -15.318969
-25.025179 7.523917 -15.208426
-24.754568 8.257990 -15.074428
-25.298145 9.193730 -14.865413
-25.343233 10.578998 -15.125398
-25.164309 11.889527 -15.358523
-17.853508 13.137862 -14.980111
-19.305169 12.973755 -15.347178
-20.680152 13.008250 -15.126993
-21.866581 12.652857 -15.204990
-22.698157 12.765980 -14.831717
-24.275753 12.840711 -15.147213
-25.305250 12.872673 -15.360107
-15.534413 14.835720 -15.564727
-16.920315 13.900523 -15.505510
-16.729206 14.640016 -15.521569
-16.416139 15.535199 -15.244961
-18.166011 14.047026 -15.277571
-15.652150 15.306262 -15.314363
-14.896020 15.776340 -15.031032
-14.446216 16.851054 -15.160004
-14.290882 17.925306 -15.179863
-13.823930 18.303692 -15.218516
-14.525051 19.270769 -15.066675
-14.189044 19.949881 -15.006538
-14.207586 20.913693 -15.185096
-13.901859 21.931836 -15.377167
-13.193912 22.637912 -15.342710
-13.572027 23.690896 -15.339993
-12.915453 24.604812 -14.749306
-12.558634 25.694623 -15.148989
-11.875295 26.885396 -15.471300
-26.115899 7.311725 -15.000710
-26.213804 8.761242 -15.216219
-26.227154 9.462291 -15.291909
-26.202245 10.473298 -15.393764
-25.913986 11.527325 -14.890063
-26.339331 13.180218 -14.980157
-19.499561 14.121491 -15.165246
-20.838538 14.295948 -15.362436
-21.890223 14.022670 -14.993395
-22.930687 14.121625 -15.234062
-23.535751 14.033193 -15.355728
-25.337317 14.239512 -15.172479
-26.035790 14.264385 -15.168737
-15.985629 15.954067 -15.163480
-16.300221 16.112491 -14.952686
-17.170078 16.232560 -15.346230
-18.145431 14.669135 -15.096233
-19.462321 15.052317 -15.330369
-15.208386 16.243089 -15.139870
-15.310704 17.257441 -15.478432
-15.051440 18.056366 -15.054713
-16.061573 18.840685 -15.191073
-15.630315 19.348424 -15.268069
-15.332083 20.015641 -14.877006
-15.025141 20.855941 -14.937934
-14.323184 21.776196 -15.238221
-14.482066 23.354686 -15.582068
-14.096968 24.286711 -15.556226
-13.857482 24.969866 -15.462278
-13.677098 26.308335 -15.201644
-13.341419 27.239738 -15.201114
-20.312348 15.022127 -15.015063
-21.965883 15.497765 -15.219315
-23.047887 14.790553 -14.914507
-24.155647 15.035118 -15.338641
-25.050184 15.285704 -15.327355
-26.290787 15.301203 -15.017880
-16.174855 16.828018 -14.858025
-16.864448 17.089576 -15.289864
-18.359807 17.990022 -15.163906
-18.816188 16.593076 -15.234449
-20.945431 16.745725 -15.441972
-16.597501 18.285565 -15.309568
-16.566047 18.955698 -15.035473
-16.375152 19.030353 -15.348915
-16.463854 19.493848 -15.071404
-16.043924 20.291310 -14.979045
-15.640712 21.497609 -15.218859
-15.535574 22.488280 -15.603123
-15.489682 22.942532 -15.037727
-15.166107 24.433390 -15.125973
-14.674036 25.614170 -15.368611
-14.419820 26.520367 -15.369256
-14.421816 27.543030 -15.216891
-22.159639 16.492623 -15.133179
-23.161546 16.399410 -15.433473
-24.013013 16.647251 -15.176907
-25.110753 16.380825 -15.106454
-26.249910 16.360495 -15.548244
-17.211142 18.251542 -15.213381
-18.065592 18.561625 -14.971296
-18.671736 18.780954 -15.101227
-18.985662 17.889109 -15.414955
-19.634742 18.004244 -15.158806
-20.791851 17.685968 -15.449144
-22.058587 17.887382 -15.058831
-17.130828 18.873002 -15.228957
-16.709844 19.390625 -15.330108
-17.066007 20.026335 -15.312729
-16.944553 20.787324 -15.073282
-16.712084 21.507092 -15.251187
-16.479958 22.631707 -15.144119
-16.504868 23.603063 -15.187921
-16.469936 24.768618 -14.998570
-15.931905 25.967208 -15.436077
-15.415497 26.786778 -15.426762
-15.286251 28.041729 -15.297660
-22.865611 17.400556 -15.169770
-24.327109 17.114068 -14.742745
-25.217839 17.534597 -15.335537
-26.285612 17.092287 -15.145947
-17.686138 18.606900 -15.082359
-18.367161 18.933399 -15.282268
-18.824531 18.712258 -15.450847
-19.699221 19.001962 -15.416653
-20.986821 18.719004 -15.388475
-21.240168 18.814762 -15.360130
-22.744816 18.463608 -15.129407
-17.845396 19.244799 -15.446222
-17.555658 20.443689 -15.136436
-17.516885 20.993751 -15.364947
-17.551783 21.831447 -15.527093
-17.410475 22.766610 -15.456474
-17.309680 24.529404 -15.332800
-17.224976 25.322909 -15.116152
-16.872015 25.848952 -15.325561
-16.543466 26.922499 -15.124364
-16.266263 27.978968 -15.133839
-24.133651 18.623713 -15.300557
-25.233084 18.598978 -15.255797
-26.395621 18.329128 -15.218513
-18.234180 19.809993 -15.127767
-19.207863 19.777566 -15.355143
-20.062776 19.703311 -15.479878
-20.618079 19.817370 -14.899658
-21.850839 19.861776 -15.124105
-22.713730 19.642931 -15.240370
-24.112498 19.542787 -14.960489
-18.325185 20.047084 -15.247286
-18.648906 21.152091 -15.455175
-18.139109 22.121394 -15.072381
-18.644303 23.162794 -15.205632
-18.131234 24.213530 -14.886994
-18.047495 25.543282 -15.186105
-17.896802 26.448494 -15.536006
-17.675137 27.119365 -15.359511
-17.067874 28.503266 -15.367475
-24.920170 19.653676 -15.251652
-25.756627 19.632949 -15.038135
-18.994759 20.183154 -15.125775
-19.970386 20.585984 -15.137129
-21.065642 20.795662 -15.484397
-21.514861 20.846794 -15.517339
-22.937275 20.795596 -15.278847
-24.338243 20.974319 -14.915809
-25.025456 20.856111 -14.933809
-19.060177 21.337703 -15.527461
-18.723707 22.375723 -15.048763
-19.275781 23.341473 -15.051440
-18.776315 24.512949 -15.309677
-19.235017 25.595633 -15.544565
-19.379161 26.678554 -15.336765
-18.598943 27.528265 -14.808642
-18.652026 28.869332 -15.101137
-26.477916 20.832616 -15.265152
-19.935886 21.411951 -14.976504
-21.117779 21.918474 -14.683580
-21.698936 22.110477 -15.515481
-22.607360 21.944204 -15.126819
-23.889678 22.048179 -15.346723
-25.247692 21.906020 -15.007519
-26.698764 21.881293 -15.549908
-19.798237 22.204141 -15.088712
-20.190075 23.817297 -15.366210
-20.157317 24.919248 -15.219268
-20.261560 25.813198 -15.290987
-20.211012 27.176567 -15.325311
-19.842652 27.676415 -15.124016
-19.356039 28.851032 -15.605003
-21.075885 23.004035 -14.974920
-21.611965 22.856181 -15.252462
-22.944124 23.062018 -15.429731
-24.301982 23.290758 -15.234355
-24.808425 22.577879 -15.018631
-26.172904 23.357578 -15.305784
-20.661456 23.600627 -15.327445
-20.970714 24.602907 -15.099128
-20.671578 25.707018 -15.461202
-20.872290 26.957171 -15.199110
-20.670520 28.357082 -15.105504
-20.687753 29.495141 -14.892422
-21.885652 24.005115 -15.258751
-22.857151 24.641045 -15.179909
-23.905853 24.133421 -15.364504
-25.069272 24.167120 -15.254314
-26.718208 23.993661 -15.639536
-21.982970 25.227352 -15.115857
-21.846075 26.436666 -15.272253
-22.225305 27.041948 -14.893266
-21.658505 28.651341 -15.080005
-21.746361 29.450045 -15.413893
-22.868347 24.917948 -15.204424
-23.773288 25.552057 -14.675906
-25.159013 25.296330 -15.150643
-26.010048 24.935291 -15.243360
-23.019504 26.489155 -15.091154
-22.889640 27.491304 -15.243784
-23.538166 27.993492 -15.183624
-22.658781 29.091765 -15.327079
-23.998719 26.394159 -15.453611
-25.033995 26.292248 -15.274709
-25.990160 26.518388 -15.337367
-24.321295 27.445736 -15.253115
-23.816480 28.798917 -14.491252
-24.023299 29.822793 -14.779789
-24.894411 27.596962 -15.070183
-26.264853 27.767907 -14.904554
-24.957766 28.543628 -15.134885
-25.061193 29.966807 -15.454500
-26.376778 28.519718 -15.244602
-26.486222 29.676796 -14.703486
8.257615 8.966795 -6.008180
7.351422 9.752233 -5.886574
6.069458 9.361546 -6.175001
5.616615 10.903484 -6.375742
4.765463 9.411292 -6.108340
4.370324 10.698804 -6.259706
4.613133 11.447809 -6.365161
4.319742 11.069916 -6.663021
3.578458 9.568620 -5.962506
3.453376 10.463817 -6.632499
3.521443 10.383969 -6.602841
5.241036 12.833422 -6.940848
4.353101 11.893007 -6.429072
3.684619 12.042957 -6.668141
2.962464 11.717493 -6.572960
2.833864 10.107239 -6.215609
1.572912 9.589133 -5.924077
2.145830 11.136654 -6.498587
4.552230 13.841043 -6.580003
3.682347 13.484446 -6.836260
3.086250 12.431284 -6.704881
2.576794 11.960250 -6.580411
2.146728 11.690623 -6.703683
1.276599 10.951165 -6.621735
0.175021 9.685256 -6.458581
0.486758 10.796474 -6.342831
1.616446 11.842695 -6.957054
3.825279 14.913675 -7.126779
3.158712 13.928343 -6.867725
2.745265 13.013956 -6.923235
2.216908 12.478082 -6.519988
0.847263 11.760406 -6.859820
-1.034311 9.807672 -6.284735
-0.676440 10.811260 -5.841327
-0.373221 11.742916 -6.429940
2.811930 15.381091 -7.340569
0.840915 12.755827 -6.756288
2.111024 14.489518 -7.220398
1.597982 13.881464 -7.364228
-0.573346 12.468869 -7.003535
-1.742462 9.857720 -5.909249
-1.786198 11.399341 -6.317986
-1.468335 11.233829 -6.552724
-0.861319 12.617506 -6.881640
2.578227 16.135200 -7.486087
1.261403 15.187282 -7.638790
-3.418277 10.229786 -6.164252
-4.529226 9.526810 -6.422793
1.105444 14.535319 -6.779812
-0.236259 14.157896 -7.218139
-0.875290 13.580933 -7.084214
-1.596215 13.137242 -6.742624
-3.455847 11.199121 -6.257172
-1.994410 12.118473 -6.768328
1.324312 16.833202 -7.324850
0.463356 16.583663 -7.073798
0.075240 15.785817 -6.988889
-4.792479 10.813580 -6.085162
-5.388111 9.993739 -6.589892
-4.947285 10.689077 -6.559964
-0.972631 15.192774 -6.933156
-0.970635 14.389823 -6.921273
-2.299246 13.772379 -6.939947
-2.733794 12.861321 -6.828939
-5.058475 11.744972 -6.388385
-3.850726 12.117823 -6.554191
0.565174 17.869190 -7.855196
0.302129 17.201696 -7.712514
-0.838601 16.305537 -7.030556
-1.384535 15.577394 -7.350326
-6.117382 11.344109 -6.621668
-7.001896 10.213992 -6.317784
-8.215072 9.592277 -6.282075
-9.231413 9.286702 -6.062201
-2.110950 15.206911 -6.758992
-2.584836 14.708655 -7.180201
-3.749598 13.784800 -6.949191
-4.865826 13.042941 -6.719276
-5.781566 11.999789 -7.116126
-6.752520 12.109661 -6.575303
0.301943 18.455653 -7.786872
-0.879547 17.557139 -7.533418
-1.274603 16.817605 -7.510409
-1.904791 15.986238 -7.446258
-2.482218 15.654211 -7.147954
-7.980224 11.711333 -6.359219
-8.801592 11.075342 -6.512950
-10.004123 10.448118 -6.139661
-2.976276 15.688578 -7.725995
-4.339464 15.282713 -7.376686
-4.736202 14.287129 -7.041350
-6.016973 13.701844 -7.128490
-7.678876 13.208906 -7.015208
-8.588258 12.370667 -6.826577
-0.489943 19.180431 -7.939485
-1.317315 18.514156 -7.777695
-1.826746 17.255049 -7.763595
-2.691702 16.639716 -7.535905
-9.400268 12.058359 -6.613481
-10.567614 11.615628 -6.745691
-3.975003 17.004802 -7.304564
-4.910626 16.027885 -7.267613
-3.104827 17.682649 -7.772932
-5.918605 15.804070 -7.236909
-6.964212 14.804977 -7.050556
-8.017250 14.285336 -6.950053
-8.760824 13.452479 -7.096455
-9.933123 13.013075 -6.826009
-1.796532 20.111118 -8.005651
-2.199869 19.007833 -7.784841
-2.986889 18.225909 -7.706013
-11.117762 12.659138 -7.098288
-4.817049 17.959144 -7.789067
-5.408090 17.226303 -7.196366
-4.299611 18.039841 -7.834598
-6.547757 16.224399 -7.238372
-3.631439 18.866143 -7.869487
-6.975891 15.664489 -7.420775
-8.481647 15.522169 -6.851298
-9.377634 14.669946 -6.964729
-10.428977 14.097709 -6.917061
-11.276073 13.722024 -6.922911
-2.309416 20.604481 -8.051256
-2.999055 20.020116 -8.184390
-5.419265 18.362377 -8.197767
-5.768349 17.799796 -7.680846
-4.884230 18.537457 -7.610673
-6.828455 17.746465 -7.704191
-5.054679 19.890646 -8.110599
-7.781465 17.007726 -7.298912
-3.705613 20.575849 -8.299983
-8.723268 16.736421 -7.241282
-10.035551 15.682371 -7.239642
-10.707785 14.835837 -7.460022
-12.204145 14.386182 -6.928839
-3.392308 21.433798 -8.245201
-3.919666 21.977237 -8.530583
-6.521906 19.347482 -7.986510
-7.331986 18.353374 -7.557709
-5.289318 20.342179 -8.177637
-8.322905 18.005406 -8.233488
-4.607374 21.211741 -8.213969
-9.234620 17.258024 -7.438450
-10.473321 16.429751 -7.367008
-11.378940 16.517670 -7.337394
-12.409309 15.385735 -7.235144
-5.007842 22.580362 -8.381188
-5.637399 22.028470 -8.362917
-6.156134 21.220781 -8.797333
-7.049689 20.488923 -8.275916
-8.160559 19.336886 -7.796017
-8.979582 19.372728 -7.972353
-10.002285 18.356624 -7.589149
-10.878676 17.426486 -7.813232
-12.086312 16.695214 -7.587720
-13.318135 16.433087 -7.081223
-5.501125 23.186058 -8.439333
-6.490156 22.643717 -8.287105
-7.453726 21.962743 -8.314184
-6.708886 24.156674 -8.986348
-7.767002 24.567633 -8.654652
-8.000462 20.797885 -8.155272
-8.855190 20.510819 -8.223219
-10.085569 19.908825 -8.244540
-10.666303 19.334616 -7.684014
-11.846394 18.532902 -7.966690
-12.297980 17.866281 -7.722898
-13.623857 17.264185 -7.641762
-7.553299 22.949462 -8.322232
-7.774479 22.236994 -8.302738
-8.462826 21.639065 -8.545339
-8.283170 23.551406 -8.847425
-8.861219 24.879167 -9.220335
-9.006523 24.238620 -8.683609
-8.839726 21.665370 -8.527460
-10.413045 20.738280 -7.870592
-11.337009 20.383147 -8.285953
-12.387407 19.825281 -7.905574
-13.218131 18.715218 -8.137022
-14.545968 17.988439 -7.993645
-8.555429 22.662882 -8.332444
-10.011274 23.245580 -8.308365
-9.397144 25.444459 -9.025411
-9.995278 24.406178 -8.948119
-10.365123 23.696217 -8.529682
-10.694104 22.085355 -8.237939
-10.901110 21.409087 -8.532946
-11.986921 21.575339 -8.407469
-12.975639 20.624602 -8.215830
-13.843882 20.045092 -8.050690
-14.955265 19.049327 -7.935113
-11.109044 23.027331 -8.201985
-10.369714 25.697784 -9.170499
-10.726378 24.946747 -8.841509
-11.259188 23.963394 -8.843435
-11.671493 23.429525 -8.712564
-11.709777 22.480404 -8.677312
-13.007335 22.835833 -8.272540
-13.784332 21.549667 -8.626448
-14.547889 20.800961 -7.935371
-15.584620 19.817809 -8.070409
-12.004217 23.399260 -8.667625
-11.603486 26.310619 -9.253912
-11.630475 25.164379 -9.270653
-11.786804 24.223904 -9.107716
-12.924387 26.591244 -9.294308
-13.553949 23.554167 -8.544550
-14.661275 22.501875 -8.345691
-15.238843 22.050676 -8.584493
-16.095326 20.776311 -8.206552
-12.874155 24.944252 -9.092169
-13.046334 25.859219 -8.806034
-13.622750 27.498512 -9.284724
-13.722108 26.084961 -8.963722
-14.108430 25.471427 -9.056920
-14.619134 24.363525 -8.836766
-15.787686 23.182003 -8.630676
-16.151853 22.617842 -8.593445
-16.679130 21.760075 -8.552029
-14.192592 27.602096 -9.324027
-14.910523 26.523980 -9.236809
-15.172613 25.978338 -9.186631
-15.673175 25.030187 -8.885607
-16.088744 24.571130 -8.669539
-17.057718 23.498310 -8.855226
-17.739045 22.554621 -8.402990
-15.328088 27.896287 -9.280520
-15.757395 27.042024 -9.222507
-15.757320 25.979724 -8.947627
-16.193486 25.449725 -8.451567
-17.019403 24.991053 -9.059997
-17.642369 24.495925 -8.874671
-18.566408 23.676440 -8.643040
-16.830208 27.768406 -9.465439
-16.833328 27.190858 -9.380475
-17.224859 26.452563 -8.925315
-18.018169 25.571462 -9.034402
-18.747274 24.807245 -8.944583
-17.688794 26.598354 -9.117518
-19.260058 24.258753 -8.633074
-17.694746 28.421387 -9.605823
-17.917140 27.434327 -9.636802
-18.951630 25.635240 -9.071896
-19.137731 25.091446 -8.742207
-18.851652 27.238557 -9.123195
-19.949391 25.213818 -8.953118
-18.955926 27.420279 -9.509051
-18.760811 28.874204 -9.721811
-20.221985 26.400491 -8.989584
-20.706519 25.755006 -9.026046
-20.069547 27.846963 -9.781476
-20.092221 28.665258 -9.680619
-22.199720 26.018610 -8.878621
-21.522541 27.382184 -9.622182
-21.143109 28.111861 -9.526125
-20.711786 28.893063 -9.843056
-22.732115 26.642552 -9.494751
-22.686098 28.328375 -9.743656
-21.843528 28.867150 -9.483797
-21.816186 29.036114 -9.525027
-23.995448 26.884690 -9.371411
-23.921737 28.348406 -9.519302
-23.330415 29.273671 -9.526430
-23.804190 29.070775 -9.903551
-24.973538 27.126061 -9.231134
-24.835740 28.773518 -9.615316
-24.846786 29.700032 -9.799546
-26.219295 27.254132 -9.373172
-26.318330 28.613905 -9.802243
-26.361379 29.455525 -9.926157
-26.173140 26.150944 -9.397846
-26.154414 25.247796 -9.995248
-25.213559 26.210649 -9.444620
-25.721537 25.097249 -9.405697
