ply
format ascii 1.0
element vertex 1588
property float x
property float y
property float z
end_header
-7.116829 23.015441 -9.203103
-5.986374 21.086265 -9.679696
-6.840949 20.505198 -8.364347
-7.024683 20.283050 -8.348956
-8.360312 18.415250 -7.931006
-9.677398 18.711141 -8.259671
-9.674332 19.099972 -8.749591
-11.576632 18.114602 -7.730262
-10.508582 17.426618 -6.787679
-12.842481 16.550620 -7.014735
-7.152996 23.306232 -8.528609
-6.214457 22.829448 -7.477757
-7.437820 22.122584 -8.044670
-6.562814 23.252171 -8.641671
-8.187811 23.564795 -8.967370
-8.563674 21.412544 -8.366551
-7.849815 19.949972 -7.575506
-9.013876 20.214907 -7.703779
-10.503443 18.626735 -9.018136
-12.182789 19.073209 -7.740611
-13.803341 18.319662 -6.755868
-13.652890 18.161622 -8.215071
-6.961346 23.972807 -8.382682
-7.583321 23.302549 -8.111768
-7.760588 21.011669 -8.581970
-7.675418 22.929680 -8.688892
-8.847271 24.853536 -9.687063
-7.685491 22.782936 -6.779285
-7.960596 20.818835 -7.190167
-10.711541 20.867887 -8.479534
-9.876299 20.228764 -7.060219
-12.205574 19.981503 -9.103296
-14.086165 19.136928 -8.113004
-13.553611 17.943584 -7.833281
-9.423760 22.287544 -8.431777
-10.257384 22.889183 -9.007749
-11.004161 26.097129 -8.718967
-9.524571 24.377794 -9.424339
-10.199346 23.669163 -10.109655
-11.512692 22.194452 -8.442192
-11.118044 22.438113 -8.655027
-11.965410 21.325015 -7.910620
-12.803563 21.468215 -6.410210
-13.963185 18.197003 -8.023016
-13.757899 19.311957 -6.429616
-10.771921 22.772586 -9.458823
-10.190868 24.869188 -9.684689
-11.163133 24.495511 -10.467010
-11.308020 24.113766 -8.868479
-11.155794 23.521188 -8.323562
-11.200286 22.935656 -8.556406
-10.547524 21.906187 -6.992705
-14.553527 21.542663 -7.586380
-16.326008 20.182178 -7.733799
-14.811652 20.130484 -7.324233
-14.011176 22.477782 -9.590885
-12.059735 27.529637 -7.475774
-10.863698 26.231318 -8.909143
-11.354349 24.424894 -9.204211
-14.210485 28.637118 -8.456517
-13.600862 24.744365 -10.082308
-13.399132 22.449007 -8.915113
-15.618741 21.839250 -9.309898
-15.993708 21.134391 -6.828359
-13.974666 24.549505 -8.393746
-12.604106 25.811896 -8.744720
-13.085680 25.983232 -9.218656
-14.747064 25.157347 -9.452727
-14.128558 24.395851 -9.865981
-15.907049 23.290437 -9.724764
-14.904686 24.001681 -6.995977
-16.929935 22.798210 -8.673466
-16.433669 21.731237 -8.133090
-13.708640 27.833143 -9.564400
-15.498930 26.919912 -9.106072
-13.884280 25.655959 -11.037970
-17.270023 22.617690 -9.068070
-17.010331 24.498671 -8.232274
-16.079007 24.465684 -7.804875
-15.864092 21.181535 -7.559287
-15.503214 27.303830 -8.816090
-17.110767 27.522109 -9.765150
-15.931205 26.342707 -7.770262
-16.776073 25.249129 -8.648230
-16.663602 24.702650 -8.608880
-17.888222 23.704438 -7.840218
-19.317105 25.371231 -8.343627
-15.593371 27.785217 -9.354373
-16.083753 26.066107 -8.523668
-16.859851 27.199557 -9.863912
-19.079076 24.300502 -9.075995
-18.505669 24.161467 -9.439327
-17.769539 26.486107 -8.041821
-18.759583 25.369197 -9.302307
-15.851628 28.655894 -9.204325
-17.204306 26.693608 -8.628487
-17.970430 25.590726 -8.604690
-17.805948 25.307129 -9.278862
-18.526208 26.508620 -8.939513
-20.565173 24.094207 -8.575024
-19.688086 27.077499 -10.159955
-17.909717 29.245171 -9.442923
-20.827332 26.944230 -9.497801
-22.237301 24.210171 -8.423213
-19.331987 28.228881 -8.974800
-18.861266 29.115253 -10.763758
-21.625241 25.202968 -9.152310
-20.832538 26.411458 -9.670245
-21.832972 28.585105 -9.058206
-20.844712 29.699382 -10.324466
-24.069216 26.202059 -9.030054
-22.004470 26.009886 -9.433012
-20.464524 28.627314 -9.587285
-22.743004 29.391784 -10.558323
-23.643549 27.085736 -9.871758
-24.149932 28.548779 -7.633006
-21.806395 29.411764 -8.015029
-24.889846 29.716990 -9.296374
-25.954372 26.220279 -9.993116
-25.238551 28.406383 -9.704175
-26.689194 30.393092 -9.116338
-25.100994 27.872718 -9.026975
-26.564934 27.912837 -9.140008
-25.933344 29.121905 -8.240658
-25.978853 25.681351 -9.052399
-26.137698 25.397071 -9.811936
-24.931837 26.086529 -8.020846
-26.635957 24.291706 -9.642290
-26.090421 24.344494 -9.082926
-26.092256 23.318652 -10.219899
-24.556215 25.965611 -10.658548
-23.764714 24.123414 -8.935925
-25.723557 24.463732 -10.099502
-26.781964 23.699485 -10.187588
-25.092567 22.237672 -10.724265
-23.435972 23.485204 -9.371518
-22.043252 25.255029 -10.298438
-24.986406 24.891188 -10.455671
-24.377791 23.558349 -9.611107
-24.998892 23.770701 -8.714487
-25.349350 22.293216 -10.096515
-25.335465 20.611546 -8.699691
-23.918754 22.346847 -9.508845
-22.380043 22.773447 -9.900964
-22.186812 25.216684 -8.825730
-21.992125 24.379377 -8.780623
-21.192323 22.683024 -9.002043
-25.613239 20.975920 -10.640695
-25.400459 20.188835 -10.222603
-23.761583 20.434549 -10.064076
-24.555593 21.208354 -10.833292
-22.542544 20.327804 -9.840419
-21.632249 23.336704 -10.341001
-22.076979 20.640187 -10.719987
-23.138198 22.497909 -8.729753
-20.767124 22.976409 -8.993961
-27.146543 20.252770 -10.725590
-25.310761 19.132904 -8.722388
-23.533583 20.357697 -10.563827
-24.693880 19.005278 -11.487715
-23.359042 19.501923 -10.346575
-20.298043 22.465974 -8.433618
-19.493339 22.846454 -9.496595
-22.167556 21.385709 -10.222017
-21.173159 24.304001 -9.041424
-20.654145 19.782558 -9.654702
-25.584318 17.977769 -10.803318
-24.715100 17.598141 -10.406867
-24.359200 16.971801 -10.612180
-21.546383 17.220342 -10.358380
-20.509093 18.799603 -10.793309
-19.280235 18.147148 -11.390587
-19.987901 20.402278 -9.823197
-19.018037 21.057561 -9.713789
-19.820254 20.126383 -9.558135
-19.427872 21.952106 -8.805519
-20.273535 20.366924 -9.033644
-19.102814 19.585685 -8.431479
-25.665464 16.297026 -11.679679
-25.851971 16.418630 -10.537359
-26.273542 14.399707 -13.193745
-26.075789 13.614159 -11.962409
-27.348571 12.112996 -11.501473
-25.714053 11.554178 -12.238969
-25.685721 9.908156 -13.059926
-27.285574 8.304636 -12.410331
-26.085614 8.360019 -13.381893
-26.688773 5.588007 -12.318888
-27.682927 6.839116 -13.629849
-25.576403 4.520526 -13.529275
-26.417540 16.831550 -10.205694
-25.249022 18.131460 -11.539543
-21.734504 18.012082 -11.705622
-21.185912 17.082647 -9.191635
-20.658003 18.304796 -10.124191
-18.722702 18.317068 -11.093012
-18.357654 20.439441 -9.750984
-19.392946 21.385396 -8.526872
-18.104366 22.167550 -9.843046
-18.918233 18.836434 -10.939707
-17.461942 20.601121 -10.007897
-25.282669 16.502796 -11.384524
-26.210834 14.212983 -12.246703
-24.678786 12.727056 -10.388138
-25.395187 12.266912 -11.970146
-26.594867 11.699751 -13.369496
-25.476867 10.977575 -12.568481
-24.944471 9.176689 -12.965119
-23.219606 8.521560 -12.041942
-24.861744 7.069370 -14.763445
-26.888027 5.334649 -11.826240
-25.522767 5.713311 -13.166519
-24.045153 5.571647 -14.343470
-23.180646 4.763004 -12.683265
-22.407294 5.311844 -13.025228
-24.587397 15.721563 -12.162245
-22.563099 16.387385 -11.133656
-21.316218 15.782475 -12.309769
-18.488194 16.225821 -10.932467
-18.598280 17.032666 -10.836805
-18.287693 18.526056 -9.104388
-20.285716 15.787154 -10.286433
-18.204387 17.896930 -9.501294
-17.647528 21.862535 -8.611908
-18.899419 20.975981 -7.448426
-18.017590 19.288120 -8.879604
-17.541955 19.197499 -8.447196
-21.623178 12.939012 -10.398833
-23.630330 14.606465 -10.756542
-24.171926 12.375245 -11.355016
-24.570264 11.648748 -11.556634
-24.406961 9.590508 -12.034178
-24.317215 9.946703 -13.420563
-22.286228 8.246150 -11.988562
-24.709699 7.683786 -14.868982
-23.606962 5.809901 -12.862947
-22.576517 6.022695 -12.325800
-21.855136 7.382028 -12.980812
-20.987556 6.124806 -11.806644
-22.269885 5.260028 -14.115633
-22.713619 15.546350 -10.437221
-21.872095 15.726702 -11.468166
-20.446425 14.010968 -10.515475
-18.911829 15.112644 -10.496735
-19.817584 14.325665 -9.904292
-19.993682 16.561660 -10.883183
-17.527877 17.261169 -8.834712
-17.165876 17.089464 -10.158263
-19.091957 14.964452 -10.422016
-15.657189 16.917650 -9.662193
-17.149525 19.400980 -9.277561
-17.588733 19.775781 -8.617704
-15.275555 19.448215 -8.899441
-22.869598 13.645936 -10.815868
-22.564188 12.622156 -10.274192
-23.033939 11.357495 -13.296362
-22.860451 11.405131 -11.490555
-22.023542 9.533037 -12.909975
-24.256742 8.651042 -12.483537
-22.782184 6.450194 -12.524829
-20.176973 7.188591 -12.797154
-21.175909 6.997085 -11.444157
-19.583893 4.084119 -11.221387
-19.396992 5.721809 -11.698312
-19.383620 6.695932 -12.030528
-21.960839 14.757373 -11.311333
-20.929670 14.536734 -10.907756
-19.122818 14.249065 -10.325725
-17.447439 12.776812 -10.141938
-17.188835 15.158014 -9.945931
-16.592695 14.904544 -8.981851
-16.195359 16.516224 -8.631136
-15.774389 16.355849 -9.575246
-16.590019 13.948401 -10.462423
-12.779439 16.998271 -8.228946
-21.611361 13.957705 -12.088832
-21.324455 10.573429 -11.483454
-22.107487 11.790973 -12.084736
-21.424274 8.308579 -10.966689
-22.277252 7.226657 -13.824750
-19.978499 9.115305 -11.537113
-19.146279 7.544226 -11.649716
-18.451176 4.940542 -10.421093
-19.063107 6.250826 -13.097181
-20.423574 7.270066 -11.300542
-20.252352 8.423734 -11.368941
-19.592726 11.823423 -11.331366
-18.737090 13.592717 -9.908590
-17.503432 13.023396 -11.713453
-16.176992 13.305091 -9.052027
-16.613566 14.741428 -9.262741
-16.038108 14.805933 -9.597412
-14.978737 15.821193 -9.659833
-13.659069 17.116957 -8.888372
-15.198753 13.518768 -8.005219
-19.546585 12.177802 -11.261813
-20.929486 9.364768 -12.332611
-21.085784 7.668799 -11.390578
-19.976668 9.507897 -12.961002
-18.336210 7.345152 -11.222656
-18.189873 4.359709 -12.270574
-17.568968 6.703589 -11.073592
-17.940068 6.390645 -11.187026
-16.495905 8.045106 -10.178268
-17.423514 8.344562 -10.511012
-18.062417 11.798195 -9.651280
-18.080010 12.078757 -10.946387
-17.225075 13.142051 -9.587148
-16.070193 13.236835 -9.087566
-16.115785 13.869871 -8.438226
-14.926625 14.200048 -8.397082
-14.084636 15.246522 -8.792459
-15.877551 13.397742 -8.502101
-20.013402 9.166640 -11.600018
-18.022678 9.060095 -10.689058
-16.879125 9.734477 -10.632808
-16.924010 3.264874 -11.796519
-16.616898 5.500163 -11.494987
-17.085167 5.777561 -11.235330
-17.269711 6.699588 -10.658154
-17.352243 8.657657 -11.073764
-17.006410 7.270055 -10.487294
-16.588811 10.197585 -11.047271
-17.068994 11.262113 -10.101030
-15.023974 11.043115 -8.587159
-15.427506 12.785184 -8.515251
-14.338352 13.229191 -7.949086
-14.931066 15.106164 -9.138784
-13.027178 15.183053 -8.328354
-13.714980 13.207398 -7.696213
-15.565225 11.222423 -10.030554
-16.520004 8.375659 -9.915261
-16.009054 4.019598 -10.899130
-15.454250 4.716394 -12.001866
-16.556779 6.664278 -10.458627
-16.247388 8.824686 -10.310614
-15.645041 8.731710 -9.022191
-16.556000 10.581515 -11.557015
-16.444844 10.789535 -8.721962
-15.665524 11.645524 -8.987787
-12.911715 13.246072 -9.459390
-13.181822 13.639703 -8.962249
-12.605949 15.220443 -7.245217
-11.217940 12.760666 -7.445733
-15.791196 9.648396 -9.798820
-13.532430 10.245824 -10.971149
-15.033019 7.569628 -10.516513
-14.835346 9.046855 -10.228802
-16.023382 2.290988 -9.963662
-14.777128 5.546017 -11.903046
-14.668229 7.629777 -9.979083
-14.872638 8.397863 -10.364022
-14.349021 9.609416 -9.658999
-14.242609 10.587859 -9.810535
-13.264249 9.077957 -8.416709
-13.484795 10.803305 -9.660906
-10.911990 11.327727 -5.904687
-14.291618 9.998683 -8.075513
-14.678839 7.954702 -11.244593
-14.123959 6.113922 -8.417060
-13.786215 8.097679 -10.485122
-14.709604 3.606877 -10.285449
-14.771117 6.106187 -9.794465
-14.565306 6.559498 -11.021691
-14.190569 10.870946 -8.621797
-12.742050 10.725761 -6.970952
-11.321180 10.237149 -8.689331
-10.740652 11.367209 -6.883184
-13.140335 8.879392 -8.627161
-13.612366 8.235791 -8.863780
-11.607614 5.278577 -9.012540
-14.053634 6.519336 -10.421391
-13.218485 4.301834 -11.088018
-13.496106 4.599900 -8.599511
-12.930011 9.209573 -8.282029
-10.937710 10.019078 -8.375422
-10.427527 11.917641 -8.491084
-13.345466 8.726249 -8.379768
-12.279771 6.199560 -9.430704
-12.693887 5.599743 -8.685394
-11.109725 6.994389 -8.206920
-12.679730 3.139742 -8.525570
-11.130342 7.929398 -9.186228
-10.633671 10.059860 -6.781264
-12.139272 7.776175 -7.154625
-11.206942 4.944890 -8.376639
-11.649688 3.822357 -7.931301
-10.807792 7.186111 -8.468948
-10.264157 7.647347 -7.403025
-9.378628 6.233741 -6.823001
-8.978619 7.128195 -6.978531
-11.348713 6.188773 -7.063948
-9.018419 4.746015 -8.811044
-9.586942 2.905221 -8.495836
-10.770229 6.529287 -7.945626
-9.772369 6.993593 -6.888128
-8.538971 5.241408 -8.392811
-10.045231 4.404288 -7.181399
-8.300803 6.247160 -7.172826
-8.851936 6.244838 -6.305358
-8.025714 4.757992 -6.293579
-8.028781 3.340358 -5.424464
-7.810671 5.524695 -4.384878
-8.887769 4.020404 -6.246744
-7.434607 3.001499 -5.082475
-7.417830 4.764559 -4.677776
-5.327425 3.377300 -4.710081
-6.851079 3.804673 -4.392233
-5.586561 3.141031 -2.906006
-4.991661 2.337501 -4.226336
-4.076729 2.743224 -3.187491
-4.632296 3.006086 -2.380361
2.767322 15.806798 -13.774590
2.907501 15.205267 -13.062050
1.341503 15.536528 -11.406426
1.846883 16.483289 -11.972778
2.512545 15.477894 -10.290947
4.117161 14.886896 -8.192581
3.507184 15.322789 -8.589265
3.381711 15.841056 -13.959789
4.365064 14.039706 -11.096405
4.107285 14.875669 -12.108561
4.026884 16.179841 -11.399229
3.990795 14.514098 -10.567749
2.777486 14.845345 -9.106237
5.254113 15.408147 -8.249877
5.651149 14.745621 -14.015722
3.447422 13.949184 -15.179865
4.687499 13.931194 -13.418028
4.239198 13.795276 -10.640315
5.402019 14.396922 -9.793009
5.691479 14.402754 -10.842967
2.213650 13.805584 -6.413688
4.887588 12.675452 -13.360419
6.809263 12.587927 -13.322333
4.947231 13.952128 -12.672420
4.964059 12.953935 -10.773888
5.966753 13.317601 -10.272426
4.961562 12.100320 -8.787211
4.813644 13.041594 -8.915428
-0.643189 -25.585673 8.318078
0.920192 -25.181330 10.242067
-0.119349 -24.863442 8.475878
-0.378313 -26.508142 7.932700
-0.640429 -24.922694 9.605604
-0.661023 -24.677061 9.394930
-0.584019 -26.825360 5.949006
-0.280992 -26.025564 8.507727
-0.413938 -24.257007 8.345793
-0.330279 -25.465567 5.715609
-0.663919 -25.951356 7.492811
-0.911792 -24.977739 8.006783
0.726605 -26.466470 5.962894
1.684167 -22.847733 5.973475
-0.173945 -24.076056 5.052407
-0.996602 -26.429421 3.431619
0.732499 -24.498977 3.703116
-0.903542 -22.838880 5.042941
-0.600275 -22.219380 3.146975
0.054527 -24.316080 3.381705
-0.391112 -25.726763 2.888833
-0.768506 -24.396240 2.222552
-0.070083 -24.708183 1.263346
0.730199 -25.269899 2.280653
-0.297566 -26.241470 0.475731
0.268737 -23.691995 0.137007
-0.486367 -23.047809 0.991349
-0.959479 -25.233928 -1.088292
0.716900 -24.683776 -1.057582
0.467700 -20.920172 -0.484196
-0.712676 -25.100476 -1.576734
-0.325771 -23.902093 -0.482156
-1.185350 -23.654579 -1.955747
-0.455439 -24.192418 -3.357226
0.367133 -23.984823 -2.655696
0.928400 -23.440307 -1.652031
-0.710657 -25.472834 -5.687885
0.215114 -25.693639 -4.996921
0.276164 -22.312713 -4.308389
-0.915040 -24.789788 -5.247230
-0.732499 -24.118554 -5.590172
-0.908337 -22.075436 -4.182202
-0.150709 -24.224901 -6.281671
-0.150952 -22.049181 -6.301774
-1.197890 -22.560803 -6.990082
-1.286156 -25.237846 -6.486065
-0.077239 -23.214103 -6.940208
-1.216700 -21.773598 -8.242354
-0.412810 -24.752862 -9.921417
-1.072030 -23.481156 -8.288285
1.439503 -22.207563 -9.747867
-1.820059 -23.093462 -8.949613
0.513740 -23.634507 -8.977248
-1.717266 -22.914940 -10.034905
0.336617 -25.096712 -10.621571
0.186181 -22.082649 -11.634195
-0.517271 -22.362800 -13.180885
1.147970 -23.615539 -12.830996
0.323596 -22.598040 -12.462785
-0.341225 -21.935999 -11.623357
-1.696865 -25.779375 -13.514609
0.005102 -22.890099 -11.729662
-1.365296 -21.950823 -13.278273
-0.437393 -24.586351 -14.773987
0.966099 -23.055170 -12.977048
-0.800403 -23.044575 -13.531148
2.319961 -30.564668 8.944785
3.337581 -29.473749 9.583259
-0.026633 -29.410848 8.357018
0.921148 -27.574469 9.881853
1.979480 -29.031820 8.164083
2.135025 -29.829132 8.562329
1.791032 -30.029222 8.518706
0.466348 -27.014145 7.545603
2.160689 -28.251833 7.303892
2.337879 -29.128417 7.427301
0.342283 -26.438782 7.265812
-0.023076 -26.308517 8.342644
2.936668 -30.399598 5.370447
1.205542 -27.967178 5.519421
1.141654 -26.925806 4.693741
1.151951 -27.008076 6.757517
4.552412 -28.947395 4.587375
0.568012 -28.642904 3.996838
-0.082599 -28.265191 5.298669
0.221432 -28.231422 4.362357
3.299137 -29.111874 2.176789
2.417381 -29.653349 4.081505
2.262059 -28.858896 3.135805
0.898922 -26.374759 3.857440
2.794272 -26.848787 3.736415
0.801429 -27.852393 3.102493
0.352131 -27.542004 2.283427
-0.729343 -25.317528 2.674266
2.244392 -28.873697 0.731651
2.373802 -29.067248 2.214551
0.434477 -29.270328 1.514573
-1.538078 -26.211165 0.681504
3.130043 -29.026861 1.984689
1.150625 -27.944933 0.426365
1.161317 -26.678391 -0.204801
1.337366 -26.270386 1.125715
2.698384 -28.607596 -0.617140
1.188828 -28.766214 0.632244
-0.059374 -27.448808 -0.670402
-0.853438 -26.529790 0.267097
2.679194 -28.221317 -2.193008
1.739876 -27.467459 -2.861344
0.791309 -27.636846 -0.919459
0.436040 -25.848032 -2.256993
2.649730 -28.603975 -3.774035
2.276619 -29.857904 -3.674449
1.532272 -26.759251 -2.401193
-0.365601 -27.592525 -2.440535
1.905386 -27.397517 -4.418210
2.000690 -27.428245 -4.161505
-0.379076 -26.873412 -5.320134
-0.712520 -26.854908 -5.596502
4.067462 -27.169866 -5.022686
1.798211 -28.032945 -5.237964
0.615763 -27.266185 -5.811512
0.010542 -25.017773 -4.809103
2.478852 -28.637047 -6.301921
0.578744 -25.989285 -6.468568
0.272941 -27.036098 -7.042944
-0.292132 -26.883764 -7.178328
3.632853 -27.962307 -7.352878
2.148065 -27.236276 -6.187659
1.537230 -28.970400 -7.235125
-0.970855 -26.488964 -7.403789
3.768382 -28.921439 -8.992140
1.865268 -26.536855 -9.203723
-0.329738 -26.284461 -8.351023
-0.247641 -26.619578 -8.958491
1.756403 -27.035539 -9.827488
1.289364 -27.577402 -9.162793
0.080545 -28.192093 -10.298753
0.207440 -26.680286 -8.953997
3.626166 -27.491957 -11.967848
1.698715 -27.023504 -10.444640
0.776345 -26.585935 -11.608685
0.138554 -25.222103 -9.994025
0.291752 -28.769751 -11.869425
1.209418 -27.816960 -10.561428
1.478564 -25.687502 -12.207989
0.827797 -26.906602 -12.440446
2.176948 -28.719435 -12.016289
1.484585 -28.124576 -13.574632
-0.088462 -28.213999 -12.876061
-0.432231 -26.420325 -13.332248
2.690669 -27.883917 -13.028597
3.279786 -27.565392 -13.895635
0.958568 -25.389728 -12.821272
-0.123325 -26.143125 -15.692720
9.442849 -29.786654 8.700758
9.253742 -29.262660 9.437723
6.679138 -29.494414 8.805406
6.718445 -28.606361 8.158192
6.479702 -29.144026 10.325866
4.953120 -30.441041 9.446985
9.340203 -28.804944 9.578195
7.469251 -29.482542 7.174513
7.329985 -28.338796 7.401676
5.299623 -31.247120 7.889355
4.807682 -30.142986 7.427460
3.508175 -29.387864 8.732106
9.078552 -29.206923 7.437313
8.444034 -28.873708 7.650477
7.007200 -28.967904 7.045928
6.797281 -27.685804 6.531039
5.551419 -28.831679 5.958312
3.666296 -28.903411 6.289552
10.189924 -28.121748 5.080477
7.526929 -27.537977 5.877535
7.279088 -28.661077 7.110592
5.583184 -28.946364 5.000775
5.140818 -29.107427 6.234647
4.689163 -29.425152 5.739697
9.491177 -29.446199 4.623484
7.572284 -28.236220 3.661574
7.814746 -27.627869 4.713408
5.520505 -29.072160 4.371112
4.814447 -29.762121 4.148128
3.525220 -29.049228 4.509223
10.225802 -29.048529 4.220003
9.296578 -29.472814 4.493411
6.669312 -28.892085 3.655483
6.364905 -29.451807 3.325848
5.654768 -28.218631 5.314110
4.898721 -29.079056 2.563738
7.552588 -29.882057 2.496969
8.225485 -29.015434 0.878881
7.255289 -27.953558 3.166547
6.882787 -26.310231 2.286237
4.982497 -30.325271 3.237332
3.423509 -27.824551 2.522585
10.164936 -29.221751 2.641504
7.390859 -28.537493 0.926448
7.577846 -27.232914 1.644947
6.969183 -28.941651 1.507462
3.934258 -29.432960 -0.016984
2.581788 -28.433423 0.910544
9.620909 -27.011996 -0.506939
7.775868 -29.010660 -0.278699
6.796306 -26.591430 -1.301213
6.519687 -27.581733 0.739986
4.637993 -28.425123 0.271607
4.833131 -27.492129 -0.225921
11.474337 -26.860417 -1.256148
8.092354 -28.520954 -0.914087
6.648071 -27.684672 -1.373083
5.172311 -27.453420 0.022436
3.401644 -28.167686 -2.402884
3.352801 -26.421721 -1.362851
10.292361 -28.228384 -3.605371
8.228169 -28.331468 -2.015736
6.939453 -28.886176 -3.023405
6.264623 -29.506653 -2.313281
5.184303 -28.282332 -1.594934
4.600341 -27.719428 -2.078645
8.773837 -27.927713 -3.734183
10.291393 -29.560269 -0.303817
7.886671 -27.169673 -4.799602
7.430436 -28.174872 -3.470197
5.259813 -28.580467 -3.145600
3.877713 -27.670724 -3.838030
9.686698 -26.804775 -3.851114
9.319082 -27.737552 -5.164184
6.401909 -28.206306 -4.268251
6.275554 -28.207086 -4.305272
5.599100 -27.593958 -1.896859
3.516650 -28.300658 -3.986899
10.452166 -27.290581 -5.203322
8.093909 -28.314072 -6.061571
7.474581 -28.664833 -4.603444
6.614917 -28.943803 -4.807096
4.398569 -28.517333 -5.120168
4.712935 -28.165398 -6.123169
9.437204 -27.917959 -6.394242
8.153817 -26.888676 -8.087009
7.453265 -27.941504 -5.372191
6.403606 -27.810231 -5.992960
5.891982 -27.618100 -7.305067
3.536511 -28.033070 -5.842354
9.387038 -28.042103 -9.022429
7.949122 -28.721469 -7.751236
5.756570 -25.159239 -7.231019
7.723915 -27.682009 -6.678595
5.337606 -28.359475 -7.482162
3.790404 -28.657844 -7.634603
9.327921 -27.655008 -8.836122
9.421757 -27.715846 -7.164928
4.884381 -28.480825 -8.797746
5.388858 -28.502277 -10.571219
5.122921 -26.431283 -8.162856
3.155661 -28.264223 -7.055364
8.819364 -26.445030 -9.325920
9.445586 -28.276155 -10.181042
8.262670 -26.687341 -8.588079
6.679722 -29.156542 -11.423238
3.331650 -28.179303 -9.210916
4.568999 -26.992842 -10.270978
10.675878 -27.856491 -9.902563
7.503434 -27.047901 -10.977916
7.794211 -28.384815 -12.190100
5.435523 -28.108046 -11.724825
6.341720 -27.737969 -10.160703
2.428627 -27.139881 -11.617145
9.799361 -28.937768 -11.810223
9.189351 -27.622389 -13.053050
7.712893 -27.908880 -13.000214
6.660077 -28.735367 -12.510686
4.793060 -27.086248 -12.491884
3.669833 -27.979081 -11.008478
8.425867 -27.508954 -12.536726
6.712643 -26.993362 -13.645191
6.233320 -28.111980 -13.656861
6.746976 -25.241766 -13.186391
5.351973 -29.318287 -13.419718
2.511872 -27.427629 -13.230455
8.310975 -27.141124 -14.756144
8.932724 -27.274939 -14.327285
5.954627 -25.619232 -12.444190
4.589829 -27.748766 -14.708516
4.596269 -26.988439 -14.144693
4.159114 -27.980884 -13.570886
13.050606 -26.060084 9.217790
11.947221 -25.758607 9.572908
11.791714 -28.790647 8.265515
9.527833 -29.079603 9.159653
11.694053 -27.222580 8.462940
11.118181 -27.611216 8.246348
13.510824 -29.437048 7.283329
8.958264 -29.770729 9.092552
10.828791 -25.704573 7.175419
13.595524 -26.760110 7.879510
10.635884 -28.594422 6.079276
11.746719 -28.831429 7.085288
12.698295 -26.307170 5.884843
10.887950 -27.843357 5.805772
11.290797 -27.201890 7.642594
10.587855 -29.345606 5.570079
11.574548 -27.591883 5.121065
11.588876 -26.448389 4.626680
12.719659 -29.838672 4.450854
9.063516 -29.263760 4.754215
12.373799 -26.229169 2.493811
13.048794 -26.098001 2.550401
11.312493 -26.569036 3.242873
10.173511 -27.407299 4.415144
13.014116 -26.253863 4.152541
12.083431 -26.783663 3.020652
10.868507 -27.765670 2.369700
10.289546 -29.176764 1.504553
13.702903 -23.423707 1.746960
12.368111 -25.199240 0.750726
11.267542 -29.065309 2.269905
11.312149 -27.293398 0.352550
13.301923 -25.779551 0.534996
11.366064 -27.179202 1.299561
11.984625 -27.678281 -0.399571
10.867799 -27.491667 -0.607886
13.635703 -25.804078 0.190039
11.436204 -27.849442 0.712540
11.570496 -27.787467 -1.409595
12.159486 -27.961604 -1.385070
12.607291 -25.184054 -0.495571
13.243660 -25.811321 -2.627795
12.082907 -29.563578 -1.408079
10.835552 -27.652464 -2.327347
12.630683 -24.702691 -4.223292
11.169237 -25.819445 -2.841049
12.471437 -28.397515 -3.376657
10.271204 -28.007489 -4.716129
11.378091 -26.282442 -3.541589
13.833370 -27.862808 -4.079262
11.012154 -27.243326 -4.446957
8.887324 -27.689018 -4.585080
12.497060 -24.381948 -5.536730
12.290204 -26.170243 -4.926208
13.453028 -27.089973 -5.260383
11.270071 -26.843373 -5.523325
12.728417 -24.036066 -6.598335
12.356567 -26.404568 -5.771384
11.769352 -25.439887 -6.545548
10.965785 -27.241893 -7.141668
12.097853 -23.433306 -7.718344
12.514307 -27.011057 -7.634198
11.688832 -26.174635 -6.931277
10.243509 -27.323527 -7.157744
11.802919 -24.347076 -8.702537
12.310427 -24.156436 -7.955698
11.614000 -27.752126 -8.312080
9.500655 -28.279523 -7.988216
12.851883 -25.525717 -9.762605
11.968103 -25.329754 -9.244982
12.020692 -26.696634 -9.605584
8.916268 -26.844100 -9.583414
11.548327 -23.750103 -10.881771
12.702475 -26.928109 -10.255085
11.002305 -25.485524 -10.602365
10.027069 -28.253179 -10.422482
13.602661 -25.055094 -11.874278
11.806428 -25.408767 -10.577404
12.142909 -26.835645 -10.760940
11.296335 -27.203054 -12.209241
13.791754 -23.873326 -13.692368
12.171142 -26.177333 -12.572964
11.174638 -27.349872 -13.105645
10.378240 -28.080261 -13.184574
12.957303 -24.869906 -12.722540
11.332153 -26.179460 -14.288290
11.851034 -26.473847 -14.488167
9.890947 -26.559060 -15.258844
12.594889 -17.570166 -14.555665
11.356101 -17.316692 -11.990981
12.900638 -17.281631 -13.431371
11.708818 -18.311719 -10.679923
11.353581 -17.656721 -9.049599
11.293263 -17.253751 -7.696146
12.849344 -18.533766 -8.022014
13.970528 -17.899727 -5.415393
12.240385 -18.559538 -4.088204
12.356417 -17.385607 -3.575512
12.763649 -17.850504 -3.098173
13.327253 -19.156212 0.699964
12.817408 -18.138931 0.104586
12.792171 -18.702508 -0.156917
11.704448 -17.512812 1.784539
13.026685 -17.532201 4.081774
12.335745 -18.779599 4.448569
12.268473 -18.387488 5.231169
12.031983 -18.195150 7.362869
12.662339 -19.489000 7.437085
12.459849 -19.991979 8.663919
13.359561 -18.376460 9.445785
13.350997 -16.712341 -13.028877
11.877553 -18.213682 -13.513445
12.827555 -18.398236 -11.608932
11.765159 -20.072598 -10.098661
11.136525 -19.123909 -9.005510
13.000039 -16.870255 -7.856165
11.783002 -18.718254 -7.473159
12.515253 -18.356569 -6.017979
13.798716 -18.067905 -3.233849
11.667841 -18.904233 -3.394765
12.835953 -19.306869 -2.703695
11.030658 -19.726157 -2.680197
12.365441 -21.301074 0.760595
12.447710 -18.962467 1.266298
12.660393 -20.063585 2.500698
13.560946 -19.208646 2.406042
12.409550 -19.476949 4.522774
11.730347 -20.851286 6.370041
12.729444 -20.707125 7.227390
11.577224 -19.322399 8.842378
11.955973 -18.804377 8.590150
12.797031 -21.776401 8.979995
11.048338 -19.877032 -12.985903
11.462262 -19.084079 -12.832177
11.971661 -20.312966 -9.818162
13.808033 -20.777626 -9.420009
11.784454 -18.832067 -8.462385
11.477333 -20.016521 -7.527187
11.962025 -19.992545 -7.240305
12.967885 -21.143801 -5.047754
13.231148 -19.099373 -4.638052
11.903407 -19.949389 -2.432785
13.238647 -18.868987 -2.516465
12.096901 -20.888251 -2.033379
12.552381 -21.315069 0.982807
11.243784 -21.830344 2.926189
12.974402 -20.499997 2.471901
12.331671 -21.225268 3.739194
11.706120 -20.896916 3.684908
12.538895 -22.284622 4.701400
11.886749 -21.768504 5.811768
11.777489 -21.725027 6.342113
10.934475 -21.328009 9.983884
13.036763 -22.144426 10.601367
11.004071 -20.925852 -13.533549
12.406375 -21.606115 -13.362012
12.382580 -19.760709 -11.542526
12.245349 -21.820992 -11.091717
11.088062 -20.661785 -9.597532
12.711143 -21.752539 -8.164382
13.299388 -22.106534 -8.083123
11.388136 -20.429299 -7.027879
12.695716 -22.488934 -4.436699
12.131735 -20.886458 -3.430968
11.440010 -23.347153 -2.783341
11.411960 -20.762729 -1.192473
12.452697 -22.648297 0.774241
13.265244 -22.350321 0.821704
13.062505 -21.684414 1.890707
12.706984 -22.727630 1.803586
13.298885 -23.254860 3.778282
11.929845 -23.100726 6.508306
11.048872 -22.295295 7.079552
12.483272 -22.111874 7.218342
13.188613 -23.643383 7.536389
12.832214 -23.231693 10.260480
13.140437 -22.033033 -13.907859
11.638386 -22.325778 -13.286220
11.769440 -21.775789 -11.045996
11.126165 -21.402604 -10.838849
13.121112 -22.354621 -9.046948
12.763518 -22.158873 -8.036832
12.286651 -22.276858 -5.735092
12.466548 -23.119040 -5.602279
12.227721 -22.303802 -5.877321
12.647379 -23.146830 -3.184693
11.905542 -23.282765 -2.648809
12.748796 -23.271886 -1.433723
11.867702 -22.229057 -0.995632
12.759110 -22.877936 0.383855
11.388514 -23.145674 0.717317
11.940709 -23.526432 4.369395
12.940906 -23.218629 4.302370
12.531331 -23.950185 6.290922
12.253103 -23.542648 6.379602
11.646093 -23.893957 8.151720
12.667954 -25.587027 9.431216
13.336615 -25.188834 8.785620
11.667752 -23.050255 -14.077881
13.561959 -23.879539 -12.697243
12.210487 -23.381408 -11.382187
10.936758 -24.351403 -9.924102
12.433566 -23.813169 -9.897821
12.512570 -23.637018 -8.279915
11.397099 -25.939457 -6.599719
12.356847 -24.016416 -6.010798
13.523235 -24.145116 -6.136101
12.516315 -24.262762 -2.848304
11.713376 -24.271571 -3.328383
12.892931 -24.487154 -0.847230
12.779515 -24.835704 -1.484153
10.660779 -23.921258 -0.337643
11.452550 -23.714483 1.360362
12.173024 -23.175547 2.814806
11.962900 -25.601462 3.485226
10.541272 -25.333090 4.149778
12.010496 -26.679920 5.371189
13.546290 -24.478293 7.738036
11.697539 -25.946759 9.027011
12.948359 -25.372193 8.348555
23.558993 -5.778396 -13.291213
24.490167 -6.790041 -13.747851
23.879649 -6.061316 -12.696256
24.110383 -5.412579 -8.754841
23.761613 -6.492073 -8.409797
24.449675 -6.080532 -7.771995
23.920625 -6.883889 -7.396561
24.017993 -7.985602 -5.786373
23.406495 -6.061090 -3.370035
23.170747 -6.580798 -3.419544
23.919852 -7.554062 -1.615863
24.176900 -6.744749 -0.186787
22.532109 -7.446491 1.027065
24.225676 -7.506068 2.962546
23.908777 -7.440155 3.607624
24.812634 -7.920743 5.277776
23.883926 -6.673260 6.869457
24.210364 -5.513266 7.483942
22.565943 -6.980504 9.145960
24.170643 -5.977429 8.868371
22.828678 -7.909163 10.641651
23.769940 -6.945552 11.584182
21.958704 -7.626786 -12.622724
23.709578 -7.594591 -11.357268
21.802679 -6.745628 -10.812709
22.988209 -6.298993 -9.355606
22.801763 -7.307216 -8.650964
23.022503 -5.392054 -9.129638
22.473989 -7.248533 -6.989419
22.686920 -6.139972 -5.203450
23.119024 -5.812939 -4.199577
22.968104 -5.923112 -2.486166
22.464743 -6.269355 -2.382112
23.642401 -7.877289 0.554869
23.751014 -5.350146 2.004818
22.687770 -7.320918 0.470416
23.546961 -6.974443 3.648497
21.514741 -8.303223 4.995283
20.570991 -7.316410 7.665307
21.948673 -5.912904 7.199186
24.522593 -7.696679 8.682681
22.414142 -8.833881 9.976528
22.472289 -8.449338 12.536185
22.605271 -8.682710 13.831041
21.085416 -7.717751 -14.319249
20.979999 -5.476139 -12.821426
20.506423 -5.861965 -11.756362
20.975364 -6.114186 -10.654808
20.783666 -7.175624 -8.612600
21.735933 -5.326549 -7.788775
20.688655 -6.283534 -4.793882
21.057891 -6.516551 -5.932749
20.609997 -6.771816 -3.544090
21.117375 -6.444565 -1.658725
21.480635 -6.972296 -1.735494
19.935045 -5.318921 0.101852
22.770094 -7.511266 3.118704
20.982220 -6.980656 3.513493
21.523042 -7.623689 3.230396
20.294838 -7.743226 4.996578
21.015682 -7.603836 5.259557
19.914166 -7.645301 8.943112
20.838847 -7.923184 8.396800
20.837885 -7.220775 10.747289
21.843738 -9.827029 10.941776
21.611554 -7.786178 11.834528
19.604816 -6.537990 -13.723564
20.353445 -6.170308 -12.469526
19.470605 -6.207248 -9.827871
21.083838 -6.541320 -11.067233
20.701793 -5.258777 -9.704566
21.661470 -6.230766 -6.932168
19.286848 -7.132389 -7.302959
19.902863 -6.285067 -5.837785
19.975149 -6.436797 -3.330735
20.990578 -7.102268 -2.108444
18.855700 -7.015808 -0.876837
20.740825 -6.415705 -0.249243
21.766939 -7.537413 1.486433
21.104532 -7.811470 3.115267
20.045709 -6.044304 3.963009
20.295739 -7.193006 5.744121
21.016214 -8.134824 6.988985
21.145310 -7.104692 6.516276
21.144230 -8.879982 9.327956
20.967455 -9.947239 10.189836
18.932877 -7.470441 11.619933
22.310680 -9.700339 12.916830
19.259317 -7.362882 -14.221877
19.476747 -6.881298 -11.988186
19.767827 -6.911788 -11.501568
20.196150 -8.898179 -9.525257
20.106598 -6.840750 -9.504035
20.513786 -7.014221 -7.919243
18.907201 -7.470722 -5.825662
20.475381 -7.136230 -5.871423
19.731849 -7.318443 -4.506588
21.064585 -7.592617 -1.602758
19.155795 -8.984320 -2.362142
19.498870 -5.995413 0.145793
20.402067 -7.270282 1.074349
19.283329 -8.509260 0.832042
18.422234 -7.243345 3.855433
20.035223 -6.919190 5.900714
19.438769 -9.910763 6.210054
19.402683 -8.867749 6.632476
18.061124 -7.575727 9.373988
20.208359 -9.732298 11.401773
19.572493 -9.853173 10.151379
17.647417 -9.949340 13.490615
17.215400 -6.813069 -13.202789
17.242949 -8.355258 -11.951797
17.290473 -8.160148 -11.728872
17.180930 -6.218952 -9.627802
18.097180 -7.449345 -8.196482
17.497232 -7.515524 -6.523297
18.968298 -8.165458 -5.943855
18.478298 -8.107842 -5.066480
18.366498 -8.362381 -2.559859
19.590064 -7.380835 -1.363913
17.703975 -7.611130 -1.822435
18.956623 -7.471658 -0.692219
19.515144 -8.544434 0.869298
18.583243 -6.552294 2.055589
18.650744 -8.077645 3.511194
17.346795 -7.411748 3.875569
18.975027 -8.767266 7.079503
19.445316 -8.836634 8.919599
19.097578 -7.602366 9.065426
17.643175 -10.003039 10.113442
19.029533 -9.614314 10.181551
16.370615 -10.355104 12.653571
17.458575 -8.288774 -14.619033
17.554294 -8.480644 -13.045913
17.428494 -8.964897 -11.374756
16.501922 -8.592841 -9.979819
18.787308 -8.030726 -8.668852
16.677048 -8.104686 -7.895453
15.107196 -7.028284 -6.329240
16.905703 -8.297888 -4.866230
18.198109 -8.482129 -3.999384
16.686350 -11.138036 -0.934409
17.135438 -8.714271 -2.260064
18.312213 -8.948830 0.091893
17.606813 -8.604496 1.361676
17.788348 -9.143173 1.896136
16.475731 -9.621183 2.539719
17.812716 -9.255969 3.764790
19.043081 -7.923352 5.772677
17.177657 -8.296443 8.613033
16.969445 -9.154439 8.936671
16.738713 -10.423842 10.190058
16.730448 -9.594832 11.585402
14.741776 -9.774692 12.279653
16.148423 -9.021387 -13.507982
17.560917 -8.895208 -12.881662
17.138128 -9.436423 -11.251730
16.804043 -8.708189 -9.869591
16.669218 -8.038371 -8.357102
16.997711 -8.569097 -7.060378
16.895833 -8.023082 -7.372992
16.798264 -9.033830 -4.942157
16.902691 -10.085030 -5.432356
15.346253 -9.194874 -2.278530
16.897870 -9.190506 -1.226337
16.836174 -9.207502 -1.449860
18.289553 -9.207965 0.742115
15.687235 -8.987536 1.791360
16.686071 -10.379068 4.632299
16.775865 -9.743402 3.645528
15.597301 -10.001081 5.811450
16.787413 -9.201057 8.031934
17.255295 -9.759405 8.794148
16.851258 -9.644893 8.889643
16.977993 -11.834678 13.259794
16.440750 -10.252076 13.324557
15.986179 -9.429015 -12.372489
15.786217 -10.579541 -11.688919
16.223056 -10.725273 -10.120487
15.760154 -8.823035 -10.510178
15.226024 -8.974761 -9.716964
14.082885 -8.536615 -8.524695
13.996143 -9.930415 -6.036884
16.602370 -9.595079 -5.973064
16.044696 -8.726818 -4.229290
16.260297 -10.491707 -2.563528
16.116889 -9.416102 -2.756432
15.751900 -10.681184 -1.075924
15.384795 -10.637813 0.126390
15.982899 -9.633652 3.215210
14.591579 -9.869377 3.631690
16.037517 -12.425412 4.250454
14.720521 -11.412651 5.954767
16.217290 -11.472378 7.107838
14.895981 -11.902284 9.410801
15.727094 -12.697535 8.182869
15.449851 -12.414309 10.456353
16.126567 -11.231239 13.181949
14.806141 -9.461501 -14.753538
13.522127 -10.749968 -11.470780
16.966110 -10.056533 -10.931904
14.271465 -10.657445 -10.384752
14.055029 -9.440398 -9.832587
14.403969 -10.422926 -7.697696
14.149841 -10.652225 -5.604251
16.458151 -10.239796 -6.706116
15.625589 -11.405527 -3.650853
14.974704 -9.858164 -2.732657
15.234940 -9.203666 -1.319582
14.718188 -9.363959 -0.291112
14.256850 -12.686537 0.735933
14.844057 -11.924168 1.984715
15.196755 -9.586899 2.929111
14.781206 -12.287110 4.085097
14.822451 -12.695630 5.787772
13.185225 -12.782081 4.984454
15.119156 -12.432158 9.275449
16.274021 -12.720025 9.319375
14.898994 -11.602073 11.519776
16.676964 -11.774636 14.404414
14.582466 -9.951882 -14.817194
14.004923 -12.755067 -12.017452
14.132835 -10.828074 -10.281918
15.596122 -12.114313 -10.669316
14.567732 -11.221857 -10.377686
13.287787 -12.374373 -8.747236
14.148202 -11.615198 -6.720659
13.914055 -11.804910 -3.017321
13.579750 -11.461192 -4.618313
14.192275 -10.972292 -2.181198
14.882639 -13.074953 -2.566406
13.047033 -12.439119 -0.657683
12.126421 -11.799522 0.601387
15.885271 -12.142281 2.684313
13.811504 -11.256477 3.159929
14.036516 -12.939952 4.530035
12.717734 -12.719486 7.446107
15.134870 -10.606380 5.542056
15.229357 -12.498072 7.094112
13.506264 -12.405225 8.751511
14.307505 -14.301187 10.270348
14.209240 -13.476188 10.828057
12.619416 -12.640900 -15.167102
13.018389 -10.722019 -12.811519
12.951912 -10.704501 -12.358868
13.989919 -12.073648 -11.469287
14.173622 -13.239654 -8.468096
13.905795 -12.079864 -8.163710
12.677022 -12.040736 -7.215824
12.949461 -13.019958 -6.434943
13.243885 -13.885400 -4.580712
12.939875 -11.766339 -3.104268
13.961066 -12.953391 -2.889677
14.510362 -13.035929 -0.810861
13.709134 -12.180671 1.279408
13.092298 -12.610777 3.038110
14.181103 -13.933075 4.338857
13.439824 -13.741537 4.452339
12.389226 -13.630738 5.783789
14.138156 -12.428135 5.922825
13.725503 -13.442767 7.759847
12.306895 -15.846844 6.663363
13.875718 -13.317051 11.097273
12.672536 -14.977819 11.328059
11.550528 -11.686931 -14.607324
13.068109 -10.910098 -11.800726
12.424988 -12.870065 -11.600972
14.247925 -13.060649 -11.375134
13.459017 -12.793953 -8.988482
13.663716 -12.671533 -7.649719
12.870050 -14.370874 -6.224802
14.172086 -15.113135 -5.372260
12.867717 -12.990194 -4.976971
14.078938 -13.864657 -1.955589
14.093882 -12.313909 -3.949587
11.834589 -14.720673 -0.313079
13.506004 -14.365368 0.812145
13.405796 -13.600568 1.452934
14.294571 -13.445460 2.399075
12.849521 -12.760786 4.563407
13.037699 -14.226265 5.668196
12.748508 -14.266721 6.444184
13.383782 -14.677697 7.089899
13.538140 -16.481954 8.372539
13.640046 -15.874021 8.833100
13.535558 -16.070351 11.439086
13.276824 -15.268947 -14.739522
13.741291 -14.701469 -13.510337
12.257470 -14.643777 -12.071760
12.562487 -13.876628 -10.130871
12.092080 -14.217173 -9.477939
12.940157 -15.384400 -6.858626
13.165402 -13.375820 -7.031727
12.903889 -14.477823 -7.595308
12.416607 -15.312604 -4.076119
13.676735 -15.738477 -3.945710
11.813536 -15.380621 -1.653643
12.665554 -15.915488 0.177644
12.564275 -14.018896 0.678058
12.348907 -14.909140 2.989426
13.648788 -14.640636 2.791439
12.540024 -16.135284 4.037249
13.649546 -16.126350 7.286991
14.700814 -15.693231 6.413093
12.296770 -16.696359 7.974081
12.927618 -15.635187 7.441063
12.777296 -17.002707 10.610482
13.135855 -16.314265 10.746248
11.651627 -15.904771 -13.336832
13.636145 -15.730432 -13.164433
13.565454 -14.653286 -11.564391
11.736102 -14.716447 -9.541932
13.682896 -15.473783 -8.346562
11.634255 -18.393075 -9.273424
11.633643 -14.704116 -5.889725
12.273234 -14.852211 -5.203298
13.554452 -15.113769 -3.890127
11.862447 -16.408201 -3.638782
12.383184 -15.688859 -0.971155
12.496295 -16.188641 -0.908288
12.157226 -15.883530 0.372423
10.847016 -15.664418 2.038869
12.975334 -16.175603 2.095559
12.363430 -16.926230 4.477026
13.215978 -15.598635 3.650725
13.218346 -17.354718 6.772202
12.600351 -16.487259 7.245277
13.128682 -17.162771 8.448178
12.138193 -16.944098 9.642405
13.178805 -16.208187 12.135633
12.274981 -17.138153 -13.994409
12.419078 -16.894990 -13.391117
11.957449 -16.354044 -10.190847
13.093627 -15.383861 -8.397084
13.323050 -15.809479 -9.526152
12.421561 -16.706481 -7.952237
12.582670 -15.996812 -6.179943
11.367260 -18.119447 -5.352017
11.825926 -17.919336 -4.581427
12.792101 -16.494271 -3.746612
11.809806 -15.419501 -1.651220
10.619022 -16.608316 -0.125287
12.036589 -16.395629 0.008316
11.701223 -17.246618 2.197108
11.170517 -16.605962 2.852983
11.998950 -19.096473 3.326893
12.489570 -15.753331 4.670225
12.367364 -17.436483 5.650866
12.136180 -18.739648 6.335465
12.341480 -19.091362 7.549809
12.182616 -18.535607 9.647946
11.894906 -19.576235 9.995393
26.487377 -8.682599 12.812923
24.929404 -9.258490 13.007513
25.234091 -9.386421 14.225491
26.452371 -9.103949 11.016325
25.001776 -8.292586 9.990399
25.379642 -8.424349 12.005401
25.064899 -8.294764 11.347512
26.854963 -8.155524 11.171481
26.101670 -6.900415 9.584071
27.051773 -8.544487 10.850289
24.360224 -8.745716 10.551446
25.405648 -7.672995 10.863314
26.423372 -8.298429 8.885718
25.669108 -8.188953 10.110271
24.591097 -8.810124 9.718387
25.245911 -7.860434 9.399009
26.686907 -6.760387 8.166846
26.176246 -6.634157 7.390700
23.486680 -8.301131 8.617477
25.536964 -8.117547 8.867607
25.776506 -8.282567 7.918177
28.800335 -9.142224 7.971760
24.527519 -7.463075 5.959865
25.913236 -9.535870 8.398646
24.820117 -7.133635 5.034512
27.202191 -8.989921 7.276382
24.707629 -6.978262 7.101380
24.705124 -7.816862 5.361644
26.218005 -7.042624 4.260304
26.799408 -7.146858 5.393240
23.727570 -6.595668 5.357957
24.890847 -7.129698 3.656430
27.523495 -7.760130 4.719326
26.802935 -6.996516 4.313206
24.827416 -9.466168 4.290585
25.268703 -5.664987 3.942215
26.025578 -7.124909 4.142547
25.913099 -6.811440 3.363094
25.355157 -7.598429 2.113275
24.610215 -7.747094 2.998197
25.719264 -6.054864 2.744498
27.218774 -7.780781 2.197011
23.607461 -7.245106 1.802959
25.848450 -6.193884 1.303137
26.349914 -8.975213 -0.090267
26.771195 -7.660380 0.178640
26.902316 -7.575326 -0.449758
25.771911 -5.440651 0.584997
24.804377 -7.671264 0.251495
25.671183 -5.883899 0.121466
25.908569 -5.693281 -1.716703
26.451006 -7.027160 0.598573
25.867098 -6.732494 -0.456595
24.643194 -5.862706 -1.204024
25.878387 -6.803744 -2.364706
25.701081 -6.419120 -1.475822
25.444722 -6.590930 -1.595291
24.753619 -6.290052 -3.007768
27.330479 -5.699771 -3.310860
27.582044 -7.176989 -4.667592
23.455784 -6.218818 -2.978660
24.646119 -6.387033 -3.586259
27.484271 -5.336279 -5.022550
25.959697 -6.720822 -5.050207
25.350952 -5.516985 -4.199175
22.893752 -7.114941 -3.369549
25.923001 -7.422967 -5.717923
25.408629 -5.927942 -4.871729
24.022266 -7.276641 -4.848818
24.714538 -6.946065 -6.213366
26.271864 -6.155731 -5.992891
25.047428 -6.372426 -6.377671
23.962058 -5.700162 -7.391278
23.632327 -6.138704 -6.834871
25.380612 -5.250217 -7.680406
24.840674 -5.785682 -8.573194
24.941013 -7.831660 -8.148110
26.185375 -5.271794 -6.683960
25.499898 -7.199518 -8.799202
25.818901 -5.954952 -9.316769
24.719812 -6.794694 -10.102787
23.719756 -6.127329 -10.224473
27.233138 -5.955172 -9.967845
25.381641 -5.530653 -11.316042
25.629387 -4.942108 -10.381207
26.882974 -5.858101 -10.286708
24.621895 -5.239836 -11.298829
25.286957 -6.082129 -11.394431
24.109004 -6.909554 -11.930161
26.793353 -7.273200 -12.962473
25.154847 -6.038035 -10.925331
26.031389 -4.787332 -12.545232
25.249581 -5.340975 -13.476488
26.099172 -7.294424 -12.193561
25.703824 -5.096840 -13.904131
24.520245 -5.810991 -13.937769
26.123530 -6.070747 -12.776848
23.769390 -6.785619 -15.366372
24.861159 -6.312882 -13.021344
24.684685 -7.995625 -12.820086
-6.503770 0.358092 2.974700
-5.504581 1.381944 3.872865
-5.440065 1.479682 4.725822
-5.613604 1.093504 6.550424
-4.988130 1.387425 7.189852
-3.836788 1.929782 7.811724
-2.914082 -0.200152 7.993578
-2.512259 0.356934 10.436213
-1.927126 0.325256 11.009066
-3.199905 0.284924 10.645547
-2.196459 0.997860 13.518232
-2.545847 0.454543 14.321537
-3.524699 1.449617 5.786477
-6.498246 1.516490 2.781652
-4.272406 2.424639 6.406665
-4.669833 1.218068 3.030472
-3.201904 -0.029161 5.783558
-3.464528 0.495085 8.291554
-1.460608 1.688446 9.164575
-2.428856 0.390691 10.721315
-1.046172 0.055334 11.682177
-0.157926 0.227960 12.116671
-2.020772 -0.062250 12.404313
-1.635565 0.355372 13.558567
-2.341950 0.584006 3.419586
-1.073399 1.330497 4.813814
-3.697229 1.131183 3.126950
-2.395842 1.531531 6.352115
-3.983727 1.644932 2.401945
-3.223376 -0.063024 7.599945
-1.145625 0.936161 7.877195
-0.806733 -0.336718 9.746205
-0.983304 1.331165 8.983615
-0.225718 -0.043390 12.871022
0.141073 0.948801 13.609635
-0.916086 0.636839 13.869088
-2.362491 -0.518582 4.404175
-0.577897 0.908983 5.760467
-3.252639 1.210590 3.898853
-1.923900 2.021870 5.281695
-0.535653 1.017224 7.216891
-1.690209 -0.143952 3.133982
0.395806 -0.259050 7.863156
-1.740721 1.980978 9.963321
0.163787 -0.978733 9.620139
-0.987028 1.220672 11.923484
0.421287 -1.201518 12.629225
-0.979436 0.420902 13.159119
-0.600332 0.812923 4.333554
-0.307175 2.681168 5.264049
-1.897574 1.987050 3.055728
-0.750125 0.953382 7.221625
0.067632 1.358143 7.130003
-1.931353 1.509178 3.178035
-0.329270 2.338748 8.382329
3.157735 0.735093 8.547035
2.133707 1.780194 10.114105
1.283311 0.201297 10.834933
0.904217 0.688467 12.515358
1.222702 0.794819 13.672232
1.355921 2.460945 4.689945
0.559638 0.537253 5.704029
1.112526 1.074052 6.325168
-0.753516 0.607401 3.643599
-0.322316 1.485160 7.935482
-0.083222 1.261402 2.705203
2.016966 0.043453 8.916185
2.799649 0.556079 9.524359
3.599265 1.454787 11.613145
1.330402 -0.957921 11.523766
4.238240 0.111085 13.021486
4.707335 0.611141 14.063639
2.737291 1.864754 4.973985
1.139986 1.409880 5.889517
2.008868 0.056097 6.285417
1.948182 1.081877 3.402121
2.902229 1.366586 5.847614
0.742786 1.800306 2.868360
2.989165 0.809227 8.317063
2.832624 0.976691 10.569815
2.968820 0.596218 11.024212
3.981534 0.008652 12.516181
3.112448 -0.423918 12.631962
4.797693 -1.636762 13.512094
3.526739 1.901047 3.450990
3.290763 1.115605 4.859699
3.217537 2.796354 4.949362
2.966670 1.947967 7.186170
1.632262 1.771024 2.279251
4.325275 1.733666 7.836773
2.965764 1.415624 9.648199
3.907103 -0.585003 9.363560
4.727958 -0.173994 10.741357
3.614895 0.482066 11.996176
4.544704 -0.000136 13.104260
5.025119 1.173049 13.585575
3.172534 1.149174 5.392951
3.771992 1.619426 5.142840
3.984098 0.506237 3.038895
3.307558 1.731738 5.562088
3.605315 0.964897 3.140986
6.097503 1.059797 7.548675
5.093514 0.681747 8.994286
4.376416 1.028121 8.955060
5.426890 -0.599660 10.710541
5.926457 1.630852 12.172345
5.087342 1.468711 15.141077
3.889087 2.475988 4.213449
5.628141 1.834623 5.512918
3.212365 1.455518 3.845152
5.925278 2.014844 6.464202
5.917531 -0.804670 14.004882
3.778776 2.246233 1.377637
5.988875 0.958499 7.543295
5.415983 1.784946 9.653439
6.657524 0.593677 11.146665
6.865065 0.938760 11.395882
6.386874 -0.148201 12.284668
8.413585 0.209984 12.265395
6.887532 0.324415 5.702339
5.886592 0.840873 4.936667
5.227076 2.466105 3.447259
7.126735 1.086003 5.556475
4.238082 2.885462 3.242963
6.607633 1.818505 7.580275
8.237679 -0.094183 14.992499
7.416087 1.137916 7.883037
8.010292 1.006283 10.085279
6.678090 -0.993605 11.248875
8.349409 -0.714761 10.470345
8.549658 0.101511 13.069472
6.915544 0.825302 2.514345
5.973782 2.637011 3.645068
4.921749 0.581387 5.012170
6.245004 2.408124 7.293327
6.028484 1.858408 3.161903
8.387746 2.083569 7.548559
6.679656 1.283410 8.363972
9.360311 -1.274194 14.199623
6.963526 1.377712 9.911430
8.095702 0.809873 9.251308
9.827718 0.046011 11.908416
9.222379 -1.284925 14.485956
8.790955 -0.508553 5.449996
7.802856 0.782563 3.768030
8.238805 1.247135 5.357840
8.256294 1.281196 6.953767
6.695842 1.708035 3.941719
7.874660 1.842992 7.093528
8.769536 0.891212 9.378238
8.931248 0.898304 10.792601
9.637315 -0.974669 14.896630
10.111337 1.182818 10.845428
9.625899 -0.887954 11.166883
10.391499 0.749876 13.720132
9.805133 2.206875 4.693517
8.397664 1.621219 2.623408
10.035006 1.522776 6.249240
8.404528 1.896346 0.938840
9.510990 0.852407 8.206499
10.147919 1.416912 7.172591
9.715369 -0.240519 7.956718
9.395107 1.463974 9.253950
10.102122 -1.156251 13.309130
11.439024 1.101046 11.436343
10.392423 1.631817 10.255442
10.320283 1.659052 4.991495
9.918053 1.773400 3.897137
11.098361 1.834459 5.932968
9.153053 1.839308 4.312883
10.634039 0.416142 13.344525
9.800616 -0.261760 6.986687
9.510142 0.452212 9.041240
11.225889 -0.161961 8.317386
11.325612 1.675389 10.545785
10.736669 -0.271245 13.808405
9.813359 0.454086 9.216004
12.144318 -0.222053 11.990215
10.706826 1.332649 3.298735
10.479568 1.274665 3.169308
11.788912 0.517764 4.998771
10.623571 1.079186 2.357620
11.856509 1.126177 5.341338
11.401594 0.667535 7.354161
12.612629 0.189698 12.140147
12.415933 1.753682 7.540049
12.305593 1.302166 10.185091
13.241753 -0.901880 11.625077
13.053655 -0.066516 13.609478
12.539303 0.916546 11.962585
