ply
format ascii 1.0
element vertex 1585
property float x
property float y
property float z
end_header
6.555416 11.450757 -14.129395
5.790103 12.313142 -14.128532
8.041889 9.880976 -9.785598
8.051136 9.832098 -8.566081
8.021226 9.931103 -10.952223
8.010166 9.823951 -7.391369
8.049411 9.926227 -12.005988
7.883481 9.892095 -6.275704
8.056101 9.935503 -13.068940
7.290372 10.675663 -13.068256
6.532285 11.466633 -13.071794
5.790103 12.303955 -13.062429
7.237451 10.664900 -9.904256
7.248035 10.681579 -10.956148
7.234270 10.630323 -8.724608
7.212804 10.606627 -7.544902
7.266528 10.684166 -12.004739
7.158187 10.610700 -6.402419
6.516260 11.468655 -12.010537
5.790103 12.288524 -11.996355
6.501632 11.435653 -9.887784
6.506686 11.457654 -10.949101
6.498837 11.405060 -8.826676
6.472674 11.389302 -7.654610
6.460573 11.353119 -6.533296
5.790103 12.266969 -10.930371
5.790103 12.239438 -9.864535
5.790103 12.205633 -8.798877
5.790103 12.165615 -7.733487
5.790103 12.119591 -6.668394
-10.759505 2.732392 -2.054668
-9.906010 2.311041 -1.264916
-9.678625 2.732392 -2.054668
-9.425731 2.449261 -1.546858
-9.084030 1.964671 -0.405148
-8.302989 1.706842 0.519138
-7.553583 1.549028 1.525273
-9.028135 8.537183 -6.036694
-8.441983 2.317195 -1.280050
-8.597745 2.732392 -2.054668
-6.875621 1.807988 0.105992
-6.427006 1.549028 1.525273
-8.564357 7.583760 -5.811302
-7.875959 8.537183 -6.036694
-7.874711 7.890557 -5.896541
-7.516895 2.732392 -2.054668
-8.028273 6.696550 -5.492166
-7.132618 2.429757 -1.508683
-6.176134 2.142345 -0.889708
-5.300459 1.549028 1.525273
-5.153111 1.749149 0.335488
-4.871080 2.018425 -0.557996
-7.033435 7.417295 -5.759807
-6.723843 8.537183 -6.036694
-6.436015 2.732392 -2.054668
-6.539836 2.521716 -1.684870
-7.444588 5.875105 -5.090824
-6.317714 6.199830 -5.262730
-5.738906 2.422057 -1.494293
-4.717132 2.321714 -1.287869
-4.173882 1.549028 1.525273
-4.120039 1.761488 0.285658
-4.133894 2.013668 -0.544944
-4.178520 2.218547 -1.060306
-5.571697 8.537183 -6.036694
-5.361765 7.446462 -5.769083
-5.056752 6.394034 -5.357038
-5.355135 2.732392 -2.054668
-6.830400 5.117820 -4.615064
-5.770064 5.416352 -4.815959
-4.765267 5.662170 -4.968421
-6.196262 4.425171 -4.071577
-4.274285 2.732392 -2.054638
-3.640533 2.379095 -1.407062
-3.047335 1.549028 1.525273
-3.071834 1.789733 0.174820
-3.287504 2.093348 -0.757136
-4.419522 8.537183 -6.036694
-4.317782 7.467779 -5.775803
-4.170820 6.482485 -5.398067
-4.054541 5.776011 -5.034721
-5.293651 4.832430 -4.405102
-4.493018 5.128821 -4.622854
-4.027040 5.364768 -4.782570
-5.558527 3.797841 -3.465149
-4.668402 4.197162 -3.865361
-4.918531 3.236367 -2.798247
-3.447369 3.115717 -2.635111
-4.034948 3.609851 -3.256970
-2.775562 2.663891 -1.939013
-2.189410 2.275006 -1.186991
-1.920788 1.549028 1.525273
-1.666526 1.869561 -0.108727
-3.267376 8.537183 -6.036694
-3.267376 7.420149 -5.760699
-3.267644 6.512424 -5.411595
-3.229736 5.659316 -4.966518
-3.396232 5.058417 -4.572906
-3.909215 4.597731 -4.218004
-3.245167 3.992165 -3.666578
-2.531022 3.425130 -3.038297
-1.901076 2.949727 -2.396250
-1.309454 2.499150 -1.642414
-0.796887 2.147786 -0.893097
-0.794211 1.549028 1.525303
-0.632770 1.761042 0.287055
-0.353713 1.938924 -0.328649
-2.115230 8.537183 -6.036694
-2.115230 7.421279 -5.761056
-2.113595 6.355592 -5.338813
-2.219439 5.471563 -4.851131
-2.283599 4.635371 -4.248924
-1.518405 3.770726 -3.435982
-0.964898 3.210738 -2.764204
-0.383682 2.735454 -2.059692
0.145059 2.301972 -1.245621
0.341969 1.963779 -0.402561
0.332336 1.549028 1.525273
0.332574 1.743233 0.360254
-0.963085 8.537183 -6.036694
-0.963085 7.423331 -5.761710
-0.960171 6.362281 -5.341994
-0.883643 5.491750 -4.863826
-0.742300 4.738657 -4.331993
-0.445791 4.088078 -3.761302
-0.027501 3.610624 -3.257862
1.458913 1.549028 1.525303
0.189061 8.537183 -6.036694
1.341207 8.537183 -6.036694
2.493353 8.537183 -6.036694
3.645498 8.537183 -6.036694
4.797674 8.537183 -6.036694
0.546639 3.051200 -2.544282
1.063784 2.454940 -1.557829
1.383990 1.998476 -0.502666
1.458972 1.737673 0.383622
0.189061 7.426839 -5.762869
0.194175 6.374650 -5.347851
0.307064 5.462732 -4.845571
0.279979 4.735595 -4.329525
0.168428 4.244791 -3.909661
0.681232 3.915072 -3.589068
1.535441 3.262560 -2.832557
2.585460 1.549028 1.525273
2.585490 1.734611 0.396734
1.341207 7.433291 -5.764921
2.493293 7.444648 -5.768518
3.645261 7.464360 -5.774732
4.796812 7.495994 -5.784633
5.949820 8.537183 -6.036694
5.877781 7.527866 -5.794414
2.392147 2.695971 -1.993867
2.609513 2.029069 -0.587460
1.350037 6.396978 -5.358405
1.381939 5.420990 -4.818961
1.373495 4.410216 -4.058525
2.376063 3.450759 -3.069782
2.793638 3.055987 -2.551150
3.712037 1.549028 1.525303
3.712037 1.732916 0.404107
3.783927 2.029753 -0.589036
2.507921 6.435212 -5.376244
3.617938 6.483942 -5.398662
4.833916 6.544266 -5.425925
5.865026 6.577387 -5.440642
7.101965 8.537183 -6.036694
6.923072 7.560065 -5.804196
6.823740 6.673419 -5.482385
3.602923 2.613883 -1.852049
3.515127 3.062320 -2.560129
2.659253 5.498440 -4.868018
2.855479 4.562589 -4.188807
3.335163 3.601912 -3.247932
4.838584 1.549028 1.525273
4.838584 1.732024 0.408210
4.857047 2.037364 -0.609907
4.801123 2.591793 -1.812685
3.833459 5.618970 -4.942168
5.000649 5.722821 -5.003890
6.046922 5.903677 -5.106641
6.885403 6.111825 -5.217866
8.254111 8.537183 -6.036694
7.832879 7.396900 -5.753237
7.508600 6.608545 -5.454378
7.358695 6.212733 -5.269152
4.757031 3.059257 -2.555937
4.718975 3.692058 -3.349970
4.167698 4.754326 -4.344302
5.965131 1.549028 1.525303
5.965131 1.731459 0.410529
5.967094 2.044619 -0.629381
5.948333 2.527038 -1.694771
5.966945 3.045313 -2.535928
5.311341 4.932446 -4.480739
6.352530 5.239926 -4.699561
7.125394 5.593461 -4.927005
7.694866 5.944260 -5.128969
8.708643 7.204479 -5.688452
8.132897 6.385085 -5.352816
6.107960 3.772659 -3.438658
7.091708 1.549028 1.525273
7.091708 1.731103 0.411808
7.092749 2.050060 -0.644009
7.080053 2.525225 -1.691292
7.019223 3.032945 -2.518238
6.963864 3.475138 -3.099068
6.976291 4.412238 -4.060785
7.664867 4.930751 -4.479460
8.305338 5.467133 -4.848366
8.859232 6.030540 -5.175499
9.561187 6.822610 -5.544434
7.563335 3.775394 -3.441007
8.218255 1.549028 1.525303
8.218255 1.730984 0.412551
8.218850 2.053330 -0.652839
8.211387 2.525106 -1.691174
8.013318 3.203930 -2.755136
8.406246 4.214733 -3.881862
9.121223 4.794106 -4.375401
9.808075 5.555464 -4.903458
10.491924 6.358000 -5.339942
9.279186 3.434317 -3.049684
9.344802 1.549028 1.525273
9.344802 1.730894 0.412937
9.345129 2.055263 -0.657893
9.340878 2.525106 -1.691144
10.081008 4.271995 -3.934694
10.742677 4.990392 -4.523552
11.405030 5.764088 -5.027883
10.704889 3.114260 -2.633000
11.165753 3.790795 -3.457627
10.469120 2.525016 -1.690936
10.471379 1.549028 1.525303
10.471379 1.730776 0.413175
10.471558 2.056392 -0.660777
11.683017 4.474376 -4.114093
12.325302 5.214090 -4.681811
11.659381 2.948598 -2.394704
12.039049 3.394180 -3.000181
11.560792 2.491212 -1.627549
12.637153 4.005663 -3.680076
11.598016 2.056957 -0.662442
11.597926 1.549028 1.525273
11.597926 1.730776 0.413294
13.259725 4.706012 -4.306038
12.384645 2.836124 -2.222233
12.877292 3.119463 -2.640136
12.572874 2.484195 -1.614288
13.530131 3.641812 -3.293391
12.724533 2.057314 -0.663364
14.201433 4.238994 -3.904368
12.724474 1.730776 0.413383
12.724474 1.549028 1.525303
13.685447 2.665021 -1.941213
14.554789 3.292945 -2.872129
13.851080 2.057552 -0.663869
15.158929 3.810864 -3.479093
13.851051 1.730776 0.413413
13.851051 1.549028 1.525273
15.091855 2.048692 -0.640411
15.188809 2.460054 -1.567670
15.626453 2.922404 -2.355281
16.115116 3.423911 -3.036810
14.977598 1.730776 0.413443
14.977598 1.549028 1.525303
16.104145 1.730776 0.413443
16.021997 2.049019 -0.641511
16.154123 2.332477 -1.310465
16.555614 2.681373 -1.968863
17.075584 3.075372 -2.578622
16.104145 1.549028 1.525273
17.230722 1.549028 1.525303
17.058429 1.729081 0.420489
16.918960 2.018188 -0.558234
16.762187 2.254135 -1.140759
17.264467 2.455178 -1.558275
17.915997 2.831248 -2.214503
18.357269 1.549028 1.525273
18.219286 1.719537 0.462113
18.022584 2.124090 -0.834586
18.925017 2.553469 -1.743501
19.483816 1.549028 1.525303
19.428516 1.710469 0.503023
19.532337 1.974988 -0.435355
19.928269 2.296770 -1.234234
20.610393 1.549028 1.525273
20.509158 1.715791 0.479090
20.306926 1.916388 -0.259643
20.838997 2.097213 -0.767185
21.736940 1.549028 1.525303
21.663890 1.808998 0.103138
22.863487 1.549028 1.525273
23.114716 1.718853 0.465294
23.990064 1.549028 1.525303
24.102389 1.664445 0.725205
25.116611 1.549028 1.525273
25.110011 1.622821 0.957822
26.243188 1.549028 1.525303
25.883113 1.586787 1.198824
1.589106 -29.518116 10.044260
2.676378 -29.731259 10.006680
3.809050 -29.731259 10.006680
4.941722 -29.731259 10.006680
6.074423 -29.731259 10.006680
7.207095 -29.731259 10.006680
8.339797 -29.731259 10.006680
9.472468 -29.731259 10.006680
10.556322 -29.519008 10.044111
11.473590 -28.916504 10.150341
0.670321 -28.911747 10.151203
1.369600 -28.290185 10.260793
2.058711 -28.513764 10.221339
2.874864 -28.718880 10.185216
3.893368 -28.779086 10.174572
4.976834 -28.773526 10.175553
6.123361 -28.734281 10.182481
7.207987 -28.694055 10.189557
8.214539 -28.621481 10.202371
9.143760 -28.519889 10.220299
12.090871 -28.009790 10.310236
10.102920 -28.316587 10.256125
10.882503 -27.970218 10.317193
11.453670 -27.654323 10.372909
-8.758175 -3.770518 14.584253
-8.758175 -12.982422 12.959945
-8.758175 -11.830901 13.162980
-8.758175 -4.922010 14.381218
-8.758175 -10.679409 13.366044
-8.758175 -6.073502 14.178184
-8.758175 -9.527917 13.569079
-8.758175 -7.225023 13.975149
-8.758175 -8.376515 13.772114
0.057441 -28.007292 10.310652
1.211697 -27.644809 10.374574
2.186764 -27.752079 10.355665
3.047335 -27.752852 10.355546
4.022699 -27.751841 10.355695
5.026159 -27.706590 10.363663
6.078645 -27.671329 10.369877
7.150576 -27.733705 10.358906
8.066061 -27.780651 10.350641
8.850788 -27.547885 10.391670
12.307017 -26.939792 10.498910
9.861621 -27.299213 10.435523
11.460300 -26.916334 10.503043
10.696148 -27.045575 10.480239
-7.652678 -3.770518 14.584253
-7.661775 -12.982422 12.959945
-7.628774 -4.922248 14.381189
-7.661508 -11.857778 13.158253
-7.606862 -10.679528 13.366015
-7.611857 -6.073502 14.178184
-7.592977 -9.527917 13.569079
-7.601867 -7.225023 13.975149
-7.596158 -8.376515 13.772114
-0.158170 -26.939792 10.498910
1.134694 -26.731078 10.535688
2.321506 -26.759412 10.530693
3.205535 -26.774842 10.527988
4.122982 -26.899000 10.506076
5.097276 -26.801720 10.523231
7.263555 -26.935391 10.499654
6.143489 -26.672329 10.546064
7.991584 -27.202616 10.452559
8.588499 -26.821788 10.519693
12.307017 -25.758033 10.707267
9.604475 -26.368713 10.599581
11.404554 -25.888078 10.684344
10.525490 -26.079904 10.650510
-6.547210 -3.770518 14.584253
-6.565346 -12.982422 12.959945
-6.547269 -4.877681 14.389038
-6.565286 -11.876954 13.154893
-6.493991 -6.061163 14.180354
-6.548577 -10.738158 13.355668
-6.454240 -9.533239 13.568158
-6.460662 -7.217531 13.976457
-6.441813 -8.372204 13.772857
-3.276147 -22.528594 11.276710
-3.276147 -21.467902 11.463749
1.103981 -25.642260 10.727693
-0.158170 -25.641933 10.727752
2.289991 -25.616542 10.732212
3.241094 -25.641130 10.727901
4.132229 -25.738084 10.710775
5.184032 -25.760977 10.706762
6.201287 -25.674459 10.722014
7.775141 -25.953962 10.672719
12.307017 -24.576365 10.915624
9.283467 -25.276149 10.792239
11.328145 -24.726597 10.889133
10.355071 -24.938045 10.851850
-5.441742 -3.770518 14.584253
-5.468946 -12.982422 12.959945
-5.441742 -4.868613 14.390643
-5.468946 -11.888163 13.152901
-5.440820 -5.994030 14.192187
-5.459640 -10.776244 13.348949
-5.360724 -7.194162 13.980590
-5.411535 -9.623028 13.552311
-5.329299 -8.369022 13.773422
-4.372547 -12.982422 12.959945
-3.276147 -20.407209 11.650789
-2.235642 -22.694108 11.247514
-2.230558 -21.578889 11.444156
-2.198835 -20.407209 11.650789
-1.196297 -22.866579 11.217099
-0.158170 -24.344044 10.956593
2.185961 -24.436211 10.940330
1.068095 -24.345055 10.956415
3.277871 -24.580438 10.914910
4.145251 -24.698590 10.894069
5.050181 -24.558793 10.918716
6.152973 -24.483960 10.931946
7.530304 -24.161495 10.988763
12.307017 -23.394577 11.124010
8.940576 -23.858087 11.042279
11.218437 -23.392882 11.124308
10.179775 -23.620207 11.084230
-3.230807 -0.309086 15.194606
-3.230807 -1.462956 14.991155
-3.230807 -2.616737 14.787704
-4.336274 -3.770518 14.584253
-3.276147 -19.346517 11.837798
-4.336304 -4.875986 14.389335
-4.372547 -11.894526 13.151771
-4.347037 -5.999025 14.191325
-4.367492 -10.797769 13.345173
-4.368800 -7.143262 13.989539
-4.350099 -9.682787 13.541756
-4.287218 -8.497283 13.750826
-3.276147 -18.285854 12.024808
-3.276147 -17.225162 12.211847
-3.276147 -16.164470 12.398887
-3.276147 -15.103777 12.585896
-3.276147 -14.043114 12.772936
-3.276147 -11.897915 13.151177
-3.276147 -12.982422 12.959945
-2.198597 -19.346517 11.837798
-1.099759 -21.731618 11.417220
-1.082099 -20.526729 11.629679
-1.120987 -19.346874 11.837739
0.019028 -21.920055 11.384010
-0.158170 -23.046156 11.185435
1.090275 -23.242650 11.150798
3.444634 -23.764552 11.058780
2.298048 -23.429630 11.117826
4.125420 -24.089723 11.001428
4.799487 -23.699233 11.070286
6.041065 -23.297980 11.141046
7.466381 -22.943435 11.203541
12.307017 -22.212938 11.332367
8.881173 -22.600693 11.264015
11.172264 -22.212462 11.332456
10.076667 -22.339474 11.310068
-2.137915 -0.309086 15.194606
-3.230807 -3.770518 14.584253
-2.138094 -1.402632 15.001799
-2.097421 -2.616737 14.787704
-2.080385 -3.770608 14.584253
-1.045054 -0.309086 15.194606
0.047838 -0.309086 15.194606
-3.230837 -4.888800 14.387105
-2.198151 -18.285854 12.024808
-3.248824 -6.034494 14.185081
-3.273828 -10.809335 13.343122
-3.278317 -7.168563 13.985079
-3.265563 -9.713411 13.536375
-3.238804 -8.583652 13.735574
-2.197408 -17.225162 12.211847
-2.196099 -16.164470 12.398887
-2.193721 -15.103777 12.585896
-2.189588 -14.043114 12.772936
-2.183018 -12.982422 12.959945
-2.173623 -10.813765 13.342349
-2.176566 -11.899045 13.150969
-1.120006 -18.286419 12.024719
0.051851 -20.607568 11.615438
0.015193 -19.330759 11.840563
-0.043051 -18.287757 12.024481
1.189399 -20.685554 11.601702
1.117182 -22.115181 11.349611
2.430322 -22.296601 11.317590
4.058436 -22.708855 11.244927
5.948839 -21.967238 11.375685
7.420922 -21.645457 11.432413
12.307017 -21.031150 11.540724
8.820551 -21.353615 11.483907
11.144049 -21.031031 11.540753
10.026183 -21.152572 11.519347
-1.045054 -1.385417 15.004831
-2.074796 -4.910563 14.383240
-0.978099 -3.576730 14.618414
-1.036491 -2.492461 14.809616
-0.908468 -4.886184 14.387551
0.047838 -1.385417 15.004831
1.140699 -0.309086 15.194606
1.140699 -1.385417 15.004831
-2.073547 -6.056049 14.181276
-1.118133 -17.226173 12.211669
-2.096440 -7.161190 13.986387
-2.169609 -9.725422 13.534264
-2.103130 -8.443648 13.760251
-1.114655 -16.166283 12.398560
-1.108262 -15.106958 12.585331
-1.097232 -14.048436 12.771984
-0.644276 -9.680974 13.542083
-1.081593 -12.988874 12.958815
-0.875883 -10.809453 13.343122
-1.075201 -11.903712 13.150166
-0.040197 -17.228789 12.211223
1.114447 -19.150499 11.872346
1.045173 -18.167346 12.045709
1.035213 -17.233100 12.210450
2.251519 -18.874622 11.921016
2.478963 -20.601206 11.616568
4.012323 -20.476721 11.638510
5.841747 -20.307312 11.668390
7.365741 -20.080552 11.708348
12.307017 -19.849481 11.749110
8.782346 -19.930320 11.734869
11.127786 -19.820909 11.754135
10.007334 -19.882036 11.743372
0.047838 -2.461629 14.815057
-0.869907 -6.088486 14.175537
0.084199 -4.662932 14.426886
0.063565 -3.537960 14.625282
0.217841 -5.834849 14.220283
2.233591 -0.309086 15.194606
1.140699 -2.461629 14.815057
2.233591 -1.385417 15.004831
2.233591 -2.461629 14.815057
-0.783032 -7.054604 14.005177
-0.034221 -16.171159 12.397697
-0.328501 -8.553505 13.740896
-0.022566 -15.115699 12.583815
0.252924 -9.018829 13.658868
-0.002676 -14.061934 12.769606
0.169974 -9.680171 13.542232
0.021615 -12.999993 12.956853
0.030802 -10.820335 13.341189
0.027918 -11.908351 13.149333
1.044638 -16.179900 12.396151
2.056838 -17.962943 12.081743
2.025174 -17.161775 12.223026
1.900957 -16.049172 12.419193
2.673911 -17.771087 12.115577
3.391891 -18.383789 12.007534
5.714318 -18.612155 11.967278
7.402548 -18.570204 11.974681
12.361425 -18.756381 11.941858
8.855961 -18.613641 11.967010
11.200776 -18.644116 11.961659
10.070037 -18.614296 11.966891
3.326452 -0.309086 15.194606
4.419344 -0.309086 15.194606
5.512205 -0.309086 15.194606
1.140699 -3.537960 14.625282
0.292050 -6.843274 14.042431
1.166298 -5.690177 14.245763
1.140699 -4.614173 14.435508
1.286145 -6.792701 14.051380
3.326452 -1.385417 15.004831
2.233591 -3.537960 14.625282
3.326452 -2.461629 14.815057
3.326452 -3.537960 14.625282
0.605685 -8.065526 13.826938
0.956068 -15.130089 12.581258
0.812526 -8.805329 13.696478
1.096132 -14.084263 12.765681
0.954790 -9.615208 13.553678
1.127647 -13.015305 12.954148
1.133891 -10.822951 13.340713
1.131631 -11.912899 13.148531
1.768683 -15.133389 12.580693
2.792955 -17.040115 12.244462
2.690798 -15.851310 12.454098
2.360781 -15.159345 12.576115
3.878027 -17.034109 12.245533
5.986567 -17.152023 12.224751
7.622500 -17.220494 12.212680
12.525096 -17.672796 12.132911
9.065091 -17.263604 12.205069
11.381840 -17.449544 12.172275
10.237483 -17.330827 12.193206
4.419344 -1.385417 15.004831
5.512205 -1.385417 15.004831
6.605097 -0.309086 15.194606
6.605097 -1.385417 15.004831
2.233591 -4.614173 14.435508
1.479963 -7.734201 13.885360
2.233947 -6.758569 14.057385
2.233591 -5.689939 14.245822
2.332209 -7.581263 13.912327
4.419344 -2.461629 14.815057
3.326452 -4.614173 14.435508
4.419344 -3.537960 14.625282
4.419344 -4.614173 14.435508
1.593685 -8.531861 13.744732
2.034956 -14.185735 12.747783
1.876934 -9.503657 13.573361
2.308811 -13.034452 12.950788
2.199846 -10.658092 13.369791
2.359621 -11.918102 13.147639
2.818940 -14.442435 12.702532
3.779824 -15.348228 12.542786
6.156838 -15.542135 12.508625
7.892341 -15.758578 12.470450
12.795056 -16.611984 12.319950
9.389102 -15.917760 12.442383
11.755889 -16.373897 12.361960
10.534172 -16.066951 12.416071
7.697958 -0.309086 15.194606
5.512205 -2.461629 14.815057
6.605097 -2.461629 14.815057
7.697958 -1.385417 15.004831
7.697958 -2.461629 14.815057
3.326482 -5.689493 14.245911
2.541666 -8.453043 13.758616
3.312954 -7.559827 13.916103
3.327077 -6.751880 14.058575
3.432890 -8.302603 13.785136
5.512205 -3.537960 14.625282
4.419344 -5.688690 14.246030
5.512205 -4.614173 14.435508
5.512265 -5.687233 14.246298
2.775681 -9.365882 13.597651
3.285929 -13.203385 12.920997
3.055957 -10.376120 13.419531
3.326185 -11.754491 13.176478
4.738330 -13.508844 12.867124
6.608902 -13.935606 12.791874
8.297192 -14.277813 12.731550
13.168005 -15.581796 12.501608
9.812594 -14.565909 12.680739
12.155834 -15.246428 12.560773
10.957664 -14.829625 12.634239
8.790850 -0.309086 15.194606
8.790850 -1.385417 15.004831
6.605067 -3.537960 14.625282
7.697958 -3.537841 14.625282
8.790850 -2.461629 14.815057
8.790820 -3.537841 14.625282
4.421663 -6.633966 14.079357
3.608007 -9.074724 13.648997
4.339634 -8.162569 13.809813
4.373468 -7.451546 13.935190
4.290518 -8.757253 13.704951
6.605097 -4.614054 14.435508
5.503375 -6.547894 14.094520
6.605156 -5.684736 14.246744
6.643301 -6.468422 14.108553
4.065363 -9.892898 13.504711
4.927005 -11.344854 13.248695
7.169663 -12.360295 13.069654
8.839430 -12.819138 12.988755
13.642486 -14.592667 12.676041
10.344219 -13.283451 12.906875
12.666765 -14.161802 12.752005
11.505195 -13.636183 12.844677
9.883711 -0.309086 15.194606
9.883711 -1.385417 15.004831
9.883711 -2.461629 14.815057
7.697958 -4.614054 14.435537
8.790850 -4.613846 14.435537
9.883682 -3.537841 14.625282
9.974748 -4.423119 14.469193
5.434607 -7.387950 13.946399
4.846879 -9.136981 13.638026
5.260144 -8.285359 13.788169
7.693231 -5.492880 14.280548
6.794812 -7.271493 13.966943
7.678811 -6.256973 14.145836
7.645037 -6.892003 14.033868
6.131537 -9.762616 13.527693
8.016499 -10.572822 13.384835
9.566122 -11.326807 13.251876
14.213088 -13.653516 12.841645
10.991052 -11.988863 13.135152
13.284462 -13.130840 12.933782
12.172305 -12.494532 13.045987
10.976573 -0.309086 15.194606
10.976573 -1.385417 15.004831
10.976573 -2.461629 14.815057
10.980319 -3.420849 14.645916
8.809521 -5.471563 14.284324
10.178199 -5.240729 14.325026
10.956593 -4.202722 14.508052
10.966197 -4.817356 14.399652
7.081362 -8.323682 13.781420
8.710664 -6.392786 14.121902
8.326269 -7.324563 13.957578
8.938763 -9.074486 13.649027
10.442153 -9.988930 13.487794
14.874222 -12.773798 12.996752
11.813746 -10.790515 13.346452
14.001907 -12.164129 13.104231
12.953137 -11.422750 13.234959
12.069464 -1.385417 15.004831
12.069464 -0.309086 15.194606
12.069435 -2.461748 14.815027
11.990825 -3.458489 14.639286
11.867946 -4.378106 14.477131
10.547075 -6.318071 14.135043
11.671957 -5.189591 14.334035
9.705353 -7.850896 13.864786
11.335726 -8.751694 13.705962
15.617801 -11.963918 13.139552
12.721887 -9.683233 13.541697
14.810151 -11.273885 13.261212
13.836690 -10.437337 13.408709
13.162356 -0.309086 15.194606
13.162296 -2.461748 14.815027
13.162356 -1.385417 15.004831
13.162207 -3.537723 14.625312
13.055829 -4.503513 14.455011
12.949926 -5.453664 14.287476
12.831774 -6.984646 14.017516
16.440227 -11.227832 13.269329
13.906232 -8.484469 13.753056
15.713357 -10.462519 13.404279
14.860516 -9.522685 13.570001
14.255217 -0.309086 15.194606
14.255217 -1.385536 15.004802
14.254979 -3.537633 14.625342
14.255128 -2.461867 14.814997
14.184130 -4.492304 14.456974
14.179492 -5.376096 14.301152
14.497943 -6.451654 14.111496
17.329400 -10.576123 13.384240
15.094560 -7.637485 13.902396
16.680307 -9.745045 13.530785
15.918800 -8.727998 13.710124
15.348109 -0.309086 15.194606
16.440970 -0.309086 15.194606
15.348109 -1.385625 15.004772
15.347960 -2.462075 14.814968
15.160683 -4.504524 14.454833
15.347633 -3.537633 14.625342
14.915281 -5.233594 14.326275
15.469918 -5.901060 14.208599
18.281722 -10.012061 13.483691
16.255566 -6.990889 14.016416
17.713319 -9.121550 13.640732
17.034585 -8.035467 13.832231
16.440970 -1.385744 15.004742
17.533862 -1.386101 15.004683
17.533862 -0.309086 15.194606
16.440732 -2.462521 14.814878
16.440108 -3.537633 14.625342
16.372261 -4.981205 14.370812
19.286400 -9.541623 13.566671
17.444222 -6.408900 14.119048
18.804040 -8.598845 13.732898
18.210515 -7.445897 13.936171
17.709960 -2.437012 14.819368
18.950526 -2.434514 14.819844
18.732685 -1.359997 15.009291
18.626723 -0.309086 15.194606
17.884304 -3.465743 14.638007
18.176295 -4.647858 14.429561
20.331870 -9.170518 13.632110
18.661390 -5.853669 14.216953
19.926098 -8.175948 13.807464
19.373454 -6.927502 14.027595
19.168992 -3.370276 14.654835
20.134514 -3.291815 14.668660
19.986096 -2.451432 14.816841
19.819512 -1.343675 15.012175
19.719615 -0.309086 15.194606
21.406923 -8.903293 13.679204
19.416623 -4.342845 14.483345
19.883612 -5.359089 14.304155
21.103843 -7.876405 13.860297
20.562080 -6.423974 14.116372
20.290782 -4.035810 14.537486
20.825172 -3.798168 14.579377
20.828472 -3.243859 14.677134
20.809830 -2.472957 14.813065
20.812476 -1.389609 15.004088
20.812476 -0.309086 15.194606
22.504928 -8.740128 13.707984
22.303083 -7.579212 13.912683
20.766185 -4.792738 14.404022
21.891483 -5.843233 14.218767
21.349988 -4.102141 14.525801
21.600384 -3.323449 14.663100
21.751300 -2.464454 14.814551
21.905368 -1.392999 15.003494
21.905368 -0.309086 15.194606
23.645152 -8.683549 13.717973
23.614945 -7.525368 13.922168
23.639235 -6.148216 14.165013
22.547503 -4.569278 14.443416
23.772550 -4.945587 14.377056
22.825223 -3.507218 14.630693
22.989548 -2.501529 14.808011
22.998229 -1.398915 15.002423
22.998229 -0.309086 15.194606
24.886699 -8.683549 13.717973
24.886551 -7.486926 13.928946
24.901089 -6.284980 14.140901
24.917442 -5.091181 14.351398
23.955992 -3.719024 14.593351
24.966795 -3.882635 14.564482
24.075304 -2.536582 14.801826
24.091061 -1.409559 15.000580
24.091121 -0.309086 15.194606
26.128217 -8.683549 13.717973
26.138237 -7.487164 13.928917
26.145343 -6.290867 14.139860
26.149535 -5.094451 14.350803
26.151913 -3.898184 14.561747
25.138880 -2.602110 14.790291
26.180247 -2.701442 14.772779
25.183804 -1.428379 14.997250
25.183982 -0.309086 15.194606
27.369735 -8.683549 13.717973
27.369735 -7.487164 13.928917
27.369735 -6.290867 14.139860
27.369735 -5.094451 14.350803
27.369735 -3.898184 14.561747
27.369735 -2.701769 14.772690
26.276130 -1.460459 14.991601
27.369735 -1.505472 14.983663
26.276874 -0.309086 15.194606
27.369735 -0.309086 15.194606
27.369735 -8.500227 12.658619
27.369735 -7.353254 12.852259
27.369735 -6.074542 12.971124
27.369735 -4.869296 13.161196
27.369735 -3.667559 13.384864
27.369735 -2.464246 13.620306
27.369735 -1.257513 13.867195
27.369735 -0.113038 14.061102
27.369735 -8.323801 11.597837
27.369735 -7.211406 11.778960
27.369735 -6.014336 11.911651
27.369735 -4.727211 12.091049
27.369735 -3.404051 12.262480
27.369735 -2.198359 12.549029
27.369735 -1.055935 12.742342
27.369735 0.075517 12.926557
27.369735 -8.154184 10.535688
27.369735 -7.061531 10.706524
27.369735 -5.924875 10.848966
27.369735 -4.652050 10.952074
27.369735 -3.231045 11.169231
27.369735 -2.001062 11.438448
27.369735 -0.875883 11.614279
27.369735 0.256581 11.791001
27.369735 -7.991346 9.472260
27.369735 -6.909366 9.634296
27.369735 -5.805593 9.783725
27.369735 -4.509875 9.860313
27.369735 -3.052568 10.074526
27.369735 -1.829424 10.316747
27.369735 -0.703293 10.485175
27.369735 0.430063 10.654464
27.369735 -7.835346 8.407554
27.369735 -6.758896 8.561681
27.369735 -5.670316 8.712389
27.369735 -4.331845 8.802415
27.369735 -2.905071 8.974291
27.369735 -1.665129 9.193946
27.369735 -0.537987 9.355089
27.369735 0.596171 9.516857
27.369735 -7.686244 7.341689
27.369735 -6.612292 7.488383
27.369735 -5.529509 7.633501
27.369735 -4.183426 7.739850
27.369735 -2.762539 7.878219
27.369735 -1.507761 8.070015
27.369735 -0.379936 8.224023
27.369735 0.754787 8.378269
27.369735 -7.543950 6.274693
27.369735 -6.471038 6.414222
27.369735 -5.390515 6.553216
27.369735 -4.045919 6.663340
27.369735 -2.622624 6.784614
27.369735 -1.356964 6.944955
27.369735 -0.229020 7.091976
27.369735 0.905911 7.238640
27.369735 -7.408584 5.206687
27.369735 -6.335880 5.339140
27.369735 -5.255922 5.471682
27.369735 -3.910404 5.578595
27.369735 -2.480568 5.689136
27.369735 -1.212054 5.818586
27.369735 -0.084823 5.958977
27.369735 1.049454 6.098000
27.369735 -7.280115 4.137670
27.369735 -6.207084 4.263136
27.369735 -5.127007 4.389018
27.369735 -3.775394 4.492185
27.369735 -2.332269 4.587533
27.369735 -1.071455 4.690731
27.369735 0.053278 4.825116
27.369735 1.185623 4.956350
27.369735 -7.158574 3.067761
27.369735 -6.084859 3.186240
27.369735 -5.004336 3.305313
27.369735 -3.641604 3.407083
27.369735 -2.178736 3.480014
27.369735 -0.932907 3.561240
27.369735 0.186296 3.690482
27.369735 1.314211 3.813688
27.369735 -7.043930 1.997019
27.369735 -5.969650 2.108541
27.369735 -4.888324 2.220717
27.369735 -3.515513 2.327898
27.369735 -2.026691 2.379125
27.369735 -0.794122 2.430739
27.369735 0.315419 2.555134
27.369735 1.435425 2.670016
27.369735 -6.936243 0.925504
27.369735 -5.861250 1.030069
27.369735 -4.779270 1.135288
27.369735 -3.402237 1.253173
27.369735 -1.891532 1.297859
27.369735 -0.659201 1.307105
27.369735 0.441063 1.418895
27.369735 -6.835425 -0.146724
27.369735 -5.759777 -0.049116
27.369735 -4.677114 0.049116
27.369735 -3.305403 0.173690
27.369735 -1.793925 0.208119
27.369735 -0.558294 0.216206
27.369735 0.543309 0.314735
27.369735 -6.741563 -1.219606
27.369735 -5.665232 -1.128955
27.369735 -4.582093 -1.037710
27.369735 -3.212433 -0.909985
27.369735 -1.700271 -0.883345
27.369735 -0.463718 -0.881740
27.369735 0.638687 -0.790197
27.369735 -6.654599 -2.293053
27.369735 -5.577792 -2.209360
27.369735 -4.493999 -2.125131
27.369735 -3.123447 -1.999249
27.369735 -1.613634 -1.975761
27.369735 -0.376190 -1.980369
27.369735 0.726900 -1.895873
27.369735 -6.574652 -3.367006
27.369735 -5.497310 -3.290299
27.369735 -4.412922 -3.213087
27.369735 -3.039873 -3.095976
27.369735 -1.533955 -3.068771
27.369735 -0.295707 -3.079623
27.369735 0.808066 -3.002203
27.369735 -6.501632 -4.441404
27.369735 -5.423844 -4.371655
27.369735 -4.339010 -4.301489
27.369735 -2.965039 -4.201027
27.369735 -1.461500 -4.162138
27.369735 -0.222330 -4.179412
27.369735 0.882097 -4.109098
27.369735 -6.435539 -5.516159
27.369735 -5.357395 -5.453397
27.369735 -4.272204 -5.390277
27.369735 -2.898709 -5.296743
27.369735 -1.396507 -5.255565
27.369735 -0.156238 -5.279647
27.369735 0.948992 -5.216498
27.369735 -6.376463 -6.591242
27.369735 -5.297992 -6.535436
27.369735 -4.212473 -6.479363
27.369735 -2.844181 -6.388534
27.369735 -1.339601 -6.348605
27.369735 -0.097727 -6.380180
27.369735 1.008752 -6.324344
27.369735 -6.324315 -7.666532
27.369735 -5.245605 -7.617714
27.369735 -4.159849 -7.568657
27.369735 -2.797355 -7.479225
27.369735 -1.288226 -7.435580
27.369735 -0.047273 -7.480890
27.369735 1.060901 -7.432547
27.369735 -6.279064 -8.742001
27.369735 -5.200235 -8.700169
27.369735 -4.114271 -8.658159
27.369735 -2.761856 -8.570273
27.369735 -1.251508 -8.515657
27.369735 -0.006006 -8.581512
27.369735 1.105349 -8.541107
27.369735 -6.240859 -9.817589
27.369735 -5.161822 -9.782714
27.369735 -4.075829 -9.747780
27.369735 -2.752223 -9.678209
27.369735 -1.242321 -9.591037
27.369735 0.024261 -9.681658
27.369735 1.141532 -9.649934
27.369735 -6.209582 -10.893177
27.369735 -5.130515 -10.865289
27.369735 -4.044432 -10.837401
27.369735 -2.748952 -10.771606
27.369735 -1.285193 -10.672333
27.369735 0.039691 -10.780644
27.369735 1.168290 -10.758910
27.369735 -6.185291 -11.968764
27.369735 -5.106255 -11.947834
27.369735 -4.020172 -11.926992
27.369735 -2.813231 -11.845558
27.369735 -1.421124 -11.789039
27.369735 0.030831 -11.868243
27.369735 1.184047 -11.868005
27.369735 -6.167958 -13.044233
27.369735 -5.089010 -13.030289
27.369735 -3.965645 -13.000558
27.369735 -2.736346 -12.931968
27.369735 -1.425554 -12.918024
27.369735 -0.016114 -12.937795
27.369735 1.185742 -12.977041
27.369735 -6.157522 -14.119524
27.369735 -5.047535 -14.112864
27.369735 -3.797931 -14.044155
27.369735 -2.559237 -14.002085
27.369735 -1.328036 -13.981928
27.369735 -0.102038 -13.994296
27.369735 1.169182 -14.085600
27.369735 -6.154014 -15.194606
27.369735 -4.939254 -15.194606
27.369735 -3.724346 -15.194606
27.369735 -2.509586 -15.194606
27.369735 -1.294826 -15.194606
27.369735 -0.080037 -15.194606
27.369735 1.134842 -15.194606
-27.369735 29.658239 -9.760951
-27.369735 29.684552 -10.847509
-27.369735 29.704947 -11.934157
-27.369735 29.719575 -13.020894
-27.369735 29.728316 -14.107720
-27.369735 29.731259 -15.194606
-27.369735 28.514894 -9.559313
-27.369735 28.500623 -10.872573
-27.369735 28.555269 -11.953274
-27.369735 28.596774 -13.033144
-27.369735 28.613661 -14.097731
-27.369735 28.613780 -15.194606
-27.369735 27.371549 -9.357706
-27.369735 27.371549 -10.784747
-27.369735 27.435977 -11.906507
-27.369735 27.502634 -13.014413
-27.369735 27.496272 -14.089198
-27.369735 27.496272 -15.194606
-27.369735 26.239234 -9.557381
-27.369735 26.366216 -10.836628
-27.369735 26.438671 -11.942987
-27.369735 26.382747 -12.991787
-27.369735 26.378792 -14.083965
-27.369735 26.378792 -15.194606
-27.369735 25.106770 -9.757056
-27.369735 25.306416 -10.889341
-27.369735 25.283760 -12.027335
-27.369735 25.263692 -12.977487
-27.369735 25.261313 -14.080962
-27.369735 25.261313 -15.194606
-27.369735 23.974425 -9.956701
-27.369735 24.174101 -11.088957
-27.369735 24.197113 -12.095241
-27.369735 24.145172 -12.969400
-27.369735 24.143804 -14.079268
-27.369735 24.143804 -15.194606
-27.369735 22.842081 -10.156377
-27.369735 23.041756 -11.288573
-27.369735 23.068841 -12.199301
-27.369735 23.036196 -13.070278
-27.369735 23.026325 -14.078316
-27.369735 23.026325 -15.194606
-27.369735 21.709736 -10.356052
-27.369735 21.889224 -11.328502
-27.369735 21.986504 -12.134843
-27.369735 21.931293 -13.016554
-27.369735 21.908965 -14.077811
-27.369735 21.908965 -15.194606
-27.369735 20.577272 -10.555697
-27.369735 20.802130 -11.467020
-27.369735 20.917547 -12.245741
-27.369735 20.915852 -13.076908
-27.369735 20.791456 -14.077514
-27.369735 20.791456 -15.194606
-27.369735 19.744500 -11.663989
-27.369735 19.444928 -10.755372
-27.369735 19.871809 -12.386518
-27.369735 19.827272 -13.129889
-27.369735 19.673977 -14.077335
-27.369735 19.673977 -15.194606
-27.369735 18.895821 -11.945425
-27.369735 19.255153 -12.440748
-27.369735 18.312612 -10.955047
-27.369735 19.009662 -13.039655
-27.369735 18.777015 -14.066751
-27.369735 18.556498 -15.194606
-27.369735 17.180268 -11.154723
-27.369735 18.013486 -12.525780
-27.369735 17.630369 -14.063094
-27.369735 17.438989 -15.194606
-27.369735 16.047923 -11.354368
-27.369735 16.283989 -12.720252
-27.369735 16.321510 -14.077157
-27.369735 16.321510 -15.194606
-27.369735 14.915578 -11.554043
-27.369735 15.158661 -12.817651
-27.369735 15.204031 -14.077157
-27.369735 15.204031 -15.194606
-27.369735 13.783115 -11.753718
-27.369735 13.979490 -12.866797
-27.369735 14.086522 -14.077127
-27.369735 14.086522 -15.194606
-27.369735 12.650770 -11.953364
-27.369735 12.844439 -13.051161
-27.369735 12.969043 -14.077127
-27.369735 12.969043 -15.194606
-27.369735 11.518425 -12.153039
-27.369735 11.707219 -13.222859
-27.369735 11.851564 -14.077127
-27.369735 11.851564 -15.194606
-27.369735 10.386080 -12.352714
-27.369735 10.563546 -13.266683
-27.369735 10.669776 -14.157074
-27.369735 10.734055 -15.194606
-27.369735 9.253765 -12.552389
-27.369735 9.458733 -13.385340
-27.369735 9.549443 -14.219183
-27.369735 9.616695 -15.194606
-27.369735 8.818262 -13.535096
-27.369735 8.121302 -12.752034
-27.369735 8.563703 -14.271094
-27.369735 8.499186 -15.194606
-27.369735 6.988957 -12.951710
-27.369735 7.381707 -15.194606
-27.369735 6.264228 -15.194606
-27.369735 5.146719 -15.194606
-27.369735 5.856612 -13.151385
-27.369735 4.933338 -14.325056
-27.369735 3.882516 -8.577617
-27.369735 4.029240 -15.194606
-27.369735 4.332320 -14.237676
-27.369735 4.092954 -9.770970
-27.369735 4.724267 -13.351030
-27.369735 4.303392 -10.964324
-27.369735 4.513830 -12.157677
-27.369735 2.728765 -8.781068
-27.369735 2.911761 -15.194606
-27.369735 2.931918 -9.932471
-27.369735 3.011747 -14.109950
-27.369735 3.199054 -13.146955
-27.369735 3.016415 -11.062021
-27.369735 3.108344 -12.071367
-27.369735 1.774302 -10.114783
-27.369735 1.574984 -8.984519
-27.369735 1.794252 -15.194606
-27.369735 1.794252 -14.077127
-27.369735 -0.538671 -3.744563
-27.369735 1.854933 -11.064667
-27.369735 1.828383 -13.126678
-27.369735 1.839503 -11.934574
-27.369735 1.055935 -10.947347
-27.369735 -0.346726 -4.833262
-27.369735 0.819869 -10.278364
-27.369735 -0.154751 -5.921932
-27.369735 0.421114 -9.187970
-27.369735 0.037194 -7.010601
-27.369735 0.229139 -8.099271
-27.369735 0.676773 -14.077127
-27.369735 0.676773 -15.194606
-27.369735 -1.690192 -3.947627
-27.369735 0.531744 -13.049228
-27.369735 -1.474641 -5.032343
-27.369735 0.542863 -11.579285
-27.369735 -0.067579 -10.488623
-27.369735 -1.265898 -6.117920
-27.369735 -0.553180 -9.444878
-27.369735 -1.064082 -7.204836
-27.369735 -0.866577 -8.292494
-27.369735 -0.773251 -13.003353
-27.369735 -0.551247 -14.127076
-27.369735 -0.440706 -15.194606
-27.369735 -2.841684 -4.150662
-27.369735 -2.640879 -5.288715
-27.369735 -0.929280 -11.919292
-27.369735 -2.402315 -6.336980
-27.369735 -1.186307 -10.779009
-27.369735 -1.584171 -9.676038
-27.369735 -2.178409 -7.409506
-27.369735 -1.968655 -8.491307
-27.369735 -1.946654 -12.018029
-27.369735 -1.798563 -12.978052
-27.369735 -1.666259 -14.100763
-27.369735 -1.558215 -15.194606
-27.369735 -3.993087 -4.353697
-27.369735 -3.789903 -5.505962
-27.369735 -3.586720 -6.618803
-27.369735 -2.040873 -11.034162
-27.369735 -3.324341 -7.655889
-27.369735 -2.549277 -10.045895
-27.369735 -3.085332 -8.705105
-27.369735 -5.144578 -4.556732
-27.369735 -6.296070 -4.759767
-27.369735 -7.447591 -4.962801
-27.369735 -8.599083 -5.165836
-27.369735 -9.750604 -5.368871
-27.369735 -2.692255 -11.272845
-27.369735 -2.735543 -12.029268
-27.369735 -2.675694 -12.954445
-27.369735 -2.675694 -14.077127
-27.369735 -2.675694 -15.194606
-27.369735 -4.941395 -5.708937
-27.369735 -4.748647 -6.816962
-27.369735 -4.561905 -7.782544
-27.369735 -3.543163 -10.672452
-27.369735 -4.233434 -8.939387
-27.369735 -6.094046 -5.907928
-27.369735 -7.370260 -6.095027
-27.369735 -8.465411 -6.255427
-27.369735 -9.560116 -6.448621
-27.369735 -3.818802 -11.893425
-27.369735 -3.793055 -12.956734
-27.369735 -3.793055 -14.077127
-27.369735 -3.793055 -15.194606
-27.369735 -6.061371 -6.975875
-27.369735 -5.888811 -8.038857
-27.369735 -5.660118 -9.116229
-27.369735 -5.180077 -11.783093
-27.369735 -5.402527 -10.522993
-27.369735 -7.216163 -7.158157
-27.369735 -8.292048 -7.338329
-27.369735 -9.369747 -7.528371
-27.369735 -5.050925 -12.901464
-27.369735 -4.910563 -14.077127
-27.369735 -4.910563 -15.194606
-27.369735 -7.033167 -8.231902
-27.369735 -6.237470 -12.836412
-27.369735 -6.852996 -9.314952
-27.369735 -6.470355 -11.758654
-27.369735 -6.715132 -10.495402
-27.369735 -8.103255 -8.418347
-27.369735 -9.179378 -8.608121
-27.369735 -6.028043 -14.077127
-27.369735 -6.028043 -15.194606
-27.369735 -7.145522 -14.077127
-27.369735 -7.335445 -12.887252
-27.369735 -7.915621 -9.498573
-27.369735 -7.561432 -11.753302
-27.369735 -7.729890 -10.579155
-27.369735 -8.989008 -9.687842
-27.369735 -7.145522 -15.194606
-27.369735 -8.263031 -15.194606
-27.369735 -8.263031 -14.077127
-27.369735 -8.444540 -12.957478
-27.369735 -8.611094 -11.830722
-27.369735 -8.798639 -10.767592
-27.369735 -9.380510 -15.194606
-27.369735 -9.380510 -14.077127
-27.369735 -9.423263 -13.041439
-27.369735 -9.671549 -12.019516
-27.369735 -9.859332 -10.954631
-27.369735 -10.497989 -15.194606
-27.369735 -10.497989 -14.077127
-27.369735 -10.571484 -13.204128
-27.369735 -10.731558 -12.209855
-27.369735 -10.919994 -11.141641
-27.369735 -11.615498 -15.194606
-27.369735 -11.604616 -14.182495
-27.369735 -11.662443 -13.300517
-27.369735 -11.791239 -12.402811
-27.369735 -11.980687 -11.328680
-27.369735 -12.732977 -15.194606
-27.369735 -12.743294 -14.229232
-27.369735 -12.760657 -13.313896
-27.369735 -12.879819 -12.480856
-27.369735 -13.041379 -11.515690
-27.369735 -13.850456 -15.194606
-27.369735 -13.821319 -14.228043
-27.369735 -13.828930 -13.428480
-27.369735 -13.943098 -12.657578
-27.369735 -14.102072 -11.702729
-27.369735 -14.901753 -14.323332
-27.369735 -14.967965 -15.194606
-27.369735 -14.855937 -13.578534
-27.369735 -14.982236 -12.883863
-27.369735 -15.162645 -11.889769
-27.369735 -15.736131 -14.220848
-27.369735 -15.438165 -13.616709
-27.369735 -16.085444 -15.194606
-27.369735 -15.802432 -13.071051
-27.369735 -16.223308 -12.076778
-27.369735 -17.202834 -15.194606
-27.369735 -16.722198 -13.735099
-27.369735 -17.284000 -12.263817
-27.369735 -18.320313 -15.194606
-27.369735 -18.326438 -13.822657
-27.369735 -18.344693 -12.450827
-26.231177 -18.324505 -15.194606
-26.308359 -18.330749 -13.751867
-26.267449 -18.349122 -12.425912
-25.092499 -18.337081 -15.194606
-25.097583 -18.344128 -13.713900
-25.157135 -18.362383 -12.350514
-23.953643 -18.358191 -15.194606
-23.442831 -18.378259 -13.628661
-24.051548 -18.384592 -12.224661
-22.814668 -18.387535 -15.194606
-22.435625 -18.402847 -14.129513
-22.952978 -18.415661 -12.048682
-22.134090 -18.418396 -13.509855
-22.508020 -18.413164 -12.957537
-21.675723 -18.425413 -15.194606
-21.582635 -18.431984 -14.217756
-21.536016 -18.440487 -13.453662
-21.863863 -18.455471 -11.822903
-21.625953 -18.446968 -12.732055
-20.536838 -18.471675 -15.194606
-20.485432 -18.477562 -14.141733
-20.518850 -18.483805 -13.320645
-20.634178 -18.492070 -12.433256
-20.786491 -18.503993 -11.547829
-19.398131 -18.526321 -15.194606
-19.398220 -18.530632 -14.050399
-19.453133 -18.537440 -13.126292
-19.576399 -18.547400 -12.146171
-19.723153 -18.561017 -11.224056
-18.259721 -18.589470 -15.194606
-18.259869 -18.593662 -14.052212
-18.291592 -18.603979 -12.947012
-18.482943 -18.613731 -11.803994
-18.671290 -18.626902 -10.850393
-17.121638 -18.661033 -15.194606
-17.121846 -18.665225 -14.053164
-17.186601 -18.676999 -12.693880
-17.402122 -18.689129 -11.407319
-17.642946 -18.700814 -10.431153
-15.984060 -18.740832 -15.194606
-15.863143 -18.754330 -14.016802
-15.541867 -18.801157 -12.317126
-16.135392 -18.787332 -10.986057
-16.635323 -18.782902 -9.965591
-14.847018 -18.829282 -15.194606
-14.723425 -18.843672 -14.033868
-14.504871 -18.876347 -12.783609
-14.220670 -18.914552 -12.005631
-14.640861 -18.892194 -11.428607
-15.104877 -18.881550 -10.451311
-15.650624 -18.873047 -9.454689
-13.710600 -18.925998 -15.194606
-12.574955 -19.031098 -15.194606
-13.710927 -18.930190 -14.053996
-13.711908 -18.942558 -12.928192
-13.598424 -18.971011 -11.911086
-13.897669 -18.967503 -10.969586
-14.285603 -18.966254 -9.926316
-14.690929 -18.970892 -8.899547
-12.575342 -19.035290 -14.054056
-11.440143 -19.144582 -15.194606
-11.440559 -19.148774 -14.054085
-12.373288 -19.067608 -12.913832
-12.059891 -19.126684 -11.472193
-12.682761 -19.102186 -10.193095
-13.238081 -19.084852 -9.220347
-13.758319 -19.076349 -8.301354
-11.236335 -19.182817 -12.919005
-10.306252 -19.266480 -15.194606
-10.306698 -19.270673 -14.054145
-10.308066 -19.283249 -12.916300
-9.173342 -19.396763 -15.194606
-8.041592 -19.535429 -15.194606
-6.911031 -19.682361 -15.194606
-5.781808 -19.837588 -15.194606
-4.653953 -20.001199 -15.194606
-3.527614 -20.173076 -15.194606
-2.402851 -20.353247 -15.194606
-1.279723 -20.541565 -15.194606
-0.158349 -20.738178 -15.194606
-11.024797 -19.224976 -11.836401
-10.755016 -19.270792 -11.142503
-11.194890 -19.240049 -10.565508
-11.707635 -19.222835 -9.497383
-12.294411 -19.201518 -8.564327
-12.854726 -19.189149 -7.661389
-10.259841 -19.306291 -11.938825
-9.173877 -19.400955 -14.054174
-9.175305 -19.413531 -12.915259
-9.112453 -19.439725 -11.888817
-8.042127 -19.539622 -14.054264
-6.911626 -19.686553 -14.054383
-5.782462 -19.841780 -14.054531
-4.654667 -20.005391 -14.054710
-3.528357 -20.177149 -14.054888
-2.403624 -20.357320 -14.055126
-1.280555 -20.545757 -14.052926
-0.158170 -20.742608 -14.044571
-10.168596 -19.337449 -11.064994
-10.426366 -19.337895 -10.098520
-10.951153 -19.323951 -8.931270
-11.453581 -19.316607 -7.901498
-11.982114 -19.309234 -6.981019
-9.087300 -19.465799 -10.950082
-8.043673 -19.552079 -12.914783
-7.910210 -19.588589 -11.846599
-7.792177 -19.626348 -10.937417
-6.913231 -19.699041 -12.914635
-5.784127 -19.854357 -12.914724
-4.656421 -20.017849 -12.914962
-3.530201 -20.189755 -12.915319
-2.406775 -20.369689 -12.910829
-1.286234 -20.557887 -12.891623
-0.158170 -20.755630 -12.894804
-0.158170 -20.777393 -11.745156
-8.975808 -19.524637 -9.539988
-9.820086 -19.488365 -8.041027
-10.387002 -19.470794 -7.109398
-11.142354 -19.435978 -6.261671
-7.589053 -19.682926 -9.955512
-6.916086 -19.719793 -11.782439
-6.923637 -19.739505 -10.954126
-6.968264 -19.754252 -10.261833
-5.786952 -19.875109 -11.779168
-4.659305 -20.038601 -11.777652
-3.535582 -20.210151 -11.777117
-2.422027 -20.388508 -11.770843
-1.288583 -20.579205 -11.740488
-0.158170 -20.807779 -10.595686
-1.289801 -20.609590 -10.589531
-7.858091 -19.720804 -8.150438
-8.716462 -19.662174 -7.167404
-6.926729 -19.805716 -8.999682
-9.544418 -19.610471 -6.317387
-10.337202 -19.569442 -5.504891
-6.256022 -19.865476 -9.832128
-5.963228 -19.875466 -10.796937
-4.664537 -20.066846 -10.666952
-3.543431 -20.238603 -10.641085
-2.429609 -20.418537 -10.584536
-0.158170 -20.847024 -9.446513
-1.290456 -20.648716 -9.438842
-2.429460 -20.457901 -9.432004
-6.981286 -19.885307 -7.137167
-7.875157 -19.815141 -6.298835
-5.981810 -19.977950 -8.021642
-8.739860 -19.756749 -5.487885
-4.808318 -20.100859 -9.075764
-9.568411 -19.709238 -4.712315
-3.288872 -20.322178 -9.361928
-0.158170 -20.894862 -8.297638
-1.290812 -20.696554 -8.288510
-2.270517 -20.528186 -8.363225
-2.935338 -20.416961 -8.433004
-6.155025 -20.051415 -6.180059
-7.075980 -19.974649 -5.392567
-5.129802 -20.164929 -6.748580
-7.975054 -19.909241 -4.622705
-3.571795 -20.362642 -7.455857
-8.837587 -19.854922 -3.885608
-0.158170 -20.951321 -7.149179
-1.291020 -20.753133 -7.138565
-2.471203 -20.549265 -7.251633
-5.373360 -20.232836 -5.053392
-6.321014 -20.140431 -4.450294
-4.414914 -20.339630 -5.587871
-7.251603 -20.067738 -3.723692
-3.421533 -20.469467 -5.962515
-8.146306 -20.006402 -3.026553
-2.427795 -20.628291 -5.976875
-0.158170 -21.016641 -6.001195
-1.291139 -20.818452 -5.989065
-4.677441 -20.399033 -4.132794
-5.612697 -20.311861 -3.473681
-3.895092 -20.478743 -4.681335
-6.571054 -20.231914 -2.792717
-3.291161 -20.536362 -5.228539
-7.496083 -20.163324 -2.136964
-2.485295 -20.681480 -4.996071
-1.289920 -20.892364 -4.843668
-0.158170 -21.090345 -4.857226
-4.069228 -20.577391 -3.001936
-4.953941 -20.488495 -2.464216
-2.915209 -20.695870 -3.810180
-5.934865 -20.401323 -1.831832
-6.888227 -20.325240 -1.218744
-1.290337 -20.975017 -3.695298
-0.158170 -21.172879 -3.710342
-3.579138 -20.737048 -1.998773
-4.348464 -20.669588 -1.423325
-2.504442 -20.885466 -2.275363
-5.344343 -20.575697 -0.843060
-1.297502 -21.074914 -2.431779
-6.324106 -20.491795 -0.273884
-0.158200 -21.264154 -2.564113
-3.328860 -20.830910 -1.386012
-3.853023 -20.807452 -0.755531
-2.489339 -20.972757 -1.314300
-4.810666 -20.744867 0.088450
-1.358392 -21.161878 -1.322209
-5.804880 -20.662779 0.695652
-0.158200 -21.364051 -1.418627
-2.916310 -21.026958 -0.024112
-4.208757 -20.928190 0.983421
-1.356191 -21.280803 -0.083902
-5.331647 -20.837718 1.687725
-0.158200 -21.472659 -0.273914
-2.544907 -21.230825 1.347837
-3.714802 -21.118678 2.020923
-1.395704 -21.397260 1.104278
-4.905479 -21.016195 2.700282
-0.158200 -21.590008 0.869966
-2.254670 -21.365626 2.124239
-1.429836 -21.508366 2.154892
-2.884497 -21.372435 3.060625
-4.525544 -21.198834 3.736119
-0.158200 -21.715861 2.012895
-1.463164 -21.627410 3.209311
-0.158230 -21.850454 3.154843
-4.196270 -21.383554 4.783135
-2.913366 -21.554866 4.549002
-1.413335 -21.782191 4.371655
-0.158230 -21.993640 4.295751
-3.916439 -21.570623 5.844036
-2.718745 -21.733313 5.641982
-1.291437 -21.948627 5.462435
-0.158200 -22.145477 5.435528
-3.686646 -21.759744 6.916532
-2.593606 -21.901354 6.684093
-1.291466 -22.109294 6.602540
-0.158200 -22.305907 6.574146
-3.507397 -21.950440 7.998333
-2.413762 -22.099899 7.817121
-1.291466 -22.278584 7.741336
-0.158200 -22.475078 7.711486
-3.379077 -22.142415 9.087151
-2.293618 -22.298653 8.957583
-1.271665 -22.459975 8.878557
-0.158200 -22.652722 8.847547
-3.301864 -22.335252 10.180786
-2.237485 -22.503858 10.147190
-1.199359 -22.669402 10.075894
-0.158200 -22.838899 9.982181
-3.257178 -0.116784 14.082746
-3.256822 -1.255254 13.890296
-3.258308 -2.434871 13.650037
-3.258278 -3.570605 13.450749
-3.336412 0.068263 12.970916
-3.334955 -1.059890 12.787712
-3.340248 -2.241321 12.522598
-3.340129 -3.372090 12.324202
-3.468181 0.245253 11.863367
-3.464940 -0.877132 11.688815
-3.476476 -2.043251 11.400689
-3.476357 -3.174228 11.202203
-3.652218 0.413948 10.762032
-3.646747 -0.705344 10.594021
-3.666399 -1.845746 10.288146
-3.666221 -2.977972 10.089481
-3.887987 0.574289 9.669825
-3.879662 -0.543547 9.508295
-3.910374 -1.650620 9.182945
-3.910136 -2.783054 8.984222
-4.175161 0.726097 8.588261
-4.163476 -0.391382 8.432499
-4.207895 -1.457962 8.088865
-4.207627 -2.590217 7.890141
-4.512938 0.869193 7.520225
-4.531817 -0.198545 7.275745
-4.557207 -1.267265 7.012326
-4.556910 -2.400294 6.813453
-4.904201 1.004798 6.458997
-4.924180 -0.078223 6.216598
-4.958669 -1.079958 5.951931
-4.958312 -2.213314 5.752999
-5.341250 1.130650 5.425330
-5.317198 0.009752 5.282412
-5.367592 -0.941530 5.000501
-5.411565 -2.029545 4.710294
-5.826286 1.247761 4.412268
-5.797685 0.127666 4.272412
-5.866453 -0.785976 3.973315
-5.913666 -1.849938 3.692236
-6.358208 1.356608 3.422068
-6.370012 0.310543 3.216476
-6.409584 -0.631760 2.979697
-6.464765 -1.674762 2.698231
-6.935857 1.457188 2.456932
-6.947898 0.425960 2.255711
-6.996182 -0.489585 2.016820
-7.062899 -1.504342 1.731846
-7.577190 0.546401 1.314092
