ply
format ascii 1.0
element vertex 1542
property float x
property float y
property float z
end_header
-27.124964 -6.020273 -5.521995
-27.456777 -7.682193 -5.745631
-27.405928 -8.527198 -6.423360
-27.184981 -9.905549 -7.073313
-26.735044 -3.647538 -12.290540
-27.457048 -3.733649 -13.251108
-27.269459 -3.550144 -13.933769
-26.549176 -3.696901 -15.180282
-27.149902 -6.672128 -6.854123
-27.823575 -6.115183 -8.267125
-26.997879 -5.566290 -8.992888
-27.880562 -4.775763 -11.503882
-27.340760 -4.930761 -10.601420
-27.359708 -7.382558 -6.269137
-26.938553 -7.733562 -6.542602
-27.190686 -9.282711 -7.596941
-27.338764 -5.379115 -12.551668
-27.991483 -5.431299 -13.482038
-27.324654 -5.272983 -14.810256
-27.736257 -7.070066 -8.790551
-27.570091 -6.115917 -12.672105
-27.309032 -6.144100 -9.696432
-27.404277 -6.784517 -11.532074
-27.577913 -6.852047 -10.894324
-28.171881 -8.022356 -7.498651
-27.008132 -9.632938 -8.837509
-28.071902 -5.957281 -14.642978
-27.388380 -6.087392 -14.540496
-28.043381 -7.656744 -14.017570
-27.861551 -6.881446 -12.717038
-27.056068 -8.145796 -9.135142
-27.353723 -7.784080 -12.213743
-26.933173 -7.917465 -10.767540
-27.193051 -9.197239 -9.159608
-26.988812 -7.263269 -15.090485
-27.255648 -8.016970 -15.487255
-27.273867 -8.078797 -14.386224
-27.504462 -7.885238 -13.045965
-26.931807 -8.183938 -12.109019
-27.322156 -8.821454 -10.397429
-27.156171 -9.129493 -15.508202
-27.066085 -9.306648 -13.823712
-27.213161 -9.974828 -13.200583
-27.409238 -9.187303 -13.114942
-27.534808 -10.109841 -10.222322
-27.357012 -10.646486 -14.968346
-27.425864 -10.377995 -15.039889
-27.460470 -10.788993 -12.570112
-27.473324 -10.611144 -12.670678
-27.045679 -10.503125 -11.214494
-26.609150 -12.130267 -15.240610
-27.841953 -12.013152 -13.461019
-27.235721 -11.849151 -13.340716
-28.178507 -11.933125 -12.268816
-27.764425 -12.231906 -11.515667
-27.456760 -12.467675 -14.957204
-26.787102 -12.314375 -14.601392
-26.687943 -13.033361 -13.063948
-27.362080 -13.088696 -13.050583
-27.557870 -13.001296 -11.136736
-26.500524 -14.195957 -15.706276
-27.324282 -14.774543 -14.153953
-26.972807 -14.288563 -13.223461
-27.344070 -13.709236 -13.037384
-27.268095 -14.620768 -11.775657
-27.250323 -15.018069 -14.534052
-27.543919 -15.318217 -15.802896
-27.244174 -14.788378 -13.993300
-27.576881 -15.196511 -12.890678
-27.111530 -15.737206 -11.527168
-27.089624 -15.252530 -14.580074
-27.746316 -16.000005 -14.234450
-28.048433 -16.363171 -15.484777
-27.655455 -15.961830 -12.497665
-27.430146 -15.286942 -11.545187
-27.257356 -16.618847 -15.411997
-27.112202 -17.041690 -13.839610
-28.315080 -17.142801 -12.419974
-27.173885 -17.978726 -15.197491
-27.866975 -18.391359 -13.596356
-27.659635 -17.902430 -11.731720
-26.623440 -18.704200 -14.803703
-26.127798 -18.030969 -13.397421
-25.904534 -18.051870 -12.677900
-24.774775 -18.307687 -15.752513
-25.432031 -18.116301 -13.262365
-25.115691 -17.935062 -12.736142
-23.386133 -18.534038 -15.396455
-24.665093 -19.493395 -13.629873
-24.480929 -18.800296 -11.381351
-23.289595 -18.598568 -14.992979
-22.760207 -18.544806 -14.101072
-23.653048 -18.892306 -11.325302
-21.880391 -18.245016 -13.185743
-22.637392 -18.331898 -12.781580
-21.331184 -17.833664 -15.244372
-20.987581 -18.263707 -14.320103
-21.654890 -17.833487 -13.028494
-21.205174 -18.219425 -11.940953
-22.425886 -18.717659 -12.532525
-19.954046 -18.600044 -15.343544
-20.010422 -18.270894 -14.348993
-20.607076 -18.860118 -12.979511
-20.839778 -18.900878 -12.783357
-20.493542 -19.144723 -11.260486
-18.685276 -18.252160 -15.482188
-19.523874 -18.410997 -13.672973
-19.429348 -18.470725 -12.856567
-19.032258 -18.551070 -11.867351
-19.322701 -18.612460 -11.891933
-17.855982 -18.645886 -14.483746
-18.444774 -18.771721 -13.935513
-18.343703 -18.161639 -12.536548
-18.175304 -17.948592 -11.624692
-18.995535 -18.578336 -10.600300
-17.108896 -17.697832 -15.008970
-16.490016 -17.978175 -13.181865
-16.702547 -18.985226 -13.321327
-16.952191 -19.067586 -11.243776
-17.941931 -18.812125 -10.658053
-16.142187 -18.333213 -15.129524
-16.473583 -18.174977 -13.948714
-15.534074 -18.597514 -12.107753
-16.431437 -18.333040 -11.688275
-16.433126 -18.061184 -10.268179
-14.081949 -19.213302 -15.121754
-15.080692 -18.161791 -14.139850
-14.392961 -19.155224 -13.220934
-14.282282 -18.761360 -12.144745
-14.670871 -18.897824 -11.644434
-14.775823 -18.912420 -10.251898
-15.296574 -18.888228 -9.177922
-13.546022 -19.019848 -15.263406
-12.427617 -18.839893 -14.179777
-13.650178 -18.734618 -14.268295
-13.566409 -18.677769 -12.705911
-14.298748 -18.755603 -12.483017
-14.172653 -19.242468 -10.788019
-14.015520 -19.772672 -9.757932
-14.663861 -18.625746 -8.195371
-12.869731 -19.200587 -13.799865
-11.653688 -19.141236 -15.387544
-12.048732 -19.326865 -14.354119
-12.782791 -19.370404 -12.335938
-12.327832 -18.928509 -11.515594
-13.051942 -18.879070 -9.207521
-13.003431 -18.827437 -8.301932
-13.851234 -19.089758 -7.733277
-11.270660 -19.655698 -13.523914
-11.419881 -19.479157 -14.501241
-10.492293 -19.561462 -14.194329
-10.066976 -19.312936 -12.806943
-9.502764 -19.806372 -15.564212
-8.050508 -19.489528 -14.705389
-6.299581 -20.250315 -15.396300
-5.932709 -19.915767 -14.906275
-4.765119 -20.272428 -15.319727
-3.579167 -19.814951 -15.791859
-2.818038 -20.001902 -15.649771
-1.391067 -20.117370 -15.082308
0.134697 -20.937457 -15.545701
-11.892599 -18.605187 -11.516203
-11.134115 -18.760904 -10.737673
-11.950296 -19.190448 -10.755888
-12.582482 -18.853388 -9.775606
-12.057722 -19.183575 -8.565283
-13.256198 -19.067217 -7.787628
-9.843348 -19.499502 -11.795793
-8.527693 -19.266711 -14.035154
-9.032830 -20.049453 -13.176554
-9.044120 -19.742584 -12.628988
-8.201159 -19.621041 -14.089688
-7.179989 -20.024100 -14.570799
-5.909666 -19.763070 -14.168511
-4.868795 -20.190453 -14.008459
-3.157613 -20.753200 -14.139787
-2.315982 -20.444098 -13.775206
-1.590783 -20.826317 -14.432857
0.411027 -21.133423 -13.987015
-9.777235 -18.892853 -11.289698
-11.040611 -19.377733 -9.314120
-11.495860 -19.242055 -9.244069
-11.544021 -19.481163 -8.133470
-11.578773 -19.565810 -7.283452
-8.620168 -19.325373 -11.091767
-7.596478 -19.469577 -12.883443
-8.102627 -19.213141 -11.814461
-7.476996 -19.222060 -10.785824
-6.868068 -19.575111 -12.720425
-6.011916 -19.349154 -12.962436
-3.984829 -20.536952 -12.398299
-2.984763 -20.447988 -13.081315
-3.362585 -19.886330 -14.038675
-1.150907 -20.626357 -13.001380
-0.464907 -21.307976 -13.086548
-0.558044 -21.323388 -12.092009
-8.636855 -20.270307 -9.356033
-9.215123 -19.657940 -8.475863
-10.079015 -19.238808 -7.806793
-10.860852 -19.689115 -6.500017
-7.764243 -19.931338 -10.355946
-6.352868 -19.560779 -11.030891
-7.139881 -19.577412 -11.028686
-6.546332 -19.226349 -10.011792
-5.452726 -19.766089 -11.412998
-4.940816 -20.478370 -11.887357
-3.984925 -20.819577 -11.606790
-1.800582 -20.493725 -12.178062
-1.779338 -20.663022 -12.572879
0.289971 -20.925927 -10.684926
-1.110646 -20.083590 -10.919672
-7.975941 -18.991317 -8.094997
-8.292359 -19.383578 -6.891623
-7.498236 -19.664689 -9.762759
-9.992528 -19.509410 -6.807351
-9.764938 -19.789403 -5.259889
-6.278492 -19.385968 -8.844119
-6.239391 -19.422435 -11.158344
-4.571579 -20.011739 -11.387319
-3.670443 -20.814705 -10.850624
-2.827865 -20.297693 -10.891545
0.063493 -21.552030 -9.591974
-1.180531 -20.442302 -8.792941
-2.472597 -19.889020 -9.612747
-6.622216 -19.186059 -6.871398
-7.102841 -19.820497 -6.259666
-6.616720 -19.884879 -7.274517
-8.543520 -18.635900 -5.696070
-4.581186 -19.732410 -9.180401
-8.981996 -19.675891 -4.440787
-3.117532 -20.499543 -9.756644
-0.195969 -21.562244 -8.608508
-1.261092 -20.103638 -8.673205
-2.534752 -21.114868 -8.638297
-3.464206 -20.192086 -8.839790
-5.822893 -19.612764 -6.441906
-6.984500 -19.409978 -5.135444
-5.115084 -20.312533 -6.617165
-7.961925 -19.809256 -4.295954
-3.052438 -19.696846 -7.007061
-8.285940 -20.034615 -3.970362
-0.464496 -21.075849 -7.266101
-1.823562 -20.853422 -6.986778
-1.954953 -20.383019 -6.669151
-5.751893 -20.085831 -5.176273
-6.289439 -20.425921 -4.724453
-4.117244 -20.597091 -5.014832
-7.348080 -19.781541 -3.845898
-2.374205 -20.823808 -5.874052
-7.854907 -19.957831 -3.001000
-2.324702 -20.582977 -4.924938
-0.482665 -20.853982 -6.122557
-0.896300 -21.193225 -6.148057
-4.565191 -20.091677 -3.979441
-5.716141 -20.054938 -3.550334
-3.652200 -20.407125 -4.316854
-6.685857 -19.858759 -3.007805
-3.623547 -20.814844 -5.390294
-8.062316 -20.758969 -1.976982
-2.009967 -20.455913 -4.864153
-1.337999 -21.057493 -4.260173
0.254618 -20.443773 -4.374206
-4.078370 -20.987880 -2.216348
-5.365742 -20.086364 -2.392789
-2.349789 -20.372426 -2.872733
-6.181479 -21.221712 -2.148342
-6.546944 -20.972896 -1.868769
-0.825423 -20.340024 -4.239837
-0.532973 -21.067384 -3.341542
-3.327172 -20.802570 -1.756889
-4.706981 -20.586030 -1.007244
-2.323391 -21.184631 -2.933974
-5.519130 -20.006359 -1.103817
-1.457467 -21.232450 -2.461123
-6.487447 -20.504683 0.403365
0.020493 -21.173222 -2.656113
-3.578037 -21.287172 -1.229772
-3.307697 -20.354917 -0.093231
-2.365397 -21.081769 -1.203355
-4.664535 -20.639103 0.251083
-1.045930 -21.526812 -1.130255
-5.896033 -20.366430 0.667533
-0.110050 -20.867371 -1.525988
-3.932850 -20.952861 -0.371421
-4.220500 -20.905394 1.040650
-1.377251 -20.917701 -0.598179
-4.864735 -20.996918 1.859741
0.284790 -20.878774 -0.108190
-2.920130 -20.620411 0.778537
-3.611708 -22.120200 1.604624
-1.363675 -22.047262 1.503747
-4.931558 -21.044781 2.906945
0.188574 -21.108647 1.328878
-2.556267 -21.247517 1.562079
-1.912415 -21.824818 1.805423
-3.504782 -21.138711 2.980645
-4.484480 -21.261433 3.270570
-0.854892 -21.831400 1.367219
-0.981488 -21.901410 3.053264
-0.220702 -21.403168 3.179827
-3.999463 -20.755163 5.041067
-3.196528 -21.913912 4.288004
-1.051547 -22.115879 4.263267
-0.690624 -21.921633 4.066898
-4.465316 -22.453971 5.750836
-3.139979 -21.492000 5.862433
-1.226671 -21.732936 5.226605
-0.032849 -22.123301 5.844681
-3.827715 -20.875694 6.679949
-2.685075 -22.099021 7.048297
-1.145027 -21.298431 6.671741
-0.694560 -23.502789 6.735295
-3.351219 -22.035648 7.805669
-2.822274 -21.843375 7.961282
-1.923448 -22.457113 7.936363
0.360060 -22.418595 7.917254
-2.791576 -22.032183 9.293593
-2.390785 -22.506622 9.007641
-1.480168 -22.275961 9.417659
-0.291103 -22.449076 9.441094
-3.420763 -22.331162 9.462444
-2.705998 -22.572884 10.720853
-1.766896 -22.793275 10.032845
0.407580 -23.151356 9.943323
-2.805635 -0.142127 14.926479
-3.327611 -1.875977 14.564009
-3.305374 -2.719215 13.488824
-3.593631 -3.270765 13.628164
-4.257516 0.433573 13.072390
-3.214093 -0.593636 12.510921
-3.318690 -2.333275 12.574752
-3.098507 -3.941942 12.315225
-3.796920 0.560757 11.564532
-3.470158 -0.783223 11.924438
-3.637579 -0.881411 11.059413
-3.772421 -3.117710 10.998990
-3.687993 -0.506049 10.425431
-3.199727 -0.309836 10.515844
-3.711457 -1.836824 9.998568
-4.060077 -3.269222 10.779047
-4.141783 0.545980 9.640309
-3.974168 0.034494 8.947138
-3.324044 -1.452101 9.235680
-3.654874 -2.939470 8.242036
-4.302310 0.140182 8.616081
-3.313579 -0.386940 8.086920
-4.371096 -1.739527 7.437761
-4.229228 -2.377795 7.938932
-4.884952 0.466692 7.077840
-4.590858 -0.795081 6.556252
-5.259814 -1.071340 6.942024
-4.656290 -2.650972 6.269919
-3.739802 0.560671 6.080306
-4.701123 0.040553 6.068116
-4.892714 -0.737636 5.131529
-4.645306 -2.275475 5.810403
-5.029240 1.234209 6.150628
-5.281146 -0.310800 5.831738
-5.698211 -1.072657 5.139810
-6.233638 -2.004682 4.640127
-5.537031 2.021395 4.329415
-5.534392 -0.295834 4.494513
-6.211044 -1.002669 3.951393
-6.197562 -2.518864 4.204055
-6.396850 1.532202 2.979053
-6.514522 0.293182 3.386838
-6.519332 -0.512140 2.680352
-6.084198 -1.795645 2.638500
-6.864472 1.496882 2.981603
-6.858023 0.101779 2.242686
-7.008087 -0.239727 1.896325
-6.431391 -1.534349 2.135891
-7.629128 0.326681 0.937636
-7.808659 -0.248483 0.733573
-7.727828 -1.681302 1.332086
-8.646312 0.184771 0.418464
-8.890108 -0.578460 0.783914
-8.423521 -1.204882 -0.130940
-8.854893 0.843285 -0.395717
-8.817475 -0.352333 -1.337828
-8.848452 -0.676739 -0.518601
-10.958624 0.568167 -1.250344
-10.115600 0.213941 -2.096522
-9.135872 -0.929458 -1.778066
-9.762680 1.309639 -2.245633
-11.091828 0.049049 -3.014674
-10.822233 -0.907455 -2.645535
-11.453757 2.744500 -2.713751
-12.107986 1.402943 -2.769203
-11.561467 1.194882 -2.722511
-11.304145 -0.942674 -3.432119
-13.045155 3.425661 -3.164667
-12.815145 2.165360 -3.993277
-12.697354 1.217739 -4.605091
-12.396210 -0.458170 -4.335753
-13.197976 2.817435 -4.713900
-12.488786 2.770581 -4.259861
-13.634469 0.304923 -4.500061
-13.575246 -0.075833 -4.767598
-14.618457 3.175687 -5.460513
-13.739091 1.818166 -4.598226
-14.543378 1.103723 -4.770304
-13.948248 -0.202251 -6.088527
-15.439022 3.363333 -5.779071
-15.437681 2.434222 -5.491092
-15.321507 1.398612 -6.080404
-15.616380 0.263420 -6.962258
-16.505605 3.129095 -6.351982
-17.135105 1.969743 -6.486942
-16.170712 0.801642 -5.793709
-15.938994 0.678092 -6.977807
-17.373523 3.454775 -6.708184
-17.998097 1.571690 -6.716081
-16.504521 0.949283 -6.956447
-17.192265 -0.395565 -7.289950
-19.273341 3.137844 -7.035786
-18.117611 2.396126 -7.298010
-19.004297 1.946698 -7.420332
-18.589978 0.670918 -7.014605
-19.750870 4.320740 -7.991842
-19.160238 1.829864 -7.779597
-19.519832 1.009671 -6.692547
-18.699613 0.315762 -7.491597
-20.253358 4.134158 -8.029724
-20.185865 2.725079 -6.749953
-20.485632 1.648889 -7.857183
-20.341001 -0.567894 -8.098589
-21.405203 4.038590 -8.440121
-20.945814 2.154184 -7.389275
-21.504482 1.664338 -8.118105
-21.804127 0.855726 -8.615610
-23.244100 4.253240 -7.968533
-22.853061 3.030332 -8.045779
-22.954578 1.179778 -8.479659
-23.400637 -0.182256 -8.572546
-23.687315 4.612227 -9.298547
-24.364927 2.714864 -8.811761
-23.863318 1.518625 -8.376150
-24.254968 0.361556 -9.336661
-25.012659 3.632051 -8.233626
-25.690678 2.510047 -8.266171
-25.342916 1.202129 -8.881900
-25.334882 0.074222 -8.977269
-26.144161 3.619545 -8.626856
-26.238951 2.304183 -8.694552
-26.153964 2.173631 -8.667802
-26.033488 0.009525 -9.031259
11.029658 -26.534744 -15.149145
8.943310 -27.725029 -15.720930
9.593405 -25.455981 -14.918802
10.070107 -26.382599 -15.768577
10.769735 -26.153491 -15.376039
11.431476 -26.787135 -16.071850
8.514749 -28.013798 -15.365756
8.071249 -26.510348 -15.361667
8.123986 -24.946025 -14.929544
8.351539 -24.809122 -14.841386
9.797985 -25.162335 -15.416458
10.869700 -25.300471 -15.380509
12.705506 -25.666392 -15.782538
7.758477 -27.241604 -15.233225
6.722207 -26.281783 -15.150234
6.903571 -25.743887 -14.878725
6.951610 -24.016773 -14.493647
7.823837 -24.965934 -15.149755
8.376671 -24.758431 -15.818799
9.456619 -24.507768 -14.730349
11.173845 -25.258861 -15.622435
11.325964 -24.737402 -14.635872
25.936223 1.833769 -14.937582
26.924563 -5.469524 -14.674948
26.111125 0.003945 -15.696735
25.936869 -5.273986 -15.705462
26.876491 -3.469615 -15.110926
26.325376 -0.765506 -15.019315
26.093091 -2.862039 -15.348870
25.255900 1.155039 -15.009541
5.987785 -27.486055 -14.804074
6.517988 -26.084201 -15.443223
5.556457 -25.251340 -14.829430
5.941404 -24.157162 -14.961393
6.782551 -24.169468 -14.806116
7.098979 -24.317149 -15.204717
8.261268 -23.678207 -14.794827
8.461170 -23.918452 -15.838632
9.864251 -23.610128 -15.090517
10.950720 -23.251596 -16.177426
12.385182 -23.569533 -15.015573
12.702093 -21.893736 -15.536402
12.870163 -21.019286 -15.704635
12.464143 -19.922939 -14.978232
24.859473 -6.258720 -15.317802
25.058111 0.486957 -15.582887
24.811076 -4.980847 -15.096394
25.873012 -1.376673 -15.665091
24.708564 -2.607562 -15.026609
24.729376 -2.077733 -15.626731
24.748497 1.285036 -15.419283
23.855577 0.412077 -15.480350
5.088661 -27.626942 -14.609221
5.500091 -26.865244 -15.515060
5.164145 -25.609169 -15.401946
4.893771 -25.144390 -15.148318
5.259217 -23.804278 -15.195690
5.978381 -22.489428 -15.142712
5.782131 -23.285331 -15.239131
6.973653 -23.365622 -15.094873
8.190417 -22.634567 -15.305270
8.266434 -23.039511 -15.310729
9.492801 -22.955752 -15.519330
11.019843 -22.220135 -14.959478
11.853472 -21.090499 -14.725252
10.618711 -19.784696 -15.260166
12.189284 -18.587507 -15.791978
10.779155 -18.431254 -15.152017
23.164687 -6.143403 -14.832679
23.720541 -4.959347 -15.445432
23.739484 -0.889314 -15.340813
24.013342 -3.988547 -15.624212
23.852285 -2.012430 -15.406544
22.017661 0.211775 -15.605444
22.908675 0.862485 -15.333956
21.839331 -0.656795 -15.377778
22.682325 1.331891 -15.742930
3.119401 -27.365550 -14.969243
3.456370 -26.008067 -14.866354
4.091225 -25.158740 -15.216907
3.071168 -23.654543 -14.467832
4.003860 -23.336050 -14.643795
22.061405 -6.666534 -15.017216
21.933793 -6.436709 -15.061875
20.668563 -6.384596 -14.800167
4.094367 -23.037585 -15.069858
12.475166 -17.436462 -15.272794
19.229252 -7.233076 -15.326514
12.387258 -16.217578 -13.698826
18.626589 -7.584812 -14.592353
12.056929 -15.735923 -15.711636
18.001313 -7.738801 -15.539320
12.936767 -14.314351 -15.118629
16.908172 -8.614477 -15.108226
13.573930 -13.726885 -15.071618
15.601512 -9.678088 -15.188387
13.312846 -12.562658 -15.611916
15.356221 -10.127502 -15.189936
14.078325 -11.519448 -15.067186
4.019394 -20.748511 -15.228086
5.580742 -21.604628 -15.506663
7.787633 -22.107628 -14.504456
8.546212 -20.662938 -15.645411
9.894568 -20.910819 -15.186161
10.021215 -19.585605 -15.325648
9.598163 -18.499409 -14.992306
11.328169 -17.781361 -15.205406
10.369933 -17.629655 -15.423981
22.717689 -4.964548 -15.147846
21.124284 1.568331 -15.010969
22.558018 -4.341741 -14.914390
21.651796 -2.315746 -14.796768
21.975036 -0.693395 -15.827117
21.666017 -0.209913 -14.988209
20.834051 -0.957322 -15.583067
20.101106 0.281917 -15.100699
1.835419 -27.567256 -14.714623
2.525928 -25.854352 -15.647480
2.618630 -25.412384 -15.133430
2.468315 -23.924367 -15.341929
3.216549 -23.803295 -14.949541
2.940279 -22.042408 -15.439123
20.640028 -5.505753 -15.662188
20.022528 -5.937271 -14.875498
19.384141 -5.494796 -15.011529
3.159775 -20.814412 -15.413779
11.589466 -16.128740 -15.714388
18.025245 -6.636137 -15.104501
11.301690 -15.152192 -15.772444
16.660559 -7.403167 -15.530646
11.858407 -14.468371 -14.796311
16.042598 -8.564842 -15.380576
12.461979 -13.037498 -16.024670
15.151726 -8.819514 -14.994001
12.376455 -11.612746 -15.177545
14.646118 -9.347688 -14.843389
14.091401 -10.526146 -14.824597
3.767383 -19.478985 -14.972908
3.928595 -19.996851 -16.024858
4.832079 -19.201164 -16.062172
7.251278 -19.843915 -14.743345
8.547151 -19.893595 -14.958734
8.202113 -18.521371 -15.199531
8.392490 -16.812144 -15.503289
10.462942 -15.790274 -15.246541
7.941399 -15.013775 -14.718755
19.721661 1.728728 -15.353051
20.895200 -3.366492 -15.915622
19.103075 1.376706 -14.334987
20.382725 -1.913372 -15.643539
19.788447 -0.824924 -14.919034
20.563753 -0.287380 -15.156143
19.266531 -0.357875 -15.503354
18.476560 3.184668 -15.132923
1.890385 -27.759784 -15.061150
1.282195 -26.113662 -14.964329
2.106684 -25.563882 -15.641087
2.357104 -24.568405 -15.236657
4.176847 -20.540408 -15.837896
1.373857 -23.874470 -15.045042
1.878717 -22.925122 -15.434845
2.501694 -20.860655 -15.039072
19.946071 -4.039743 -15.148553
18.731870 -5.333287 -14.923717
17.618704 -5.227853 -15.236665
2.073122 -18.943186 -15.612650
10.171300 -14.851504 -15.049217
16.513866 -5.371020 -15.689816
10.895713 -13.708401 -15.453836
15.890678 -6.763815 -15.325503
11.156126 -12.111991 -14.934600
14.333746 -8.336562 -15.175472
11.909370 -11.287889 -15.526648
13.718591 -8.648599 -15.579133
12.770155 -9.536268 -14.987098
3.521741 -19.107965 -15.525587
2.066876 -18.240065 -15.315529
4.387714 -18.330477 -14.992567
7.300412 -17.759884 -14.665799
7.486682 -16.897242 -15.282771
8.278099 -15.729607 -14.946458
8.716215 -13.801738 -14.804770
8.224368 -13.822687 -15.500012
18.310408 1.631218 -15.462124
19.460311 -3.668561 -15.586168
18.069592 0.848634 -14.908454
18.570841 -0.546011 -14.681655
17.245611 -0.321703 -14.589008
18.000628 3.654787 -15.270508
17.032009 1.683543 -14.958203
16.258352 3.173230 -15.920594
15.355344 4.318409 -14.699266
14.712478 4.414934 -15.145652
13.579333 4.349522 -15.332993
0.816029 -25.968670 -15.195013
-0.015619 -26.509607 -15.338869
0.311642 -25.515770 -15.536873
0.932709 -25.134304 -15.480308
0.475636 -23.221501 -15.887669
3.746054 -18.348717 -15.411999
0.542085 -22.720604 -15.526455
1.804277 -20.712457 -14.754346
1.381230 -19.180684 -15.192082
18.664731 -3.473142 -15.356057
16.519033 -4.407797 -15.465340
15.082569 -4.959239 -15.090322
1.931697 -17.937459 -15.262290
9.723984 -11.971560 -15.452296
13.439813 -6.523031 -15.093648
10.691593 -11.767978 -14.817351
14.015394 -6.229646 -14.746014
10.460829 -10.527175 -15.765281
12.891108 -8.266538 -15.732785
11.528273 -9.343558 -15.653960
2.037870 -18.268592 -15.073584
1.399863 -17.686286 -15.422693
2.977882 -16.364192 -15.247977
5.028248 -15.479341 -15.112494
5.949374 -15.148754 -14.816086
6.945651 -12.665074 -15.291446
8.208605 -11.449218 -15.457884
7.298472 -11.589631 -14.601837
16.649042 1.389985 -15.553990
17.690235 -2.206053 -15.429845
15.954618 -0.042313 -15.388563
16.899216 -1.070851 -15.474667
16.502578 -0.188504 -15.202856
16.137284 2.251756 -15.653209
16.193420 1.316788 -15.779775
14.598059 2.795559 -14.772068
13.996782 3.128974 -15.141387
12.965364 3.707704 -14.937730
12.134523 4.143794 -15.290696
13.012348 4.993354 -14.657142
0.449649 -25.827095 -15.841415
-1.294573 -24.629192 -15.231778
-0.549693 -23.934049 -15.618200
-0.291705 -22.284673 -15.147723
1.228665 -16.278382 -15.965024
0.294255 -20.121677 -15.501828
-0.463831 -18.315861 -15.243160
16.347934 -2.344049 -15.667600
14.761435 -3.288470 -15.152950
14.026120 -5.217769 -15.007787
0.769968 -17.290544 -15.719875
9.378336 -10.076751 -14.842511
13.368065 -5.676171 -15.343491
10.217693 -9.675211 -15.117897
11.575515 -7.185870 -13.982062
10.595115 -8.063432 -14.965985
1.257937 -16.640827 -14.940759
-0.323983 -16.856585 -15.131924
1.835227 -14.608684 -14.383805
3.200244 -14.220169 -14.831501
4.511976 -12.201998 -15.305465
4.936829 -11.037584 -15.322862
7.438795 -9.981459 -15.258264
6.569328 -8.237402 -15.593391
15.556147 -0.020237 -14.709664
15.793523 -1.335559 -15.317771
16.257378 -1.011892 -15.100092
14.240133 1.992130 -15.152396
14.210524 0.979664 -15.120666
13.190264 2.309852 -15.553775
12.592596 2.650658 -15.287416
12.313954 3.462734 -15.905897
10.107277 3.851197 -15.124578
11.024029 5.322836 -15.527140
12.142946 5.922909 -15.351706
-0.100859 -15.343915 -14.916528
-0.816999 -19.713555 -15.435827
-0.481699 -18.828393 -14.877704
-0.241946 -17.051063 -15.754485
14.829311 -1.734697 -15.012318
13.533933 -3.219041 -14.829045
13.092015 -3.801775 -14.865776
-0.625492 -15.893761 -14.500220
7.862141 -7.238029 -15.168139
11.490138 -5.261539 -15.103303
9.298703 -6.562270 -15.093556
0.343118 -15.366756 -14.623936
-0.711407 -14.338914 -15.161261
0.222606 -14.273290 -15.867784
0.993355 -14.299033 -15.552437
1.966039 -12.122544 -15.927489
3.211225 -9.909634 -15.359164
3.719263 -8.553617 -15.478632
5.005871 -8.186755 -15.338774
6.461116 -7.966787 -15.865710
5.636271 -6.325964 -15.310259
14.212353 -0.152601 -15.645703
12.746597 1.465152 -15.282353
12.309368 0.270112 -15.231182
9.739411 7.150402 -15.393250
11.873243 1.004529 -15.255035
11.195575 3.007737 -16.544968
10.126227 3.096182 -14.896641
9.197355 4.086020 -14.970750
8.841763 4.386580 -15.583513
10.172828 5.921399 -15.069834
10.044209 7.441146 -14.934551
9.075348 7.951037 -15.027882
8.193529 8.968742 -15.483449
-0.033812 -13.400853 -15.063599
-2.989504 -19.119882 -15.178658
-1.770062 -18.141550 -16.234566
-1.801747 -17.266121 -15.191247
-2.083342 -15.877175 -15.214397
12.701480 -1.700822 -14.936450
10.789340 -3.180264 -15.945166
9.345946 -3.533532 -14.686534
-1.699650 -15.158894 -15.201291
6.971019 -4.183100 -14.604242
-1.113781 -13.903974 -15.597009
-0.166614 -14.469611 -14.872038
-0.944360 -13.018671 -15.644223
0.426009 -13.439432 -15.036511
0.870252 -11.705587 -15.090184
1.793277 -9.565645 -15.243939
2.455807 -7.795980 -14.839323
3.981400 -7.242478 -15.211049
5.103090 -5.426078 -15.277993
5.897720 -4.713806 -14.455690
5.006681 -4.435426 -15.517603
11.105516 -0.371075 -15.455449
10.869633 -0.290630 -15.108405
10.757929 -0.326310 -14.873267
8.325973 6.193998 -14.904310
10.134795 2.163566 -15.386489
8.863266 2.385793 -14.940626
7.737569 1.962079 -15.320391
6.391468 3.934111 -15.285112
7.978117 4.940346 -15.397939
8.687266 5.486011 -15.095394
8.730412 6.697073 -14.691300
7.998743 7.947852 -15.424816
7.586373 9.191219 -14.719167
7.019859 7.929640 -15.076033
-3.183952 -18.939616 -15.630948
-3.076722 -17.638088 -14.872589
-2.685678 -16.643653 -15.031788
-3.209209 -15.646834 -14.455137
-2.584320 -14.933840 -15.923828
11.398994 -1.795894 -15.121060
8.361728 -3.185964 -14.761535
6.712013 -3.959279 -15.178871
-3.475335 -13.974989 -15.008322
6.108097 -3.985109 -15.441261
-3.207660 -12.334554 -15.502590
-2.344711 -12.913295 -14.227781
-1.071430 -11.706047 -15.164436
-0.229222 -10.863665 -15.542152
0.885942 -8.062688 -15.491713
1.050178 -7.561289 -14.992113
3.491533 -5.188869 -15.590757
3.408887 -5.940631 -15.578174
4.162854 -4.405291 -14.887400
5.393688 -4.059134 -14.959230
4.473077 -2.827137 -14.646108
10.076892 -0.426610 -15.282851
7.564868 5.788911 -15.259625
8.461489 0.835578 -15.093888
6.912831 1.132522 -14.944830
5.899106 1.971091 -15.265826
4.932648 3.338403 -15.453892
4.828861 4.002448 -15.837304
6.494716 5.582084 -14.712122
6.298166 6.506935 -14.802240
5.593979 7.767424 -15.932324
5.256338 9.044157 -15.318574
6.193185 10.362128 -15.405750
4.485405 8.641149 -15.306425
-3.843238 -19.554295 -15.000757
-3.815555 -17.509254 -14.463720
-4.507887 -16.456875 -14.605358
-3.901896 -14.716216 -15.243539
-4.069894 -14.697916 -15.222913
-3.655984 -13.360189 -14.786863
8.384328 -1.574634 -14.791132
6.520659 -2.597213 -14.813658
5.989305 -3.148736 -15.157555
-4.056079 -12.017226 -14.260822
5.129548 -2.988149 -14.840984
-3.089790 -11.517723 -15.371350
-2.175597 -11.372686 -15.064974
-1.204476 -9.642717 -15.591444
-0.929130 -7.899257 -15.192855
-0.721380 -6.727773 -15.088470
0.010520 -6.213831 -15.606475
0.937144 -6.107025 -14.437038
2.097479 -5.096665 -15.206836
2.361319 -4.214735 -15.703930
4.337400 -3.559661 -15.208859
3.708486 -3.255302 -14.813356
7.471620 -0.694930 -15.330573
5.355745 10.196699 -14.891277
6.051832 5.861824 -15.266358
6.509878 0.968304 -15.324918
5.509595 1.536344 -13.953494
4.477281 2.679372 -15.666903
2.987459 4.571006 -14.522780
3.995622 3.445170 -14.779106
5.222753 5.331303 -15.006670
6.035735 6.505834 -15.953350
4.196862 7.816012 -14.601426
3.675848 9.591429 -15.093308
4.823739 10.040035 -15.018298
2.897772 8.647068 -15.359971
5.185608 11.823052 -14.905354
-5.847905 -18.797895 -14.158124
-5.786508 -17.004112 -15.378611
-4.961382 -16.482748 -15.414702
-4.811979 -15.049975 -15.650010
-5.186675 -14.696304 -15.559513
-4.996012 -12.909878 -15.351156
-5.045511 -11.725823 -14.685801
6.532473 -1.386612 -15.831281
6.334290 -2.620114 -15.591823
4.363310 -2.526804 -14.999361
-4.680995 -10.679642 -14.957672
3.960138 -2.545115 -15.562341
-4.928330 -8.700260 -15.469658
-3.715362 -9.358649 -15.291047
-2.158430 -7.196100 -15.489386
-1.475490 -6.525272 -15.086987
-0.172493 -5.196337 -15.547472
0.456993 -4.850798 -15.169536
1.126490 -3.723891 -15.448436
2.525345 -4.247208 -15.172760
3.288518 -3.058528 -15.541407
5.891655 -0.440823 -15.336289
4.232134 10.823362 -15.306950
3.797393 6.087761 -15.146558
4.341943 0.581905 -14.874099
2.745856 1.598826 -15.632419
3.162447 2.820405 -15.014363
1.206693 3.820290 -16.183169
2.936972 4.116626 -15.855452
2.287369 5.358671 -15.220663
3.213898 7.020984 -15.507118
2.890593 7.768104 -15.044279
2.224916 9.086469 -14.822655
2.821023 10.829515 -15.666930
2.607953 8.395208 -15.786949
3.835070 11.683264 -15.181069
3.896432 12.374490 -14.951238
5.057533 13.143305 -15.775474
-6.643539 -18.727575 -15.614091
-6.888098 -17.717365 -15.049468
-6.457395 -15.574767 -14.739160
-5.799865 -15.100534 -15.040183
-6.377308 -14.339615 -15.258707
-5.714496 -12.272118 -15.534827
-5.520546 -11.538243 -15.538316
-4.749530 -10.105221 -15.594836
4.326676 -0.330281 -15.182384
4.080716 -1.288241 -14.687576
4.203202 -1.977735 -15.169859
-5.334089 -9.168753 -15.003101
3.431216 -2.006471 -15.355369
-5.024579 -8.622476 -15.430546
-4.803393 -8.502073 -15.145674
-3.908630 -8.104358 -14.730215
-3.160504 -6.802105 -16.017122
-2.814154 -5.745391 -15.034854
-1.670835 -4.862700 -14.751073
-0.235489 -3.915682 -15.402883
0.152465 -3.103799 -14.851982
1.687213 -3.196290 -15.220646
3.838143 -0.575901 -15.658915
2.442922 10.924162 -15.657864
2.928957 5.860407 -15.685291
2.298653 1.279519 -14.749409
0.201998 2.464101 -15.084185
0.086777 3.317996 -15.256244
-0.286918 4.800877 -15.058320
0.433221 5.016144 -15.164136
2.182707 5.648632 -15.178083
2.098111 6.447701 -15.183670
1.226991 7.526376 -14.673016
1.473669 9.223522 -15.294943
1.953888 9.809804 -15.559029
0.679454 8.985333 -15.143187
1.109751 10.984342 -15.039420
3.137511 12.983280 -15.560264
3.490430 12.861861 -15.821880
4.360194 13.902699 -15.219414
-7.250453 -18.580510 -15.025076
-7.364557 -17.427839 -15.376267
-7.868933 -15.519451 -15.215932
-7.301209 -14.550213 -15.112191
-7.194253 -13.844052 -15.399761
-6.760083 -12.956219 -15.468080
-6.606620 -10.880918 -14.588241
-6.135608 -9.780790 -15.159285
-6.784420 -9.746803 -15.592630
2.965165 -1.198973 -15.393565
-6.156704 -8.236446 -15.126612
1.606563 -2.110768 -15.546129
-5.690908 -8.329763 -15.254966
-4.789331 -7.332092 -15.221926
-4.159755 -5.804585 -14.322152
-2.445337 -5.028803 -15.624087
-1.791386 -3.953688 -15.152209
-0.810294 -3.057274 -15.070769
-0.148535 -1.863230 -14.571218
1.285116 1.054540 -15.341364
1.007488 11.364223 -15.506842
0.353901 6.280957 -15.336021
0.723692 1.013985 -15.598672
-0.534645 3.873395 -15.796465
0.853283 2.246472 -15.353718
-1.070389 2.962290 -14.592608
-0.519346 4.006615 -15.628236
-0.516375 3.898141 -15.523143
-0.841870 4.947193 -15.994663
0.511858 6.130637 -15.198176
0.050577 7.294906 -14.674151
-0.670446 8.191501 -15.002918
-0.320649 9.737901 -15.421770
-0.027266 10.684686 -14.066470
-0.619399 9.000219 -14.567954
0.617684 10.787611 -15.166851
1.204447 12.255420 -15.235371
1.927351 13.768636 -14.293300
2.819962 14.505914 -14.626147
4.210412 15.222375 -15.298593
-9.190374 -18.389976 -15.402409
-8.600181 -17.708574 -14.936195
-9.020195 -16.072635 -15.211861
-8.871768 -15.292369 -14.512028
-8.648000 -13.295146 -15.538502
-7.874819 -12.215597 -15.646572
-8.078201 -10.858727 -15.188674
-7.237796 -10.027305 -15.178867
-8.008387 -8.799416 -14.844374
-8.051060 -7.833643 -14.727230
0.393347 -1.105563 -15.534293
-6.732950 -7.157963 -15.369880
-0.711114 -1.737711 -15.802615
-5.625730 -5.790785 -15.318598
-4.108143 -3.698495 -15.510753
-3.893412 -3.832198 -15.323772
-3.251381 -2.454322 -14.863862
-1.480126 -2.416842 -15.247467
-0.230851 0.511500 -16.344080
-0.481697 10.938238 -15.559584
-0.369255 6.693919 -15.332096
-0.263966 2.485236 -15.875943
-1.991446 2.770276 -14.402539
-2.631455 3.379599 -14.714804
-2.609498 4.602178 -15.032247
-2.088096 4.746391 -15.602365
-0.656756 5.980987 -14.661300
-0.352870 7.992808 -15.342664
-1.120813 8.324175 -15.593390
-2.124877 9.760849 -15.356258
-0.797637 10.526115 -14.648386
-1.475496 8.502983 -15.157755
-0.603690 12.182073 -15.481839
0.416231 12.673629 -14.969751
1.486004 13.264453 -15.071591
0.981695 13.947959 -15.459480
2.900942 14.439806 -15.905173
3.190973 15.691410 -15.829924
-11.760283 -18.228365 -14.784004
-10.509379 -16.373260 -14.836516
-9.762431 -15.899127 -15.133903
-8.999620 -14.769237 -15.398224
-9.636607 -13.542834 -15.373173
-9.115586 -12.543117 -15.560534
-9.630742 -11.419830 -15.026550
-8.910008 -10.755562 -14.741877
-8.829094 -8.581066 -15.488203
-8.808722 -7.619669 -15.313261
-7.948767 -5.432775 -14.563991
-2.051340 0.116941 -15.023983
-7.533231 -4.643696 -15.808175
-3.272055 -0.825052 -15.139707
-5.518436 -3.216465 -16.285298
-4.195005 -2.961527 -15.014119
-3.684647 -2.613677 -14.991774
-2.311602 2.017654 -15.524177
-1.555948 11.116707 -16.261214
-1.376957 6.734862 -15.544940
-3.607389 1.951356 -15.136595
-3.101064 2.905538 -14.895621
-4.474442 3.862249 -15.566157
-2.856959 5.010477 -15.173964
-3.268831 4.861600 -15.022646
-1.153715 5.397251 -14.645877
-1.926126 6.588172 -14.643067
-2.758347 7.624936 -14.940756
-2.770978 10.133414 -15.167686
-1.769642 10.427701 -15.189168
-3.251539 8.369528 -15.536704
-1.852813 11.433005 -14.611284
-1.588298 13.201676 -14.586807
-0.792169 13.050504 -15.138086
0.452662 14.567239 -14.468581
0.499370 15.477249 -15.596277
1.751561 16.333442 -15.600991
2.271590 16.193852 -14.521282
-12.189576 -17.982419 -15.511602
-11.580907 -16.802980 -15.075857
-11.082937 -15.743417 -14.651985
-10.625380 -14.410401 -15.572960
-10.665147 -13.398116 -14.454410
-10.561435 -11.386130 -14.420493
-10.645077 -11.298412 -14.947659
-10.303871 -9.816841 -15.194509
-10.289593 -9.096012 -14.917743
-9.428713 -7.466815 -15.330827
-9.244803 -5.733432 -14.661349
-8.623990 -4.583905 -15.113574
-9.286401 -2.981166 -15.571340
-8.003853 -3.016000 -15.134613
-3.535981 0.289909 -15.711047
-6.581146 -2.139239 -14.790915
-3.855296 -0.560765 -15.181045
-5.372747 -1.473336 -15.229131
-4.045959 0.305941 -15.550052
-3.354018 11.349293 -15.385634
-2.661806 6.551889 -14.081600
-4.708560 2.050275 -15.558942
-4.811636 3.057462 -14.756873
-5.275494 3.089865 -14.319445
-4.909484 3.764807 -15.382823
-4.195021 4.773394 -14.958410
-3.082274 6.084212 -14.574630
-2.766475 7.242775 -14.804837
-3.808123 8.194704 -15.939124
-3.606686 9.462780 -15.107603
-3.004129 9.389057 -15.776514
-4.665204 8.823999 -15.134118
-3.169024 11.845865 -15.161613
-2.985645 12.388394 -15.183646
-1.631688 13.029650 -15.481614
-1.183949 14.901659 -15.462462
-0.788976 14.455017 -15.243606
0.237557 15.341974 -15.297855
0.633896 17.237801 -15.667855
1.661469 17.378053 -15.061335
-12.822487 -17.652940 -15.631666
-12.813010 -16.895332 -15.797530
-12.191177 -15.188668 -15.723043
-12.824376 -14.353865 -14.894540
-11.734232 -12.774768 -14.959483
-11.734015 -12.280534 -14.886038
-11.697726 -11.103138 -15.102559
-11.986375 -9.371368 -15.212100
-12.207749 -8.109702 -16.094124
-11.116239 -6.962890 -15.398928
-11.161500 -4.715793 -14.679213
-10.319993 -3.713456 -15.604871
-9.417073 -2.351600 -15.531710
-8.096008 -2.641185 -15.239961
-9.487242 -0.719898 -15.040219
-10.303075 -3.694211 -15.077761
-9.398873 -1.672870 -15.679210
-9.716292 -0.812507 -15.417011
-6.649845 -1.699539 -15.025659
-4.815043 1.226360 -15.225323
-5.483714 0.006278 -14.809111
-5.267683 1.481219 -15.430840
-3.745529 11.418354 -16.389957
-3.642628 6.779731 -15.887783
-5.841618 2.728240 -15.626799
-5.838839 4.134605 -14.231322
-6.006838 4.040992 -14.460781
-5.483504 4.502717 -14.777443
-5.474119 5.513490 -15.399848
-4.265626 6.006170 -14.752169
-4.299126 7.627099 -15.248305
-5.213797 8.461736 -15.683249
-4.978185 9.153786 -14.871257
-4.415018 9.900564 -15.324992
-5.611884 9.026841 -15.568834
-4.734635 12.134315 -15.023343
-3.925734 11.990059 -14.501341
-3.429521 12.917152 -14.695445
-2.369687 14.083851 -15.718277
-2.020308 14.942199 -15.926296
-1.231081 15.900181 -15.225460
-0.991604 17.548472 -14.824286
-0.026895 17.282715 -15.418611
1.165852 17.714295 -15.674360
-13.857846 -17.347102 -15.468056
-13.529554 -16.938586 -15.936447
-13.296476 -15.008059 -15.164713
-12.674974 -14.691158 -15.585233
-13.350613 -13.066288 -15.490929
-14.029437 -11.895351 -15.116644
-11.991579 -11.135349 -15.511762
-13.274535 -9.852927 -15.491257
-13.469919 -9.302131 -14.850692
-13.241112 -6.704083 -15.293637
-12.386599 -6.595710 -14.994915
-12.439043 -4.203182 -15.120306
-11.920794 -2.218388 -14.908518
-8.231694 -0.133257 -15.764157
-7.943341 -0.476131 -16.266284
-9.713803 -0.407922 -15.766767
-9.893539 0.278027 -15.422747
-11.885154 -1.060027 -15.576268
-10.885816 -0.401892 -15.236781
-6.958820 1.341385 -14.947963
-6.315570 3.248154 -15.684675
-4.976212 10.002833 -15.659533
-5.130248 6.679425 -15.521197
-6.455620 3.615520 -15.773430
-6.296327 4.486064 -15.471744
-6.545350 4.623040 -15.193952
-6.094439 6.393316 -15.337118
-5.386748 6.374424 -15.944861
-6.827541 7.489849 -15.413731
-6.171512 9.762583 -15.413375
-5.324865 10.620845 -14.990086
-6.585110 8.784495 -15.233560
-5.020350 12.382151 -14.973747
-4.910926 12.691183 -14.475704
-3.922799 12.113941 -15.344433
-3.343908 13.812547 -14.622833
-3.178306 14.324023 -14.965444
-2.048358 15.631429 -15.076424
-2.935091 17.154000 -15.021513
-1.314887 18.252178 -16.005589
0.006475 17.878674 -15.084721
0.708478 18.483822 -15.046656
-15.028325 -17.512696 -14.095760
-14.260955 -16.740113 -15.510735
-14.608536 -16.040898 -14.663659
-14.880017 -14.238268 -15.391565
-14.194348 -12.976542 -14.949398
-13.477884 -11.620962 -15.055773
-14.785320 -11.082148 -14.879417
-14.388229 -9.505190 -14.980080
-14.737456 -8.292392 -14.639058
-13.468702 -7.074581 -14.434086
-14.140503 -4.769005 -15.260293
-12.788300 -3.681863 -14.239471
-14.598048 -2.030167 -15.180121
-13.198769 -1.460145 -15.006640
-8.461534 0.276386 -15.514729
-7.772397 1.741292 -15.305947
-9.337959 1.663611 -14.704953
-10.701917 2.072872 -15.497645
-10.893532 1.042496 -16.407387
-11.868071 -0.276480 -15.380502
-7.799048 3.148313 -15.121936
-6.524089 4.219844 -15.957822
-6.771498 10.233457 -16.034623
-6.157158 6.362764 -15.042573
-7.089586 4.507081 -15.060699
-7.132958 5.715219 -14.930425
-7.007760 7.561590 -15.701763
-6.677604 7.763067 -14.624507
-7.269000 8.909315 -15.434286
-6.431389 9.655844 -15.260327
-7.613082 9.220342 -14.276347
-6.670256 11.003680 -14.852211
-6.421767 12.414357 -15.638195
-6.092200 12.888966 -15.236614
-4.931208 13.254127 -15.576573
-4.048494 14.494235 -14.463356
-3.488844 15.219936 -15.954503
-2.941886 16.511978 -15.071891
-3.229282 17.164910 -15.841168
-2.490748 18.297095 -15.338849
-1.291256 18.651879 -15.470396
-1.090975 19.498865 -15.186622
-15.690846 -16.746679 -14.977625
-15.765581 -16.206653 -15.282881
-15.179075 -14.881991 -15.202298
-16.329976 -14.744830 -15.199357
-15.009692 -12.751402 -14.784159
-16.215410 -11.590924 -14.669118
-15.826838 -9.512028 -15.571112
-15.190705 -9.699939 -15.048344
-15.315126 -7.748736 -14.997640
-15.491748 -7.673938 -15.349927
-15.577403 -6.149621 -15.180528
-15.926353 -4.628744 -15.420804
-14.992274 -4.390141 -15.476296
-13.858313 -3.159015 -15.251952
-14.793429 -1.380133 -15.449128
-13.570980 -0.677793 -15.891320
-13.334351 0.651717 -15.220192
-9.017007 2.254637 -14.649054
-9.252873 2.203703 -15.134669
-9.888470 2.666833 -15.050722
-9.467925 3.098240 -14.785909
-10.685430 2.830881 -15.525223
-11.781239 1.346095 -15.190321
-13.868163 2.367699 -14.759702
-12.991155 1.181286 -15.238459
-8.251657 3.286549 -14.758972
-8.676895 5.104300 -15.173617
-7.258959 10.770206 -15.029890
-7.473939 6.582370 -15.282559
-8.063787 5.567012 -15.024008
-7.717001 6.020906 -14.919097
-7.630334 7.830349 -15.208745
-8.579466 8.769030 -15.266043
-8.005968 8.989042 -15.684042
-8.164189 10.102138 -15.632262
-8.298322 8.948101 -14.702876
-8.171643 11.146036 -15.432753
-7.106862 11.923571 -15.008011
-6.323885 13.123483 -15.430622
-7.067438 13.309500 -15.135959
-6.400665 14.240566 -14.831292
-5.424413 15.481076 -15.219065
-4.167244 16.013584 -15.267477
-4.737814 17.166802 -15.634713
-4.030419 17.726196 -15.285675
-3.226355 18.362415 -14.729649
-3.152265 19.321908 -15.157918
-1.737783 20.494251 -15.012172
-17.239987 -16.889524 -15.079052
-16.629749 -16.137253 -15.788412
-16.503255 -15.384205 -14.871603
-16.278561 -13.555836 -15.155325
-16.366025 -13.251511 -14.865314
-16.961372 -11.899527 -15.590248
-16.724184 -10.468209 -15.534882
-16.758381 -8.193037 -14.903494
-17.064964 -8.073607 -15.218488
-17.385122 -6.701130 -15.145136
-17.687464 -5.406065 -15.681042
-16.701497 -4.728844 -15.768142
-15.462058 -3.060751 -14.808874
-16.236185 -2.978858 -15.183488
-17.675795 -3.695777 -15.595435
-15.217765 -2.616245 -15.126310
-15.326671 -1.263002 -14.941083
-14.797719 -0.380922 -15.186509
-14.795919 0.267421 -14.865162
-15.385185 1.521822 -14.612656
-9.971884 3.289934 -14.765404
-9.772916 3.420669 -15.325537
-9.384694 3.097147 -16.314819
-10.612177 3.287410 -15.637998
-11.544472 3.868186 -14.855474
-12.316789 3.364403 -15.400913
-13.857288 3.567997 -15.290339
-15.185096 3.044848 -15.368007
-9.151733 4.779043 -15.922183
-9.300476 5.563257 -15.492889
-8.067169 10.117407 -15.015543
-8.991162 6.264354 -15.670649
-8.957566 7.502726 -15.726377
-8.939978 8.831538 -14.808232
-8.502443 9.050226 -15.196698
-8.031892 10.498397 -15.159329
-8.292263 11.290601 -14.806711
-7.796721 12.081870 -15.259264
-7.381672 12.614782 -14.866834
-6.556148 13.808138 -15.334964
-5.942766 14.917427 -14.888022
-6.234498 15.582715 -14.671713
-5.278103 16.787520 -15.558872
-4.299128 17.488660 -15.105054
-3.661765 18.496732 -15.501827
-3.556079 19.098157 -14.986922
-3.239399 19.941524 -15.575136
-2.488662 21.068402 -15.138091
-18.015580 -17.581919 -15.341074
-18.180535 -16.500299 -14.793438
-17.731406 -15.245587 -15.257574
-17.765103 -14.715318 -15.041713
-17.870810 -13.276343 -14.861683
-18.308283 -11.634486 -15.012483
-17.624900 -10.125644 -15.252153
-18.574151 -8.606768 -14.867095
-18.375860 -8.381511 -15.341808
-18.526812 -6.920602 -15.499966
-17.584112 -6.332862 -15.355778
-18.175629 -4.660421 -15.935737
-18.750604 -3.276847 -15.947136
-15.936845 -2.718013 -15.076051
-17.213771 -2.160547 -15.313200
-18.656629 -2.834806 -15.600535
-15.914083 -1.592543 -14.929385
-16.665618 -0.327389 -14.381665
-16.443960 0.867329 -15.088819
-16.483039 1.314587 -15.163715
-16.364232 3.253041 -15.497996
-10.158316 4.253187 -14.870012
-10.365317 5.391157 -15.476768
-11.246373 4.167242 -15.280679
-11.418980 3.587989 -15.803113
-13.186836 3.633688 -14.712412
-13.303820 4.916127 -15.274834
-15.385169 4.023187 -15.641318
-15.219337 3.818564 -15.446515
-9.989771 5.586821 -14.624903
-9.998405 7.324855 -15.210475
-8.902213 9.589782 -15.308980
-9.215198 8.994347 -15.051475
-9.815884 8.845053 -14.901164
-9.535527 10.164146 -15.154857
-9.165398 11.177050 -15.694799
-8.761039 11.411140 -15.512936
-8.416334 12.809660 -15.029278
-8.539068 13.595198 -15.125500
-7.372122 15.087536 -14.984821
-7.827360 15.671979 -15.646271
-6.774589 16.797000 -14.701719
-5.939328 17.428288 -15.477010
-5.639502 18.939155 -15.381452
-5.620938 19.343686 -15.388375
-4.461236 20.060604 -15.054632
-4.251165 20.285905 -14.938773
-2.909513 22.455961 -15.230211
-3.691714 22.087919 -15.402672
-19.027417 -17.776757 -15.630233
-19.505977 -16.337089 -15.549487
-19.504724 -15.751626 -15.551669
-19.104450 -13.917595 -15.628073
-19.500045 -12.802516 -15.552907
-19.242626 -11.694760 -14.730542
-18.991217 -10.712549 -14.478319
-19.701009 -9.260003 -15.399122
-20.154291 -8.158557 -15.389714
-20.136923 -6.587261 -14.810483
-19.278459 -6.689430 -15.303952
-19.737851 -4.391015 -15.160706
-19.895540 -4.901446 -15.114765
-19.397327 -2.266013 -15.180211
-17.613700 -1.757455 -15.409420
-19.130112 -1.174185 -14.511320
-19.871309 -1.846522 -15.022877
-16.730865 -1.022463 -15.438484
-16.488026 0.550722 -15.018052
-17.978599 1.222912 -14.637921
-16.822836 3.906733 -14.640464
-17.454411 4.676160 -15.159074
-11.214832 4.904248 -15.476338
-11.608435 6.783246 -14.838989
-11.751924 5.432671 -15.254792
-12.605124 5.995165 -15.741226
-17.465224 5.265066 -14.569523
-14.231083 5.055938 -15.172662
-16.263702 5.031341 -15.710247
-15.657519 5.387163 -15.715567
-10.918764 6.602481 -14.950141
-10.637445 7.897642 -14.855502
-9.571747 9.536082 -15.110863
-10.372205 10.457359 -15.271835
-10.626094 11.194603 -14.737711
-9.789594 12.123678 -15.092306
-9.460231 12.710783 -14.746624
-9.194397 12.946583 -15.400360
-8.961181 13.469052 -15.208772
-8.839311 14.811604 -14.681584
-8.667588 15.043393 -15.766813
-7.369998 16.957626 -14.993495
-6.718197 17.380112 -14.598696
-6.997752 18.665009 -14.900837
-7.444812 19.953579 -15.871680
-4.926956 20.483434 -14.701832
-5.470831 21.083319 -14.621880
-5.401799 21.889658 -15.853888
-6.070507 23.172023 -15.278533
-20.724653 -17.421118 -14.956966
-20.765284 -16.105680 -14.893965
-20.192458 -15.101889 -14.940792
-20.191066 -13.680198 -15.621482
-20.833563 -12.956994 -16.113599
-20.959564 -11.009171 -15.373084
-20.656475 -9.775624 -15.916424
-20.754522 -9.776365 -15.260279
-21.766216 -8.081008 -15.242034
-20.426822 -7.300635 -14.877475
-20.439302 -6.090757 -15.229489
-19.950008 -5.158305 -15.517991
-20.777003 -3.063008 -15.427327
-21.271218 -1.974432 -15.864245
-21.265920 -1.732041 -15.553059
-19.069308 -0.217946 -14.826945
-20.419023 0.039340 -14.955428
-20.305624 -0.188605 -14.795475
-19.020427 1.056777 -15.579493
-18.831699 1.997606 -14.820321
-18.020914 2.582586 -15.595058
-18.496979 3.788627 -15.446667
-18.405351 4.932817 -14.601362
-18.878640 6.832195 -15.038406
-12.897300 6.613618 -14.951240
-11.266732 7.616430 -15.517613
-12.807646 6.033673 -14.637082
-17.235757 6.068856 -14.923967
-13.881992 6.237925 -14.990489
-16.192452 6.605220 -14.899403
-15.026351 6.275083 -15.020436
-11.896268 7.597011 -15.241258
-11.142780 9.601682 -14.840456
-11.886866 10.297553 -14.371512
-11.119925 11.302468 -15.455689
-11.073649 12.064341 -15.410866
-9.714525 12.157269 -14.942615
-9.614567 13.924132 -14.073718
-9.261516 14.490605 -14.799683
-9.694885 15.502396 -15.437361
-7.855054 16.224465 -14.850041
-8.486213 17.806139 -15.511644
-7.656644 18.645829 -15.957468
-7.806590 18.311940 -15.350194
-6.361283 20.295951 -15.609817
-6.206770 21.401976 -14.425302
-7.809238 22.155358 -15.221602
-6.831631 22.330247 -15.665195
-6.928933 23.621103 -15.634650
-21.572697 -17.441115 -15.596436
-21.522809 -15.819589 -15.046407
-20.933830 -14.765708 -14.634914
-22.458478 -13.528204 -15.176279
-21.663420 -13.024067 -15.217862
-21.613876 -11.641681 -14.775776
-22.105846 -10.582214 -15.360529
-22.260658 -9.649528 -15.484912
-21.717995 -8.300922 -15.077719
-22.478444 -6.930026 -15.160180
-21.758645 -6.325129 -15.534987
-21.068113 -5.263973 -15.276103
-20.851251 -3.667961 -14.801668
-21.642920 -2.375060 -14.915405
-22.475814 -1.482167 -15.397450
-21.912481 -0.346510 -15.992663
-19.183095 0.493483 -15.531960
-20.657616 0.548656 -15.017799
-22.131578 0.249867 -15.593134
-19.790545 2.221182 -15.279392
-19.455809 2.676453 -14.458048
-19.598584 4.010268 -16.154098
-20.374033 5.890949 -14.918789
-19.802930 6.055232 -15.048610
-17.286193 6.955694 -15.197933
-18.614386 6.650753 -14.727483
-19.044409 7.169381 -14.738499
-13.064251 7.475098 -15.343045
-12.632061 9.152773 -14.988504
-13.907154 7.454834 -15.540029
-16.278562 7.717496 -14.952822
-16.540547 7.962328 -15.593288
-12.405019 9.777648 -15.074748
-12.133213 11.072962 -15.031352
-12.673363 11.436159 -15.440654
-12.243416 12.602864 -15.337090
-11.815900 13.590524 -15.478729
-10.400580 13.998778 -15.995201
-10.585843 15.321862 -15.413388
-10.488497 16.453313 -14.905953
-9.364234 17.540380 -14.397984
-9.924095 18.072469 -14.999230
-8.513762 19.331713 -14.812251
-8.244817 20.062802 -15.187854
-8.070297 21.498496 -15.089303
-8.231019 21.804639 -14.994338
-7.826490 22.716909 -15.430906
-7.831311 23.450959 -15.089364
-6.680752 24.655440 -15.153194
-22.961449 -16.726757 -15.440908
-23.206484 -15.687568 -15.542322
-22.383772 -15.745006 -14.890629
-22.028276 -14.171161 -15.187607
-22.713321 -11.434231 -15.481402
-22.934695 -11.711441 -15.314158
-22.867639 -11.640810 -15.121546
-23.064602 -9.126284 -15.041388
-22.757747 -8.429723 -14.876965
-23.185396 -6.512087 -14.974786
-22.779556 -5.473079 -14.880447
-23.021005 -4.645387 -15.020183
-22.516375 -4.445500 -15.087939
-22.916141 -3.253785 -15.455967
-22.953979 -1.469603 -15.785665
-22.746301 0.005678 -15.482036
-22.892484 1.401556 -15.295884
-20.167766 2.083390 -15.060537
-21.482291 1.474632 -14.960783
-22.061641 1.659577 -15.122454
-19.475902 3.333552 -14.517504
-20.898066 4.312876 -15.709528
-20.960768 5.234195 -14.963600
-20.210613 6.076210 -15.371015
-20.416380 7.445604 -15.623061
-16.370894 9.154922 -14.759915
-17.343698 8.698614 -15.501751
-18.842753 8.601250 -15.089051
-20.309310 8.358116 -15.090705
-20.929135 8.217154 -15.262597
-13.730382 8.448955 -15.061286
-13.308893 10.647497 -15.879702
