ply
format ascii 1.0
comment VCGLIB generated
element vertex 1871
property float x
property float y
property float z
element face 0
property list uchar int vertex_indices
end_header
1.956679 -0.1414362 -1.738658 
-1.138555 0 0.5104843 
2.213386 0 -2.855117 
-0.2360531 0 0.3584696 
1.382825 0 2.658866 
-1.490383 0 -2.171345 
2.867074 0 1.236556 
0.9976853 0 -1.409523 
-2.155653 0.05792347 -2.016646 
2.172734 0 1.998679 
2.403699 -0.0001438184 1.758547 
-2.458469 0 0.2619451 
-0.6953529 0.02082917 -2.363313 
0.4921218 0 -2.467252 
2.230883 -0.02552687 1.324781 
0.1808043 0 1.784993 
-2.904588 0 -0.1507303 
-1.718522 0 0.05980492 
-1.791978 0 0.7045772 
-2.111814 0.364295 2.375317 
2.069394 0 -0.694685 
-1.537813 0.3760304 2.359904 
-0.62308 0.05414429 -1.699745 
2.104294 0 2.748373 
-1.591161 0 -0.9221111 
-1.770475 0.3276236 2.027272 
-1.562661 0 0.03904703 
-1.496484 0 0.7529361 
-0.6318862 0 0.8383824 
-1.804168 0 -0.9064503 
0.4112678 0 -0.2907922 
-0.4650602 0 -0.1554768 
-1.773844 0.05755044 -1.479834 
2.977678 0 1.656883 
1.375316 0 -1.010164 
0.4927896 0 2.965851 
1.039342 0 -0.4175293 
1.75123 0 1.616271 
-1.829851 0.01188979 1.695753 
-0.5148845 0 2.548733 
-2.083812 0 1.5181 
2.747424 0 -0.9527196 
1.564765 0 -0.6608193 
1.735385 -0.1642976 -1.982389 
0.477235 0 -1.135248 
-1.720638 0 0.7175114 
0.1802306 0 0.6483755 
1.376514 0 -0.398591 
1.589076 0 2.621262 
0.2062882 0 0.909919 
-1.975167 0 -2.723179 
-2.681239 0 -1.793836 
1.665029 0 -0.666807 
0.5519414 0 0.5906879 
0.5583882 0 -1.828331 
2.660215 0 0.7715776 
0.08444484 0 0.04156877 
-0.4595538 1.362367e-06 1.964652 
-0.801704 0 -0.8838754 
0.6970637 0 -2.614683 
2.01578 0 -2.785274 
-2.515403 4.329604e-06 -1.702302 
1.885828 -0.008906391 -1.445236 
1.104223 -0.0001111486 -1.844751 
-2.485769 0 1.241536 
1.149837 0 -1.577603 
-0.4963325 0.0005459466 1.914154 
-1.706767 0 0.6676875 
2.504261 -0.0007081382 -1.98508 
0.5305117 0 0.9437153 
2.15304 -0.05894929 1.06084 
-1.235116 0 0.2083099 
-0.03198517 0 1.96853 
-0.6580967 0 -2.998816 
1.127022 -0.0309879 -2.363291 
-2.20338 0.02673444 -2.274427 
-0.1909817 0 1.144423 
-2.919741 0 -2.12003 
-1.434899 0 -0.1616199 
-0.2898102 0 2.801547 
2.191494 -0.1322053 -1.788335 
-2.884253 0 0.6615801 
1.502159 0 2.520896 
0.7140121 0 1.601487 
-0.3046996 0 -1.287752 
0.3718052 0 1.666163 
-1.696769 0 -0.3836422 
-1.587602 0 -2.505561 
2.271027 -0.0129752 -1.216427 
-2.942306 0 2.211818 
1.295867 0 1.52794 
2.395375 -0.02092015 1.433369 
-2.186186 0 0.2300822 
-0.04786427 0 -0.5432879 
0.8450267 0 -0.7854504 
2.768227 -3.098825e-05 1.489581 
-2.937428 0 2.009103 
0.8384597 0 -1.33986 
0.1021413 0 -1.868518 
2.231392 -0.05196384 1.069994 
0.4380692 0 -2.405962 
-0.3152461 0 -0.648138 
-0.5491738 0 -0.4145431 
2.732679 0 0.6486835 
2.728568 0 0.1781159 
0.1137473 0 -0.3030155 
2.267849 0 -0.1379933 
2.822536 0 1.474422 
1.85002 -0.0001952459 -1.232642 
-2.0695 0.09882431 2.893212 
-2.516074 0 -2.621154 
1.63655 0 1.299976 
0.4085985 0 -0.8035851 
-0.5768005 0 0.1062844 
-0.5004866 0.004813736 -2.639983 
-2.35171 0 0.2645561 
-1.65958 0 -0.1663806 
-0.5813863 0.05252468 -1.704346 
-2.548598 0.03780783 2.77571 
1.155943 0 2.179722 
1.971176 -0.02823114 0.8012364 
2.081794 0 -0.7447668 
0.2071212 0 0.8997802 
2.949739 0 -1.249822 
1.823153 0 2.947114 
0.2147609 5.466715e-05 -2.199176 
1.782941 -0.005224646 0.5130438 
-1.704442 0.216574 1.873569 
0.9074329 0 0.8155813 
2.710802 0 2.624542 
1.45541 0 1.391416 
2.920621 0 -0.350174 
-1.587608 0 -0.9393141 
-1.749478 3.208555e-05 1.49416 
1.828123 -0.05813503 -1.694311 
-1.804415 0 -0.911947 
-2.896403 0 1.214753 
1.360955 0 2.202013 
0.1083101 0 -0.1940887 
-0.0937774 0 2.773614 
1.152481 0 -1.584433 
0.8732589 0 1.129322 
1.52604 0 2.841153 
2.841773 0 -1.112671 
0.8214277 0 2.486498 
1.652831 -0.000108026 1.145804 
1.719153 -0.03500078 0.8723112 
0.004253312 0 0.9793651 
0.4442599 0 0.5243704 
-0.353146 0 0.8784838 
-2.99795 0 -2.891595 
2.584242 -0.0045951 1.497175 
-1.026366 0.01139137 1.37545 
1.357257 -0.0068297 -1.880606 
-0.6975265 6.047008e-07 2.378834 
-2.984913 0 -0.2475759 
0.9753616 -0.02485333 0.3926726 
2.224594 0 -0.1924981 
-1.963512 0 1.310608 
-1.091911 0 0.527731 
-1.456026 0 -1.10669 
-0.773688 0 -0.5726796 
1.233385 -0.01156637 0.2302832 
2.713352 0 -0.7844173 
1.608031 0 0.2147641 
0.9439731 0 1.504324 
-2.762084 0 -2.813376 
-0.3150111 0 -0.05437227 
1.637283 0 1.70553 
-2.186931 0.2449551 2.210568 
-0.5902869 0 -0.4749092 
-1.20114 0.3451437 1.883605 
-0.7876689 0.0383393 -1.510825 
-1.835968 0 0.3894729 
-1.117132 0.06464979 -1.668456 
-0.1363901 0 -0.2010499 
2.071756 -0.0002487194 1.453475 
-2.429743 0.001509805 2.019522 
1.91153 0 -0.7784286 
-0.2148854 0 1.58703 
2.522959 -0.02539099 -1.611318 
-1.930921 2.376967e-05 -2.518093 
2.788345 0 0.7542111 
2.111584 -0.1606905 -1.814377 
0.8359414 0 -1.546634 
1.935803 0 -0.04517901 
2.469262 -3.475215e-06 -0.9270263 
1.604199 0 1.272296 
-0.2581949 0 2.150269 
0.5599766 0 1.236409 
0.8832188 0 -1.409912 
-2.102991 0.001394587 -1.327195 
-0.4644331 0 1.077784 
2.662013 0 0.9687101 
0.5998988 0 -0.618695 
-2.891145 0 -2.136069 
0.2408721 0 1.301929 
2.470773 0 -0.7050686 
1.980781 0 1.799726 
1.513811 -0.009487841 0.884939 
2.201152 0 -0.5064107 
0.8977426 0 0.8166021 
2.335258 -5.604902e-06 -0.9117132 
2.635332 0 0.5584849 
-0.2043005 0 0.8396318 
-1.483749 0 -0.8408453 
-0.5804811 0 1.110909 
-1.329111 0.003208251 -1.180116 
-2.310901 0.00925345 -2.342927 
1.696078 0 -0.6270751 
-1.501498 0 0.7677634 
-0.3290286 0 0.07287134 
-0.3454652 0 -2.872429 
0.3881364 0 0.4015675 
-0.6759362 0.001307051 1.381639 
-2.844018 0 0.243417 
1.606871 -6.93676e-08 -1.301434 
-2.902826 0 1.51607 
-0.7887388 0 0.2492357 
0.8479775 0 1.861656 
-1.59912 0 0.7479747 
-1.172153 0 -2.270766 
2.397696 0 -0.2640953 
-1.579103 0 0.3639361 
1.277761 0 2.980979 
-0.9184972 0.04530173 2.316183 
-2.675501 0 0.3543223 
-1.74042 0 0.4369929 
1.917299 -0.08322483 -1.667819 
-0.3611092 0 1.721565 
-1.739022 0 1.037899 
2.502936 -0.000768349 -1.09975 
-2.665451 0 -1.192695 
-0.6137772 0 -0.1959757 
-0.6731182 0 -2.817502 
1.828334 -0.01839183 0.6621563 
2.367252 0 -0.5076765 
-0.9910988 0.1330258 1.645791 
0.356308 0 1.212966 
-0.3075137 0 2.717547 
-2.849309 0 0.09802505 
1.39665 0 -0.6502358 
1.395522 0 -0.6885978 
-0.8894413 0.1726733 1.876979 
1.179232 0 1.826055 
2.511515 0 -0.6321585 
2.229924 -0.08315957 -1.844258 
0.7685484 0 0.7835911 
-0.3281626 0.03820157 -1.756381 
0.5653929 -0.002266212 -0.1832585 
1.233263 -0.02763489 0.337634 
2.728061 0 -0.1059446 
0.9082435 0 1.331034 
0.1700056 0 -1.968886 
-0.1031423 0.03012194 -2.453302 
-2.073915 0 0.6479416 
2.572648 0 -0.8237057 
-2.934603 0 0.5635028 
-1.653948 0 0.4921032 
-2.797655 0.00018005 2.439192 
2.811776 0 0.06117524 
0.3172958 0 -2.818061 
0.4688696 -2.387114e-05 -0.2890258 
-1.605021 0.2094728 2.605765 
-0.1097724 0 2.083949 
-2.868546 0 2.182895 
-1.252743 0.009295045 1.394253 
-1.061184 0 -0.978413 
-0.7058455 0 1.164793 
2.425359 -0.07143104 -1.489622 
-2.340716 0.2224673 2.555912 
0.6486319 -0.006489318 0.2900096 
2.965106 0 -2.827013 
-0.8491204 0.1413148 1.941328 
0.1964661 0 1.507061 
-0.7064161 0.02189235 1.633157 
2.237381 0 0.1799844 
-0.2583369 0 1.041229 
2.531341 0 -0.301056 
0.7773212 0 1.699083 
-1.05086 0.2587796 2.164499 
-2.110099 0 -2.936723 
-0.7933049 0 2.713504 
2.681243 0 2.98198 
-0.221015 0 0.9627069 
1.507254 0 1.478595 
2.641134 0 -2.198023 
-2.663384 0 -2.041325 
2.979785 0 0.7440119 
-2.968441 0 1.926334 
-1.801018 0 1.416332 
-1.867353 0 1.435296 
1.323038 -0.002441785 0.1994205 
-0.3885044 0 -0.9321687 
0.01833141 0 -0.07792302 
2.687904 0 -0.3255686 
0.4756052 0 -2.17461 
1.448312 0 1.569996 
1.034348 -0.005139421 -2.140462 
0.2014558 0 1.168319 
-0.6605608 0 -1.101488 
-1.930024 0.03602218 -2.237997 
-2.322011 0 -0.03582626 
0.8519261 0 -0.5281441 
-0.6162184 0 -1.051301 
2.914084 0 1.375244 
0.9643785 -0.02329935 0.1399065 
-1.772647 0.05732664 -1.477748 
2.6515 0 -2.85364 
1.975789 0 -0.6401654 
-0.1088184 0 2.987538 
2.590229 0 0.09442947 
1.98576 -0.001424144 1.353474 
-0.879177 1.881329e-05 1.222065 
-2.031529 0 -2.97738 
-0.400326 0.01019172 -2.653491 
1.066309 0 -0.675642 
2.489319 -0.01091536 1.097407 
-1.636863 0 -0.913403 
-1.778536 0.05159449 -2.071963 
2.044441 0 -0.1395107 
0.6801814 0 0.713989 
-0.9918126 0.041558 -1.4536 
1.524727 -0.0001454546 -1.583978 
-1.532137 0.2330855 1.800842 
-1.127583 0 0.911613 
0.1114389 0 2.199627 
-1.647321 0.01886336 -2.136069 
-2.232749 0 -0.7626511 
-0.6391478 0.01792486 1.850288 
-0.2233304 0 -1.326859 
1.687973 0 1.878384 
2.421718 0 2.345675 
-0.1731154 0 -0.943926 
0.3499715 0 2.830148 
-1.40028 0.003864001 2.74968 
1.139973 0 2.590091 
-1.991263 0 -1.100566 
0.3921065 0 1.129722 
-2.075555 0 -0.2711641 
2.461816 0 -0.3962436 
1.058859 0 -1.66659 
2.491405 -0.009058231 -1.810527 
2.228174 0 2.550903 
0.7722631 0 2.117543 
1.284567 0 -0.8152314 
-0.7374799 0.003175833 1.384888 
-1.430936 0 -0.4799003 
0.4930952 0 -2.351242 
2.313854 -0.001342324 0.8038793 
-2.742562 0 0.1501508 
1.509045 0 1.759018 
-0.7983785 0 -0.1249752 
1.90697 0 -0.5145333 
2.288138 -8.267508e-05 0.7567467 
0.879863 -7.562969e-07 -1.932169 
-1.526269 0.3579871 2.388678 
-1.832057 0 0.4928004 
-2.748899 0 2.013726 
0.3792795 0 1.303446 
1.476524 0 2.29957 
1.800128 0 2.006089 
-1.500402 0 2.972807 
-0.02267375 0 -0.6101608 
-0.2843757 0 1.388749 
-2.501754 0 0.9044 
-1.936861 0.0001771396 1.605874 
-1.76704 0.05848316 -2.024611 
-1.18866 0.0004028043 1.276056 
1.703395 -0.02925515 -1.720448 
1.736505 -5.836683e-05 -1.35523 
0.9815685 0 2.1057 
-2.724869 0 0.7101407 
-1.79059 0.009685636 1.666251 
2.65692 0 0.1784039 
2.488264 0 2.706331 
0.00999143 0 0.8803777 
-0.3492431 0 -0.1458625 
-2.6087 0 0.2272642 
-1.057036 0 -0.6359621 
-0.9002742 0.03386528 -1.442125 
-2.629449 0 1.585479 
0.02530619 4.615199e-06 -2.76675 
2.177446 0 2.768737 
-0.6703786 0 2.977524 
2.338198 -0.004256859 -2.032406 
1.494806 0 1.771882 
1.322779 -1.012988e-06 -1.605098 
-0.8513278 0 0.1342224 
2.391082 -0.04637039 1.269775 
1.281734 0 -1.623199 
0.7110099 0 -1.626183 
1.380629 0 2.296209 
-1.079545 0 -0.7036576 
-2.355549 0 -2.756924 
2.815052 0 -1.951133 
-2.938595 0 -2.115098 
-1.874836 0.2492683 2.700086 
2.378811 0 2.298829 
2.236117 -2.993446e-05 1.731352 
-0.07103855 0 2.65861 
-1.585011 0 -0.8991039 
-1.360174 0.2128007 1.710615 
-1.844876 0 0.7176825 
-0.2287631 0 -0.02074117 
1.34486 0 -0.2350852 
2.564831 -0.0004892286 -1.926195 
1.945506 -0.001860761 -2.443387 
-1.822092 0 -0.9584545 
1.223848 -0.003639902 -1.933278 
2.222965 -0.007531218 -1.177055 
-2.096031 0 -0.03139862 
0.03908576 0 1.890828 
0.2575443 0 0.9174324 
-0.4132004 0.000244075 -1.477925 
-2.963097 0 -1.301116 
1.010121 0 -0.6863146 
2.857646 0 1.319297 
-0.3852246 0.06654747 -2.136837 
-2.1305 0.06260014 -1.806534 
-2.832693 0 2.01449 
-1.982048 0.3607593 2.570065 
2.557408 -0.01700767 -1.556236 
2.206143 -0.03801288 1.251858 
-1.531316 0 -2.908072 
0.1856781 0 0.8430661 
-0.9312794 0 -0.796084 
2.582394 0 -2.72239 
0.4986723 0 -0.7527903 
-0.2051318 0 0.5685718 
-1.495066 0.204828 2.548533 
0.6896864 -0.01910789 0.1999512 
0.8259915 0 1.582812 
-2.568241 0 1.423588 
0.8982719 0 1.459284 
-2.28208 0.2054232 2.704112 
-0.6509809 0 0.8432766 
-1.457517 0 0.3242263 
-1.660804 0 -0.2088378 
2.799328 0 1.092315 
-1.406116 0 1.035294 
-0.4521806 0.009974901 -2.631174 
-0.4501585 0 1.495978 
-2.261522 0.2637534 2.610347 
-1.665296 0 -0.4875421 
2.936282 0 1.046798 
-0.7105759 0 -2.594117 
2.661852 0 -0.2215506 
-0.1615187 0 -0.871838 
-1.086499 0.3229932 2.050222 
-2.000246 0 -2.788026 
2.557972 0 -0.4607075 
-1.079331 0 -1.055463 
0.6773598 0 -0.6785855 
-2.095606 0.06742386 -1.892429 
-1.831677 0 -2.801158 
-1.528651 0 1.339154 
2.413741 -0.003337474 -1.142583 
2.342871 -0.04560955 1.139075 
2.596834 0 2.211331 
-1.193814 0.04311503 2.52305 
1.796577 0 -1.145615 
-2.329544 0.0275561 -2.16261 
-2.05429 0.03076559 -1.471942 
2.277735 0 0.2392104 
2.715252 0 -0.7611288 
-1.328322 0.3464261 1.870346 
2.444659 0 -2.408483 
1.298633 0 -0.9432719 
-2.571577 0 -2.694042 
2.921105 0 2.881983 
-1.670283 0 -0.2330943 
2.825072 0 1.241297 
-2.855763 0 1.684654 
-2.120388 0 -2.978649 
-1.898688 0.3181934 2.629634 
-2.3406 0.01191133 -1.669558 
-1.400134 0.09591384 1.614562 
0.6117042 0 1.556773 
1.741297 0 2.05718 
1.088578 0 1.055572 
-0.5100253 0 0.3712449 
-2.374205 0 0.8255876 
-0.7060615 0 -0.6834242 
0.276331 0 -0.3790918 
-1.519337 0 -2.57702 
1.814688 -0.01935256 1.029033 
-0.4652666 0 -0.772595 
-0.9331077 0.211152 1.89205 
-0.2016862 0 -0.5174764 
2.959882 0 0.5836389 
1.134056 -0.03526909 -2.331003 
2.43967 -0.05680747 -1.43696 
0.4498333 0 1.264848 
1.85601 -0.001204626 1.240383 
1.230598 -0.03043029 0.3519289 
-2.719983 0 -0.1562192 
-2.30052 0 1.354058 
0.02985916 0 0.3384563 
1.870652 -0.01775107 0.6831785 
-0.05461479 0 -0.5801474 
-0.6410923 0 1.220805 
0.7743802 0 2.820381 
0.2408145 0 -2.616534 
-2.147312 0 -0.3976357 
2.386806 -0.04771315 1.250798 
2.093015 0 -0.6786757 
2.427792 0 2.977892 
-0.04023993 0 -2.985327 
-0.147956 0 1.989882 
0.1715859 0 -1.070037 
-1.015458 0 0.5174688 
0.9972601 0 -0.5423085 
2.885149 0 -2.010643 
2.764544 0 -0.8219274 
0.9063212 0 1.181934 
2.874208 0 -1.156598 
0.2010248 0 0.8567404 
-2.914825 0 -2.229702 
-1.141977 0 0.5504062 
-0.2169627 0 1.07046 
-0.7424281 0 -2.868761 
-0.720797 0 2.671746 
0.4044582 0 2.052514 
1.961966 0 0.00348158 
0.1393006 0 2.721613 
2.554833 -0.00149478 -1.869649 
-0.2046196 0.05155742 -1.959267 
2.666345 0 -0.2955478 
0.02162066 0.0217184 -2.395497 
-0.3338065 0 -0.1740146 
-2.130523 0.3435709 2.323824 
1.36873 -0.02688679 0.4187141 
1.183459 0 1.754184 
-0.5381428 0 -0.9412711 
-2.013083 0.07148594 -1.79325 
-2.347139 0.003523757 1.990757 
-1.568155 0 -2.99018 
-1.070298 0 0.2419363 
1.330986 0 -0.6726203 
0.101046 0 1.279579 
2.479802 0 0.7142912 
0.7309344 0 2.947091 
2.975213 0 2.633097 
0.3724371 0 -1.528597 
-1.207515 0 0.3622223 
0.9672913 -0.0003438479 -2.636933 
0.8666044 0 1.545857 
-1.288044 0 2.880379 
0.4155622 0 1.370683 
-0.08776212 0 -0.7982954 
0.8863514 -0.000129234 -2.102111 
0.3640091 0 -1.35755 
2.398723 -0.04449069 1.263197 
1.200714 -0.001407333 0.07702731 
-1.045833 0 -0.250041 
-2.69731 0 0.5226004 
0.7620811 0 2.51453 
-1.86056 0 -0.07916074 
1.399485 -0.0001648349 -2.826842 
-2.756314 0 0.191504 
1.23888 -0.0001521114 -1.779169 
-2.039208 0 0.0305347 
1.786408 -0.02085532 0.6466286 
-1.075697 0 0.05216576 
0.6613154 0 1.355928 
-2.635071 0 -2.035297 
-2.854502 0 2.398339 
-1.301517 0.09417886 2.532381 
0.6872162 0 -1.639723 
-0.01977898 0 -0.1490114 
-1.142878 0.170064 1.644118 
1.330161 -0.06355803 -2.474598 
1.117976 0 1.081927 
-1.647654 0 0.9424059 
-0.7615501 0 -0.6851202 
2.020813 -7.042398e-05 -2.506457 
2.198797 0 2.281831 
1.721114 -5.299298e-07 -2.817103 
0.6885222 0 2.815886 
1.116945 0 1.696896 
-1.353329 0.05989114 -1.496481 
1.951131 -0.01676851 -2.282072 
2.955901 0 -0.02948929 
1.49154 0 -0.8150573 
0.7877673 0 -0.6959073 
-2.670158 0 -1.035876 
0.2665743 0 0.2653961 
0.2433289 0 0.2891096 
0.7458975 -4.625795e-07 -2.145376 
1.303434 0 1.391849 
-0.3836299 0.03632574 -2.489182 
0.391603 0 2.409236 
-2.079762 0 0.4150796 
2.670387 -0.0004041357 1.139323 
-0.1417974 0.03441693 -1.894676 
1.701835 0 -0.4424462 
2.319179 -0.02449891 1.017749 
-1.153445 0 -2.552025 
-2.111619 0 -0.27936 
-2.618494 0.0211046 2.488774 
0.5541679 0 -2.31944 
2.506278 0 -0.08605774 
0.8977078 0 -0.8831944 
0.123641 0 -1.274508 
-2.684881 0 0.9203811 
2.668847 0 -2.748571 
2.60805 0 2.715311 
-1.626747 0.006138246 2.856458 
-0.3134719 0 -1.197691 
1.971615 0 2.250265 
-1.122204 0 -2.679937 
1.182649 0 -0.4864956 
-2.828715 0 1.766145 
0.4041015 0 1.54673 
-2.528488 0 -2.753982 
-0.8758946 0.1585218 2.006844 
1.709724 0 -0.645375 
-0.3023989 0.05686174 -2.253409 
-1.363744 0.008357698 1.436059 
-1.822969 0.06635883 -1.56751 
2.957472 0 2.936592 
-0.1131878 0 0.4620584 
-0.0622824 0 0.9823133 
2.19944 -0.0188901 -2.057183 
-0.8845095 0 -0.9681963 
-2.518914 0.04737038 2.782857 
-2.669579 0 -0.3101918 
1.544391 -0.1777157 -2.212191 
1.47501 0 -1.060888 
-0.2946121 0 2.471184 
1.210226 -1.683749e-05 -1.753869 
-0.9265777 0 0.5812735 
-2.444531 0.02443752 2.981843 
2.74282 0 2.864721 
-1.011735 0 0.4829042 
-0.9194818 0 2.864546 
2.131135 -0.1529993 -1.806683 
1.149314 0 1.072448 
-2.817453 0 0.3266646 
2.400614 -0.0513387 -1.717419 
0.2576718 0 1.268039 
-1.301793 0 -2.787038 
-1.674709 0.399424 2.370143 
1.873034 -0.003332174 -2.467594 
1.663456 -0.184278 -2.113181 
-2.603416 0 -2.903081 
-2.669546 0.001087894 2.242593 
-1.156624 0 -0.2519358 
-1.18876 0 0.6701235 
1.464808 -0.0002827888 1.041784 
-2.150721 0.3478172 2.385305 
2.354154 0 -2.436015 
0.5003629 0 0.5776191 
1.364368 0 -1.169076 
2.417291 0 2.863596 
-0.4215739 0 -2.888238 
-1.854111 0 -2.845168 
2.108559 -0.02678319 0.8920842 
1.333497 -0.03238779 0.6018519 
0.1144494 0 2.252654 
0.9319098 0 1.887846 
0.134473 0 -2.896077 
-0.853505 0.05762979 -1.996932 
1.053491 0 -2.920769 
1.637058 -0.004114899 -2.611848 
-1.123334 0.2880335 1.80599 
-1.750622 0 -0.106212 
-2.47017 0 0.03400862 
0.6411788 0 -2.778001 
-2.123433 0 0.09958944 
2.766572 0 2.351174 
-0.3446057 0 -1.27177 
-2.12109 0 -2.558073 
1.69168 0 -1.120367 
-2.446475 0.01070295 -2.17465 
1.158459 -0.0001963579 -2.780903 
2.010716 0 2.766634 
-1.292057 0 -0.173855 
0.8087378 0 2.171736 
-1.736732 0 -2.747365 
-0.1235718 0 1.799083 
0.6342282 0 2.09743 
-0.3157793 0 -0.7120869 
-1.408956 0 -2.462471 
1.474911 0 1.999877 
1.943248 -0.1211167 -2.035353 
-2.60007 0 0.5127317 
-2.764213 0 0.8805969 
2.436158 -0.02322054 1.128912 
-1.205585 0.04683661 -1.424569 
-1.279878 0.1626785 1.642048 
2.577082 0 -2.467282 
-2.225186 0 0.07030466 
-1.757301 0 -2.488588 
-2.143591 0.02642919 -2.296397 
1.942919 0 2.558672 
-1.474633 0.3473272 2.378018 
2.363071 -0.01423408 1.473954 
2.4063 -8.656016e-06 0.8043091 
2.979083 0 1.833237 
2.518017 -0.01979432 -1.373923 
-0.1613961 0 -1.067011 
-1.265574 0 0.3828529 
0.8974332 -0.0005257266 -2.485403 
2.387337 0 1.876133 
1.274477 0 1.408303 
0.5464858 0 2.963321 
-1.769031 0 1.076117 
1.140561 0 2.739486 
-2.418654 0 -0.6757392 
-1.027637 0 0.1582189 
-1.646621 0 0.06313346 
1.557253 0 2.802383 
-0.5956827 0.000527355 1.394365 
-1.94183 0.2741399 2.693048 
2.172671 0 0.3123015 
-2.954415 0 -2.305797 
1.595681 -0.03067919 -1.824318 
1.319064 -0.0142512 0.7012502 
-0.8079766 0 -2.419455 
-2.195543 0 1.469858 
-2.376543 0 0.5437912 
0.06339461 0 2.134983 
2.102637 -0.005164323 0.7458239 
-1.964375 0.04533733 -1.486454 
2.551966 -0.002089637 -1.85736 
-0.03629794 0 -1.021696 
1.888438 0 1.489542 
1.85334 0 0.3552694 
-1.488305 0 -0.7968955 
-1.482889 0 0.9600201 
-1.703099 0 0.7001038 
-2.839315 0 -1.814793 
-1.560431 0.004751686 -2.125771 
-1.410793 0.06157528 2.625186 
1.899961 -0.0009071322 0.5313143 
0.3769422 0 -0.5104412 
1.189784 -0.01355031 -2.567118 
-2.419497 0.02189865 2.139417 
-1.838603 0 -0.2359648 
-2.292122 0 -1.182425 
0.9239364 0 2.243321 
-0.3382421 0 -1.273322 
-1.027831 0.02445317 1.429789 
1.799499 -7.022007e-06 0.3861953 
2.682713 0 -2.214415 
-1.339591 0 -0.4409 
0.6160976 -0.0001179161 0.4282196 
2.667892 0 -2.786297 
2.113724 -0.0005814132 1.447524 
2.72216 0 -2.733877 
-1.341017 0 2.910875 
1.010575 0 -2.888799 
-0.04769646 0.03064561 -2.378569 
-0.8886295 0.005724982 1.355015 
-0.8217158 0.0619721 -1.716901 
-1.362022 0 1.054063 
-2.708776 0 -0.9361643 
-0.2165894 0 2.004511 
-0.6059088 0 -2.845105 
-2.742306 0 -2.958371 
1.45303 -0.03485454 0.5111964 
2.102467 0 -0.5642085 
-2.462062 0.04429773 2.878018 
1.123597 0 -2.93839 
0.4018254 0 0.6278991 
0.7412703 0 -2.990983 
-0.6678708 0.01167406 1.592222 
-1.128816 0 2.781213 
0.9957184 0 0.8534859 
-1.672689 0.01077738 -1.240559 
-1.259657 0.1202738 2.484184 
1.22233 0 2.626017 
2.266886 -0.03069505 1.005298 
0.3914034 0 1.853131 
2.664998 0 -2.106527 
2.384038 0 -0.7331011 
-2.543853 0.05531346 2.648876 
-2.485053 0 -0.1702762 
-2.57662 0.02319242 2.376339 
-1.241204 0 0.8495721 
-0.884881 0 2.568202 
0.6139084 0 2.285476 
-1.002833 0 -2.700869 
-2.670072 0.01044047 2.525363 
-1.859353 0.02576136 -1.343 
0.1395901 0 1.743652 
2.543574 -0.004386561 1.556621 
-1.644603 0.00407315 2.884972 
1.406859 -0.1634739 -2.240072 
0.7964071 0 2.820892 
-2.784348 0.0006102819 2.594658 
0.1083955 0 2.680129 
-1.377698 0 0.223546 
1.387451 -0.01613182 -1.913343 
-1.304951 0 -2.677813 
2.489526 0 2.119469 
2.165759 0 0.2437107 
1.035056 0 1.513026 
2.268971 -6.228e-05 -0.9546406 
2.484223 -0.00296811 -1.908762 
0.677342 -0.02061351 0.1608696 
-2.359344 0.006056821 -1.627783 
0.9152554 0 -0.2997369 
-1.321999 0 0.007281511 
-2.782735 0 0.908639 
0.8251026 0 -1.724743 
0.7341095 0 -1.031436 
-2.659791 0.007177599 2.897357 
1.478278 -0.001042924 -2.746227 
-2.207976 0 1.506329 
-2.053992 0.0804321 2.91192 
-0.4427049 0 1.105228 
-2.36095 0 -0.6852933 
2.212209 0 -2.974574 
-2.448911 0.1255237 2.4747 
2.028481 -0.001194277 -2.396438 
-2.823784 0 1.147302 
-1.097321 0.02190964 -2.098291 
-0.7863541 0.02766309 1.555876 
-0.7602592 0 2.938906 
-2.710657 0.003776193 2.501784 
1.540642 0 1.541408 
-0.3303268 0 2.509416 
-1.395489 0 -2.329221 
-2.084342 0 -2.611895 
1.204612 0 -0.6060764 
-1.739189 0 1.342078 
0.2352174 0 -1.276166 
-2.562176 0 -2.815753 
-2.210826 0.04171744 -2.147165 
2.445052 0 2.719658 
-1.119778 0 -2.463266 
-1.358538 0 -2.914922 
-2.028183 0 0.5704697 
2.507915 -0.001965786 -1.154151 
2.397448 0 -2.880213 
-2.287787 0 -0.3520671 
-2.016138 0 -0.5678595 
-1.928022 0 -2.786767 
1.908349 -0.0133497 0.6729743 
-1.193336 0.004329589 1.342072 
0.6450715 0 -2.016718 
2.022832 -0.0005366214 -1.124474 
-1.709858 0.002529942 2.926659 
0.8143823 -0.03246535 0.2078722 
-2.880202 0 -1.276328 
1.032509 0 1.900901 
0.4697396 0 2.319423 
-0.8592862 0.05178884 1.579891 
0.05219539 0 -1.78667 
-0.1385409 0.03669137 -2.406245 
1.98397 -0.002453667 1.297942 
-1.606198 0.403757 2.113223 
-2.690114 0 0.4585631 
2.094057 -0.0001995307 1.490588 
-2.747285 0 -2.187291 
2.116142 0 0.1404444 
2.142922 0 -2.528836 
1.139695 -0.01354209 -2.1148 
-1.855284 0 0.8813695 
0.7321508 0 -2.626291 
1.97 0 0.1094742 
2.133742 -0.0003030143 -1.035216 
-0.7874584 0.04108084 1.61551 
-1.646833 0 -1.018387 
2.969929 0 0.2300077 
2.867646 0 -0.401693 
-1.002676 0 -2.491801 
2.121482 -7.609435e-06 1.659946 
-2.700864 0 -2.578764 
0.3746093 0 0.4491027 
-0.4298924 6.0708e-07 1.92446 
0.03357477 0 -0.9665536 
-0.4937248 0 0.03728941 
-0.07458128 0 2.929034 
2.07396 -0.004725734 -2.281985 
0.6721272 0 -1.859261 
-1.011497 0 -2.594519 
0.1748454 0 1.346165 
0.6590964 0 1.841799 
-0.888671 0 2.545562 
-1.289913 0 0.938938 
0.8184909 0 1.345095 
0.8227237 0 -0.4283035 
1.395715 -0.02359233 -2.569133 
-0.4432101 0 -2.831221 
-2.180485 0 0.4485832 
-2.890841 0 2.163359 
-1.964038 0.02818724 2.975557 
0.3907346 0 1.685823 
1.787374 0 -2.86831 
-2.114322 0 0.7069303 
-2.691901 0 1.104828 
-0.5909979 0.003750292 2.028357 
-0.6733762 0.02979153 1.850272 
2.894495 0 2.657348 
0.6753132 0 2.925041 
2.391118 0 -0.4710241 
-0.9855498 0 0.4867526 
-2.26865 0.1416442 2.172984 
-1.943453 0 1.146456 
1.477733 0 2.651539 
-1.598196 0 -1.083798 
-2.501401 0 0.9109272 
2.457402 -0.001975344 -1.96494 
0.5444953 -0.009753987 0.03163193 
-2.368662 0.03120089 -1.968405 
-0.9560326 0 -2.99303 
2.299367 -0.05491239 1.135165 
-2.648284 0.003729697 2.307006 
-2.649278 0 -2.393332 
0.7772605 -0.003198551 0.4319948 
-2.429468 0 -1.051868 
-0.19583 0.004623845 -1.685341 
-2.500319 0.08471505 2.484431 
-1.240653 0 -0.9996068 
-1.729323 0 1.010583 
-2.241049 8.084907e-05 1.837587 
0.2507086 0 0.1521107 
-2.338635 0.2158576 2.588223 
2.856304 -1.722529e-06 -1.624135 
-1.103671 0.02093204 2.505246 
2.429146 0 0.427953 
-2.710455 0 -2.425502 
2.719134 0 0.581612 
2.822337 0 1.533449 
1.262883 -0.01715723 -2.580782 
2.054898 -0.03905826 1.120403 
-2.572208 9.431767e-06 -1.868557 
-0.01461282 0 1.283686 
0.3194525 -8.301561e-05 0.07140713 
1.713052 -0.0498268 -2.355516 
1.665308 -0.02845627 0.8679271 
-1.641314 0.335303 1.973327 
-2.109176 0.1689828 2.06713 
-0.9401262 0.01802841 1.421231 
-0.8512206 0.08838145 2.146064 
-2.706697 0.002143447 2.977628 
1.659469 0 -0.7321433 
2.287948 -0.131457 -1.672123 
-0.1860275 0.02753497 -2.535494 
1.226847 0 -0.3439525 
-0.008255623 1.895498e-05 -2.710883 
0.9420884 0 -0.6971341 
2.256767 0 0.3272086 
-0.4470067 0.003361989 -2.677108 
-2.999461 0 -1.829556 
-2.986725 0 2.910265 
-2.066553 0 -0.02097449 
1.572207 0 2.006206 
-1.805932 0 1.087272 
2.885242 0 -1.164377 
-0.1044167 0 -0.703691 
-2.921641 0 2.387518 
-0.4450658 7.66205e-05 1.598566 
1.73465 0 0.08498532 
1.893194 0 0.4124435 
-2.311103 0 -0.2826204 
-1.985406 0 -2.929548 
0.8691102 -0.0002976323 -2.460726 
1.495247 0 -0.02405196 
2.581432 0 -2.904356 
-2.134746 0 0.6669099 
2.319159 0 -0.2545633 
0.7349791 0 -0.7580605 
2.838773 0 -0.9602225 
1.302033 0 -1.143503 
-0.8673599 0 -1.105007 
-2.019875 0.0007150297 -1.270992 
-2.419524 0.06215114 2.855639 
2.442721 0 2.031309 
2.402209 0 0.06731214 
0.4462077 0 1.409242 
-2.465065 0 -0.9279226 
0.1224963 0 2.453259 
-1.454111 0.001184872 1.401557 
-2.130083 0.09277325 2.011713 
0.6150692 0 1.802263 
-1.734227 0 -0.2792709 
-1.950642 0 1.385049 
-2.120927 0 1.533537 
-2.626294 0 -2.474831 
-2.932686 0 1.077688 
0.5747504 -0.01178035 0.0912911 
2.841861 0 -0.4594369 
0.5368981 0 -0.7980146 
2.13878 0 -0.3410067 
0.0003196048 0 0.3099782 
0.8632712 0 -2.719476 
-0.7464163 0 -2.955487 
-2.436293 0 -2.716955 
2.500365 -0.001149817 -1.953236 
-2.720516 0.0003164916 2.25398 
2.375347 0 0.03286539 
2.057403 0 -0.2594782 
-1.221898 0 -0.8877895 
0.1868036 0 2.490134 
-1.534048 0 -0.7555171 
2.058422 0 1.953992 
1.640107 0 -0.6583416 
-2.383291 0 -1.282707 
1.88457 0 -0.8350267 
1.992473 0 2.920593 
1.507891 -0.000130949 0.257477 
2.250716 -0.04720262 1.066237 
-0.1212026 0.03922273 -2.35158 
-1.487533 0 -2.269045 
0.5447979 0 -2.63802 
-0.3347763 0 1.984472 
-1.830724 0.3709419 2.131144 
-2.008775 0.07493117 1.916583 
-0.01043918 0 0.4463924 
1.821406 0 1.945512 
0.7331932 0 2.078184 
-2.356411 0 -0.2652057 
2.677003 -5.697685e-05 -1.122584 
1.942506 -0.1492306 -1.988975 
-1.976135 0 -2.557862 
0.8709608 -0.03530721 0.2418706 
2.052305 -0.01410075 -2.216015 
2.528472 0 -0.2227914 
2.419703 0 2.948858 
-2.261409 0.04870939 -1.945169 
-1.431336 0.2483025 2.473874 
2.035856 0 2.091897 
-0.3916286 0 0.8634886 
0.08857594 0 0.6742702 
-1.408955 0 1.003258 
2.99701 0 0.06633525 
-1.712779 0 0.3094527 
-0.1726795 0 -1.276361 
-1.609277 0.02842749 1.626117 
1.395344 -0.1316998 -2.375267 
0.9766504 0 1.842092 
-2.495524 0 1.133185 
-1.760836 0 0.3048674 
-2.890163 0 -1.142647 
-1.668763 0.4010235 2.133964 
-2.371562 0.08036113 2.207366 
0.6656938 0 -1.022066 
-2.250291 0 0.7600606 
-2.846189 0 -2.688573 
-2.928917 0 2.657568 
-2.839422 0 2.200428 
0.1302729 0.008793043 -2.211877 
-2.801758 0 1.471334 
2.625386 0 0.5534517 
-2.643204 0.00462113 2.320173 
0.8316178 0 -0.4865141 
-0.02163613 0 0.4821662 
-2.792322 0 1.187456 
0.7148223 0 -2.573786 
2.947258 0 1.380673 
-2.852646 0 -0.3292328 
1.365237 0 1.327342 
2.055446 -0.03302369 0.8812218 
1.220324 0 -1.222594 
-1.351265 0 0.5525597 
2.489989 0 -2.268381 
-1.357381 0.4015785 2.14235 
1.530254 -0.03441556 -1.890421 
0.4983444 0 -1.543076 
2.462791 -0.02966503 1.250692 
-2.053565 0 0.283588 
-1.469677 0 -0.647122 
0.6440367 0 -1.980164 
-2.446273 0 -0.9218577 
0.963397 0 2.460238 
2.544879 0 -0.3096054 
2.335249 -0.005283815 0.9028849 
-1.545263 0 -2.834141 
-1.80087 0.4131569 2.261107 
1.58968 0 2.111676 
2.158692 0 -0.6971437 
0.3810048 0 2.287142 
2.910448 0 -2.82063 
1.674423 -0.1445258 -1.998028 
-0.3445236 0 -1.397021 
-2.936776 0 2.569379 
2.923958 0 -2.813941 
2.00482 0 -0.6078604 
2.097361 0 2.589142 
1.103193 -2.182482e-05 -0.03952532 
-2.667492 0.01016203 2.798024 
2.849233 0 -0.5638847 
0.8470188 0 -1.829003 
0.7848276 0 2.356344 
0.5305539 -0.007255747 0.1267641 
0.3504911 0 1.829251 
0.5417 0 -0.6101266 
-1.298106 0 0.7361977 
1.208728 0 2.245593 
2.62505 -0.0001716522 1.664605 
2.09979 0 -2.833598 
0.9423717 0 2.657834 
-2.668607 0 -1.48601 
-0.9519277 0 -0.594401 
2.525704 0 0.1653316 
2.705675 0 -0.6381997 
1.274996 0 -0.9637184 
0.5320935 0 2.32683 
2.044528 0 2.295081 
-1.321096 0 -0.5593764 
1.259565 0 -1.631462 
1.555049 -0.11653 -2.336985 
-1.5759 0 0.748341 
-1.137546 0 -0.673806 
0.5158384 0 -1.681571 
-0.02858894 0 0.9632181 
1.525519 0 2.556508 
2.824399 0 2.434944 
0.7134838 -1.188281e-06 -2.392739 
0.6366193 0 0.5769376 
-2.258607 0 -2.792764 
-1.332504 0.2417503 2.421851 
-1.748933 0.03280941 1.709288 
-1.935138 0.005315543 -1.273052 
2.040774 0 -0.1068138 
-1.961102 0.1920558 2.779298 
-0.4425728 0 -0.7340968 
2.004909 -0.01862305 -1.37997 
0.3045323 0 1.874018 
-2.393393 0 -2.611947 
0.1889339 0 2.022588 
-1.56599 0 -1.101428 
1.338773 -0.1496678 -2.306543 
-1.820225 0 -2.604876 
0.9279005 0 2.56076 
0.6545517 0 -1.597299 
0.4538136 0 1.245297 
-2.067106 0 -0.4245387 
-2.022601 0 -0.7883464 
2.33861 -0.04849251 -1.80372 
0.5831857 0 2.735918 
1.972396 0 2.416209 
-0.2131955 0 1.247158 
-0.7249526 0 -1.026613 
1.186446 0 -1.698383 
-1.063826 0 0.4305908 
0.3093291 0 1.73063 
0.8228334 0 -1.112113 
0.5039912 -0.005884945 -0.03001328 
-2.473532 0.1065152 2.513257 
0.2288761 2.222423e-06 -2.479943 
-1.913761 0.004199916 1.695457 
-1.01637 0.01517304 1.390587 
0.3472469 0 -2.048715 
-2.577909 0.03073947 2.763115 
-0.4152696 0 0.4184493 
-2.72766 0 -0.8258014 
1.454048 -0.04079846 -2.515224 
-1.614338 0.00346539 2.867997 
-2.338957 0 -0.1574005 
-0.04028327 0 -1.650746 
2.034899 -0.01241972 -2.235219 
0.1881376 0 0.6359684 
2.691449 -0.0001917522 1.583928 
1.840868 0 -0.8389436 
-0.2225087 0.04129739 -2.412335 
-2.251688 0 0.8557373 
-0.03923156 0 1.239163 
1.914864 0 2.311831 
-1.465714 0.3912873 2.011191 
-0.4715854 0 1.189179 
0.779311 0 2.37736 
0.6469847 0 1.779824 
0.8840421 0 1.0877 
0.543202 0 -1.780237 
-1.019406 5.463986e-05 1.216218 
2.740713 0 0.9227141 
-0.4132472 0 -1.262653 
1.767614 -0.04585026 0.765553 
-1.804107 0.06290086 -1.527229 
-0.4059357 0 0.6211525 
-1.007088 0 0.3506653 
-1.025393 0.031364 -2.088094 
0.7135144 -0.01352783 0.274021 
-2.374412 0 1.486276 
0.5397816 0 -1.785302 
2.729672 0 2.440075 
-1.047698 0 -0.1009475 
-1.237282 0.0315827 -1.33322 
2.268993 -1.401703e-05 -0.9300044 
-2.992714 0 -0.7497971 
0.8636791 0 2.635279 
-2.776886 0 0.6656674 
-2.315991 0 1.083731 
-0.8758349 0.1634005 1.888953 
-0.8505003 0.1408736 1.971727 
2.662085 0 -0.3441601 
-2.233608 0.04930523 2.975752 
1.736138 0 1.730338 
2.212146 0 2.65831 
-2.348954 0 -0.496926 
-2.996586 0 -2.940411 
0.387124 0 -2.624032 
2.222456 -9.936116e-07 0.6741711 
-0.1613933 0.005831702 -2.682965 
-1.40447 0 -2.405553 
-0.6225011 0 0.5861367 
2.53261 -0.02438088 -1.480513 
2.466523 0 -0.2907884 
1.226472 -0.03247396 -2.114559 
0.5981426 0 0.7224957 
-2.848861 0 -2.219474 
2.669057 0 2.061194 
-2.997896 0 -2.256544 
-2.264904 0.04809696 -1.951686 
0.1846524 0 0.7506079 
1.19542 -0.03110614 -2.137491 
-2.136603 0 0.6926219 
-1.840801 0.3511374 2.560592 
-1.070692 0 2.938541 
-1.770394 0 0.5471889 
-0.3135677 0 -0.4368947 
-1.510104 0.04195552 -1.353511 
1.067302 0 2.197396 
-2.278898 0 -2.561362 
2.918091 0 -0.853349 
0.06575007 0 0.5453728 
0.6642199 0 -2.575686 
-0.2961605 0.0399624 -2.454045 
2.041515 0 -0.2495949 
0.05114207 0 -0.1160202 
-1.739929 0 -2.938067 
2.743271 0 -2.170696 
-0.01319501 0 0.5772536 
-1.914574 0.02581962 1.789433 
-1.364504 0 -2.99218 
1.618796 -0.01090326 -1.696506 
-0.3855692 0 1.796735 
0.05160105 0 1.055925 
1.931711 0 0.3536367 
1.701278 0 1.408478 
2.796175 0 -0.2153423 
-0.7130428 0 1.015158 
-1.644167 0.1690495 1.801303 
-2.081051 0 1.261906 
-0.3179713 0 -1.167099 
-1.293705 0.3748698 1.935058 
1.525291 0 -0.9011829 
-2.327105 0 -2.566652 
-0.07767238 0 2.172889 
-2.679556 0 -2.84614 
-1.311415 0.0002642387 -2.14383 
-2.609949 0 -0.570238 
-2.644389 0 -1.516114 
1.218328 0 -0.3316835 
1.823709 -0.02421172 0.6858712 
2.705907 0 0.9156064 
2.983166 0 -2.11204 
0.9744502 0 1.25889 
2.742973 0 -0.1110878 
-0.8434376 0 -2.632556 
-1.160123 0.06811414 2.473717 
-1.44606 0.2265608 1.754595 
-1.937108 0 -2.978432 
2.940505 0 -0.6888432 
-1.660158 0.07252559 -1.819565 
-1.499027 0.3977287 2.27305 
-2.443849 0 -0.1845749 
-0.06806544 0.01446102 -1.867375 
-0.8050967 0 -0.6847721 
0.2263236 0 -2.935911 
-1.438732 0 -2.120393 
1.033519 0 -1.239506 
-1.649474 0 1.145982 
0.8677875 -0.03436909 0.163284 
0.7463343 0 -2.954747 
1.141287 -0.01903418 -2.152098 
-1.537848 0.3764542 2.359078 
1.706627 -0.04526597 0.8005002 
-2.480981 0 -0.5957274 
-1.03519 0.2794029 2.08444 
2.312788 -0.05157714 1.266236 
2.848774 0 1.681023 
1.583742 -0.005284196 0.4052168 
-1.337216 0 -1.005966 
1.234861 0 2.195609 
0.3836341 0 -2.625983 
0.177756 0 1.972357 
-2.551516 0.00019727 -1.753524 
-0.09784541 0 -0.3045811 
-0.5852946 0 -0.00020824 
0.7294871 0 0.6025894 
-1.487463 0 -1.00033 
1.992099 -0.1622243 -1.74842 
-0.1191409 0 1.64101 
-2.023096 0 -0.54242 
-0.4778191 0.05059653 -1.741659 
0.1792755 0 0.8163251 
-1.536894 0 -2.2256 
-2.524534 0 -1.305126 
-0.3229759 0 -1.158218 
-0.004511807 0 0.1288433 
0.06920381 0.000153841 -2.678038 
-0.2216224 0 -1.2836 
1.417678 0 1.352576 
2.479123 -0.04418475 -1.541172 
1.039897 0 -0.1470621 
-2.416308 0 1.630447 
-2.206084 0 -1.341314 
0.23405 0 1.150305 
-0.4525362 0 0.6856779 
1.603772 0 -0.9075466 
2.118644 0 -0.77738 
-1.284845 0 -1.090049 
-2.243003 0 0.2896972 
-2.597219 0 -2.411081 
0.4115824 -0.001127915 0.1152272 
-2.364806 0 0.1416653 
1.512356 0 -0.6394835 
2.558958 0 -2.955812 
1.630756 -0.0008543619 -2.690263 
-1.611266 0.03730633 -2.032715 
1.673398 0 -0.009773646 
-0.9084318 0 -0.4079842 
1.568114 0 1.572426 
-0.2435964 0 -1.511357 
-2.120537 0 0.6579852 
1.98489 -0.0009712157 -1.167614 
-2.499555 0 1.056166 
-0.3826183 0 2.579566 
1.291064 -0.017374 0.3145865 
2.876235 0 -0.1818986 
0.1986138 0 -2.979462 
-2.265772 0.1267058 2.154073 
0.06137296 0 2.375461 
-1.490374 0 -0.6910896 
-0.8629293 0 -1.197773 
1.011368 -0.03799279 0.2688868 
0.8486817 0 2.561249 
-1.36822 0.117846 2.547673 
-1.414699 0.06483698 -1.540899 
2.125835 -0.01638005 1.297681 
2.749827 0 -2.366922 
-0.5179393 0 -1.216596 
1.022168 -5.424731e-07 -2.853928 
-0.6796852 0 -1.175737 
-0.8453324 0 0.4362381 
2.68187 0 -2.529925 
-1.106791 0 2.831994 
2.273763 0 -0.4063533 
-1.009696 0 -0.776316 
0.05298537 0 1.643716 
-2.709309 0 -1.764953 
-1.810592 0 0.175129 
0.1901435 0 1.197569 
0.5695931 0 2.291333 
1.938143 0 -0.998412 
1.688625 -0.1662527 -2.029493 
2.90686 0 2.107413 
-1.8237 0 -0.2534328 
0.820863 -0.02606155 0.0817355 
-2.080235 0 -0.775856 
-1.935778 0.1067873 1.904979 
2.564023 0 2.06778 
-2.589548 0.03684541 2.617216 
1.006581 0 -0.857541 
-2.74172 0 0.2345227 
-0.6937248 0 -0.8109031 
0.6722734 -0.02157353 0.1306293 
2.279647 -0.0002277145 -2.243317 
-1.355988 0 0.8080552 
-1.128784 0.2049288 1.688034 
0.1399098 0 1.185202 
2.351146 0 0.5878257 
-2.320623 0 -0.1025562 
-2.385178 0.1303142 2.31265 
-0.417913 0 0.1784789 
-1.781968 0 0.001665979 
-0.3656706 0 -1.051436 
2.604386 -0.003635396 -1.290211 
-2.301463 0.2587168 2.488653 
-0.9400299 0.01730143 -2.187173 
1.780211 0 -0.8542539 
1.894998 -2.431488e-05 -1.135075 
-2.601037 0 1.789622 
-1.620687 0 -2.506612 
-1.494118 0 -0.9001713 
0.9238128 -0.0006589082 -2.184202 
-2.926583 0 2.164959 
-0.7499046 0 0.4790001 
1.941685 -0.06721789 -1.608239 
1.254777 0 -0.6680112 
-1.174806 0 0.8056186 
2.909768 0 -0.621152 
-0.7616487 0 -0.5617363 
1.747579 0 -0.373135 
0.1541575 0 0.5097061 
-2.332412 0 0.2098477 
1.97304 0 -0.6716738 
-1.441447 0.3888405 2.268102 
1.903754 0 0.3977846 
-0.7801933 0 0.5356916 
-2.308705 0 -0.1984865 
0.7266647 -0.02437214 0.1906427 
-2.922897 0 -0.9478855 
-0.09990799 0 0.5990647 
2.993377 0 -1.140581 
0.6165411 0 1.042701 
0.9401942 0 -0.6456035 
0.8977844 -0.01818873 0.06553657 
2.10614 -0.008386821 0.7782652 
-2.159843 0 0.2449948 
1.27741 0 2.812147 
-2.691338 0.008167829 2.588388 
-2.575073 0 -2.884189 
1.378376 0 2.473763 
-1.370414 0.1791804 1.682075 
1.691556 0 2.565304 
1.663414 0 -0.3113129 
-2.643167 0 -2.527837 
-1.442617 0 -2.545859 
-2.675253 0 1.924912 
1.708307 0 2.480537 
0.9684895 -0.0004742389 -2.608905 
2.888774 0 -1.7314 
-2.756049 0.002057372 2.584655 
-1.195677 0 1.162006 
1.720701 -0.04899764 0.7795671 
-1.629788 0.0399626 -1.350827 
1.839039 0 -2.831992 
-1.311948 0 0.1664979 
-1.134058 0 -0.4519938 
1.830074 0 2.587916 
-1.003726 0 -0.3731399 
-2.730706 0 -2.481726 
1.031197 0 -0.2483987 
0.992413 0 1.625974 
-0.1195634 0 -1.622108 
2.987772 0 0.6805623 
-2.669224 0 -0.3241859 
1.084746 0 -1.008383 
1.605766 -0.08589303 -2.358616 
1.120565 -0.0305221 0.2808672 
1.483737 -0.04349827 -2.496259 
-2.805506 0 -0.807098 
2.885043 0 1.732492 
-0.896587 0.05841201 -1.633955 
-0.1411937 0.04951322 -2.100146 
-1.441707 0.3953623 2.016759 
2.84373 0 -2.057302 
-0.3223726 0 -0.2967587 
-2.124357 0.3076552 2.237395 
-1.768963 0 -2.826624 
-2.567409 0 0.7473454 
-0.5971636 0.008912766 1.718866 
1.766674 -0.02554359 0.6592721 
2.555905 0 0.8812823 
0.8796381 0 2.531744 
-1.307594 0 -2.303249 
1.993964 0 -2.904626 
1.797114 0 -0.2395679 
-2.496891 0 -1.607564 
-1.910268 0.2016838 1.970668 
1.722147 0 2.231402 
1.33092 0 -0.5772464 
-2.911061 0 -2.466311 
0.2101042 0 2.771353 
-0.2124755 0.03342375 -2.490308 
-0.6088375 0.006771702 -2.539438 
0.5072315 0 -1.768433 
1.397601 -0.1145099 -2.144269 
2.008662 0 1.504082 
2.716311 0 1.860967 
-1.010665 0.2594678 2.08675 
-0.0799488 0 -0.7309862 
1.441518 0 2.370333 
-0.7312428 0.04113322 -2.22752 
-1.343562 0 1.167521 
2.800175 0 2.245289 
2.835457 0 2.661668 
2.318094 0 0.4289113 
1.272873 0 -0.8883862 
0.8761213 -0.000188057 -2.521732 
1.51505 0 -1.086222 
-0.9071323 0 -2.67502 
0.1833423 0 0.5973956 
2.206603 0 0.3976716 
0.4915902 0 -2.422148 
-2.279744 0.01105167 1.99143 
2.404593 -0.0005585304 -1.040775 
-0.301678 0 1.371992 
-2.117748 0 0.1294487 
-2.892787 0 -1.334546 
0.176175 0 1.418175 
-0.2424527 0 -1.121521 
2.296723 0 2.165489 
2.609638 0 2.457506 
0.6161695 0 1.640082 
-0.4720399 0.01200311 -1.537244 
-0.05241956 0 1.791818 
0.00740787 0 0.9984133 
2.695965 -0.0007025587 1.327973 
-0.997547 0.1532318 2.248952 
2.595418 0 2.327777 
-1.767283 0 0.8538939 
-1.555373 0 -2.90486 
2.297154 -5.539333e-06 -0.9187582 
0.3221417 0 -1.467793 
-2.022601 0.2121993 2.770185 
2.229662 0 0.6254032 
2.624356 0 2.924045 
2.037464 0 1.672951 
-1.434801 0 0.1763816 
0.08592901 0 0.01113667 
-2.800493 0 -1.968777 
0.8794988 0 2.90836 
2.108267 0 -0.002762889 
0.7347529 -3.653546e-05 -0.3108414 
-1.177753 0 -2.440012 
-0.5513051 0 0.5785923 
0.3456697 0 -2.225466 
-1.513706 0.07084328 -1.627094 
-1.921908 0 0.4309945 
-0.4205649 0.0639388 -1.895584 
0.0181023 0 2.856555 
-2.856824 0 -1.254055 
1.769505 -0.1650718 -2.083532 
2.807408 0 -2.772026 
1.215528 0 2.78091 
-0.797258 0.05714504 -1.655746 
1.56989 -0.02609107 0.8094255 
2.45005 0 0.5051029 
-0.3628531 0 -0.6062451 
0.6912165 0 -2.809808 
-2.103297 0 -2.642375 
-1.769312 0 0.9256402 
0.1777167 0 0.7023264 
-1.59973 0.04066612 2.75964 
-1.37527 0 0.2375599 
-1.282504 0 0.09819487 
0.3247173 0 -0.8463911 
2.669144 0 0.4870936 
-0.5027945 0 -2.815821 
-2.151923 0.04371314 -2.17214 
-2.011235 0 -1.003505 
-2.50812 0.0009371904 2.071765 
-0.6213757 0.06041252 -1.765398 
-1.458902 0.04365245 1.575202 
1.609837 -0.00377165 1.009929 
-0.1053975 0 2.116685 
0.09616797 0 0.06907439 
0.9119605 0 -1.41207 
1.243839 0 1.783396 
0.6423366 0 -1.436106 
-0.9051312 0.1463184 1.751551 
-0.5568928 0.004053975 1.841646 
2.497674 0 -0.4331923 
-2.231182 0.2174388 2.223928 
1.420964 0 -0.880991 
-0.09976653 0 0.1578112 
0.433571 -0.001024295 -0.1500981 
-2.182898 0 1.46463 
2.004017 -0.04213944 1.060674 
2.66615 0 0.2143255 
-0.2168157 0 -0.8561468 
1.054646 0 -0.1674764 
-1.805523 0 1.06313 
1.500586 0 -0.4763601 
-1.682857 0.03180539 1.677806 
-1.909298 0 -0.1534338 
2.112182 0 -0.5382717 
-1.119851 0.3038866 2.175208 
-1.633295 0 1.101056 
0.35467 0 -0.3487386 
-0.5244644 0.0002346928 -1.412549 
0.1840086 0 1.524022 
-1.3294 0 -2.737198 
0.1940003 0 1.428306 
-1.654027 0.008376816 1.583792 
1.82131 0 1.907203 
1.419093 0 -0.8836353 
1.911374 -0.009904405 1.169237 
-1.358113 0 -2.964933 
-2.891405 0 0.996695 
-1.346689 0.06780322 -1.638154 
2.127384 0 0.5510444 
1.912579 0 -2.986094 
2.4911 0 2.3047 
2.120349 -0.1222187 -1.541712 
2.475029 -0.005207948 1.028502 
-2.031602 0 0.2448599 
1.564477 -0.07224981 -1.948294 
-0.6497216 0 1.019282 
-0.3339503 0 2.011205 
2.617074 0 -2.841838 
0.1587845 0 2.083986 
-1.96192 0 -0.3088423 
-0.2541512 0 2.764249 
-2.357176 0 -1.338081 
-0.4756294 0 -1.253293 
-2.755943 0 -1.121475 
2.680844 -1.234431e-06 -1.985608 
1.311615 0 -1.399935 
0.2704303 0 2.398466 
-0.2113782 0 2.688574 
1.507745 0 -0.4892661 
-2.339308 0.02914331 -1.797125 
-2.286048 0.02104217 -1.65389 
-1.655286 0.001579619 -1.161951 
-2.882365 0 0.5853959 
-0.4270806 0 2.605121 
0.5882417 0 -0.7423953 
-1.538254 0.175967 1.752446 
-1.274453 0.2025301 1.681532 
0.7577924 -0.0001580364 0.5204878 
1.346232 -0.0001179367 -2.836393 
1.315108 0 1.322967 
1.823238 -1.34864e-05 1.306733 
0.1087281 0 1.175505 
0.4287262 0 -0.3893894 
-2.64842 0 -1.04882 
1.939229 -0.1632094 -1.951191 
-1.237056 0.3837827 2.071673 
2.805403 0 0.36617 
2.651848 0 -0.2230982 
-0.559458 0 2.350852 
-0.7452138 0 0.3892923 
1.169804 0 -1.183177 
-0.6683213 5.309108e-05 1.29818 
-1.354144 0.02771177 -2.01347 
0.5730457 0 1.210271 
-1.801568 0 0.0977896 
-0.7813606 0 -0.6191284 
1.044305 0 -0.5174105 
-1.035403 0 -0.3041013 
-2.472007 0 -0.1948907 
-1.788225 0.1203563 1.835686 
0.6338593 0 -2.88522 
1.457044 -0.04433769 0.6162729 
0.1882651 0 1.182781 
1.536798 0 2.018474 
-2.8125 0 -1.678391 
2.561519 -0.0100654 1.204468 
-1.184734 0 0.5020239 
-2.923882 0 2.755115 
0.4630777 0 -1.460885 
1.390541 0 2.05863 
0.8616076 0 2.076513 
2.930461 0 -2.492081 
0.1719669 0 0.288774 
-0.4318185 0 1.465833 
-0.4103996 0 -0.3234905 
2.884386 0 1.843184 
0.2130658 0 -0.03564848 
0.6762559 0 1.649542 
1.452594 0 -0.006493954 
0.9636685 -1.456455e-06 -0.1849401 
-2.5284 0 0.6851224 
-1.55944 0 -2.305999 
0.832176 0 2.577079 
-2.07868 0 -0.2911445 
2.598454 -0.0009207793 1.069162 
-0.3298925 0 2.012141 
-2.068535 0 1.294108 
2.615564 0 -2.645416 
-1.656832 0 0.6145881 
2.148024 0 -0.6443168 
1.880712 0 -0.5530604 
-2.899669 0 -0.1749205 
-2.27462 0.03041406 -2.196902 
0.4912693 0 -1.894073 
1.17492 -0.0160464 0.5875105 
2.333359 -0.05401413 1.166704 
-1.982018 0.1730316 1.988786 
2.550355 -0.0007659979 -1.920516 
-1.386015 0 -2.478389 
-2.412473 0 0.5471663 
2.618649 -0.0002221097 -1.888901 
2.434045 0 0.06714214 
0.5910187 0 -2.933809 
-2.139485 0 0.5918394 
-0.8543684 0 0.2029347 
-1.937324 0.03677197 2.941672 
-1.579915 0.3942864 2.069763 
2.036458 -0.003800578 1.326516 
0.8310331 0 1.576856 
1.242221 0 2.527332 
2.061542 0 2.610405 
0.8647333 0 2.963386 
-1.999862 0.06030972 -2.07906 
1.621455 -3.896498e-07 -1.364788 
1.172205 -0.004608816 0.6863292 
1.842897 -0.01695647 1.063263 
0.5079577 0 -1.114459 
0.3620647 0 1.059078 
-2.482072 0 0.2791653 
-0.8520376 0.1317413 1.822123 
-0.4014723 0 -0.1163471 
-1.150406 0 -0.5711704 
1.31816 -0.1401081 -2.346249 
0.8944799 0 -0.8415246 
0.1396876 0.007320055 -2.217181 
-1.276676 0 -0.2634053 
-2.381387 0 -0.6818559 
-1.276344 0.3786125 1.951042 
2.919384 0 -0.6480249 
0.6004702 0 2.427979 
1.80547 -0.1853833 -1.989369 
0.1473361 0 1.400499 
1.586912 0 1.364083 
2.711038 0 0.5196802 
-1.804034 0 0.8815936 
1.336 0 2.679948 
-1.955584 0.07472819 -1.840944 
-2.742551 0.002030272 2.489498 
0.458766 -0.003034152 0.11736 
0.4740621 0 1.235925 
-1.29097 0 2.988534 
1.92811 0 -2.756774 
-1.483544 0.03356753 -1.313854 
2.677421 0 -0.1420269 
-2.937427 0 -1.589982 
-0.5163283 0 -0.2094624 
-1.109909 0.01282096 2.531041 
0.1448605 0 1.654865 
2.588982 0 2.0568 
2.716213 0 -0.8686972 
1.440627 -5.918302e-06 -2.890583 
0.604902 0 -1.319972 
2.850889 0 1.791629 
-1.486406 0 -2.28571 
1.670768 -0.02054683 -1.720212 
0.2159183 0 -0.1658427 
-2.01927 0 -2.635328 
0.9670821 0 -0.6594027 
1.960037 -0.0001273062 -1.125859 
-1.707639 0.07811904 2.773112 
0.911428 0 2.186156 
0.9826865 0 -1.798019 
-0.8220992 0 2.68964 
-0.6577726 0 0.4617356 
-1.22686 0 -2.979045 
2.587737 0 -0.1905964 
0.490299 0 1.681944 
2.997727 0 -0.9228344 
-2.26159 0.0759877 2.091547 
-1.832457 0.3332419 2.584798 
-0.4783336 0 2.638908 
2.215483 -0.1750273 -1.597821 
-2.561919 0 0.8190317 
-0.5852171 0 0.7536563 
-2.331207 0.01979093 -2.239138 
-1.776734 0.003594832 1.607185 
-2.025623 0.02060086 -2.34083 
-0.9551967 0 -0.6595005 
-2.204289 0.3251528 2.457498 
0.4851453 0 -2.506097 
0.1225759 0 1.747623 
-1.634276 0.04496987 -2.010851 
0.9325629 0 -0.973133 
2.773005 0 -0.5958973 
2.146581 0 -0.7673732 
-0.4260029 0.06801455 -1.950455 
-2.173845 0.05993443 -1.904535 
1.607707 -0.09552866 -2.337174 
1.87049 -0.0513767 -2.234366 
-0.4053787 0 1.978591 
0.6080311 0 1.025056 
0.9305365 -0.000338214 -0.1283243 
2.389021 0 -0.2519317 
-0.9307826 0.05625845 1.542397 
-1.33214 0 2.945468 
-1.419734 0 0.5529639 
-0.1573003 0.0457642 -2.289539 
0.8956989 -0.000752274 -2.264497 
2.93236 0 -0.3761064 
-2.888633 0 0.1455841 
1.579357 -0.02023521 -2.528271 
-0.3730886 0.0519072 -1.815559 
-2.315624 0 -2.591153 
-2.735909 0 1.619265 
0.8051296 0 -2.67194 
-2.835522 0 -1.260861 
2.173011 0 1.819932 
2.873483 0 -0.1698746 
1.327343 -0.0397611 0.5468906 
0.8511633 0 0.684194 
-2.056005 0.006019145 -2.432295 
0.6900412 -0.01482088 0.2384257 
1.93137 -0.1120746 -2.063914 
-2.986951 0 0.1981174 
-0.5226858 0.02906115 -1.586622 
-0.1692755 0 1.372044 
-2.288273 0.001054124 -1.522322 
1.572453 0 1.640325 
-2.916853 0 0.5363947 
-2.607005 0.02638857 2.712619 
-0.03356177 0.01921522 -1.932556 
1.178364 -0.04223871 -2.210184 
1.692525 -0.0002900003 -2.692459 
-1.994396 0 -1.096225 
-2.363163 0.005416667 -2.341733 
-2.989687 0 -0.04514949 
2.651462 0 1.81979 
-2.400697 0.02108973 -1.85013 
-2.596676 0 1.620198 
-2.261607 0 -0.4050947 
1.311898 0 1.047795 
2.693679 0 1.999957 
1.714128 0 -0.9580554 
-2.305377 0 0.5735345 
1.905163 0 1.524829 
-1.603327 0 -2.817461 
1.700215 0 1.448211 
-2.536223 0 -1.269373 
1.343727 -0.01245545 -2.618147 
-2.623784 0 -2.218612 
-1.720947 0.007637289 2.899939 
-2.617256 0 -2.710617 
1.584275 -2.24578e-07 -2.912421 
1.573364 0 1.3823 
1.560372 0 2.626755 
-0.7156976 0.05708265 -1.689223 
1.736042 -0.002106575 0.4553753 
-2.40324 0 -0.7178004 
-2.445308 0 -2.963486 
-2.745941 0 -1.797152 
-1.046786 0.05298834 -1.948955 
-2.237054 0 -0.6265699 
-2.073424 0.1589737 2.827056 
-1.690059 0 0.5743242 
1.699654 -0.1658501 -2.146613 
2.648154 0 -0.8363651 
-1.010736 0.002770373 -1.246565 
2.709146 -0.001010522 -1.377367 
1.42974 -0.1697057 -2.297581 
-0.06238262 0 -0.1306676 
1.529688 0 -1.244788 
-1.901831 0 0.05723911 
0.5523036 -0.005218202 -0.1011064 
0.6747026 0 1.563671 
2.217635 0 2.196127 
-1.386991 0 -0.7121788 
1.680777 0 2.226789 
1.47745 0 2.568151 
-1.731556 0 -0.407919 
-0.1956471 0 0.7709541 
-2.960164 0 -1.843934 
2.171331 0 -0.04188936 
-1.873432 0 -0.4719225 
-0.7714626 0 0.6001749 
0.4057819 0 -2.944709 
-2.559921 0 -0.5660297 
2.428441 -0.01986174 1.099257 
-0.8096462 0.08221945 2.077785 
0.07062892 0 2.360629 
1.175035 0 2.434704 
2.744443 0 2.181254 
-0.7753043 0 -2.78756 
-2.65987 0 -0.7453671 
2.518483 -0.002181017 -1.901893 
-2.196533 0.1974081 2.767809 
-2.530433 0.001423558 2.100363 
0.09281983 0 -0.4856101 
-1.634529 0 0.8946517 
-0.6362444 0 -2.879347 
0.1776052 0 2.250036 
-0.4008154 0 2.939054 
-0.06595562 0 2.328246 
-0.4934203 0.04048678 -2.426638 
-0.13724 0 0.8138118 
-0.6189856 0.03439765 -1.565691 
-1.690691 0.06981237 -1.575477 
1.046107 -1.651918e-05 -2.810601 
-1.032272 0 0.4951812 
1.698766 -0.04268249 -2.385956 
