ply
format ascii 1.0
comment VCGLIB generated
element vertex 2000
property float x
property float y
property float z
element face 0
property list uchar int vertex_indices
end_header
1.936321 0 1.812446 
2.047546 0 1.349278 
2.512164 0 0.4550169 
-1.15944 0 1.406209 
-1.448425 0 -1.086502 
2.887769 0 -0.6474753 
2.867611 0 2.077367 
1.238754 0 0.05314194 
2.659984 0 -1.305322 
1.812081 0 1.034945 
-2.293555 0 0.2439363 
-2.477118 0 -2.454146 
1.720184 0 2.980932 
0.005837298 0.004422316 0.9799279 
-2.907109 0 -2.076573 
-1.815763 0 2.013571 
1.099238 0 2.853852 
1.383161 0 1.260928 
-0.6967164 0 -1.343816 
-2.003165 0 2.023305 
1.21519 0 0.290373 
-1.135218 0 -1.132655 
-2.86481 0 0.618089 
2.924075 0 -1.020953 
1.014727 0 -2.110857 
1.476444 0 -0.006962897 
-2.894394 0 -1.771912 
-2.366876 0 -0.7166787 
1.570166 0 -0.6229649 
-2.929929 0 -2.342204 
-0.07523501 0.03466245 -0.6076362 
-0.1916738 0.3689471 -0.192925 
1.126956 0 -0.6852282 
1.821388 0 -1.906561 
1.000332 0 2.569657 
1.136778 0 -1.212538 
-2.299483 0 1.411957 
1.592971 0 2.709824 
-1.054356 0 -2.695851 
1.734304 0 -2.060914 
1.373971 0 -2.049842 
1.881652 0 -0.1239958 
1.186745 0 2.447479 
-0.5314841 0.01196159 0.7171816 
0.2113747 0 1.571926 
1.515229 0 0.6199818 
-1.547112 0 -0.4305041 
2.912269 0 0.6956789 
1.887453 0 1.912527 
1.008322 0 -2.982765 
-0.9891018 0 0.1887016 
2.029284 0 -2.858106 
0.555424 0 -0.970331 
2.923725 0 1.068323 
1.965459 0 2.691631 
0.5669737 0.1835821 -0.05671865 
2.527185 0 -0.6806871 
1.028565 0 2.547003 
1.463765 0 -2.809464 
-1.890332 0 -2.753507 
-2.710805 0 -2.771053 
-0.8968967 0 -0.694962 
1.671722 0 1.109884 
2.798158 0 2.158302 
0.3405778 0 1.486553 
-0.7679714 0.005401435 0.3254821 
-1.071933 0 -1.653029 
2.619953 0 1.992485 
-1.163672 0 0.4739453 
0.5629644 0 -2.308181 
0.4672893 0 -2.38058 
-1.07695 0 -2.625421 
1.0334 0 -0.3571471 
2.979878 0 0.7318229 
-2.546065 0 0.5563505 
-0.07716115 0.2773877 0.5926372 
-2.118023 0 2.803413 
-0.2503941 0.225367 0.5757277 
2.93501 0 -1.650089 
2.170952 0 1.188733 
-2.470417 0 -0.5928894 
2.765251 0 -2.416348 
1.612434 0 2.390271 
-0.8669053 0 2.005673 
-2.559293 0 0.3647318 
2.094697 0 0.7594049 
1.745868 0 0.4225336 
1.465453 0 -1.690235 
-2.056749 0 -0.5004516 
-2.51229 0 2.949622 
-2.270837 0 2.020166 
-2.597613 0 2.553775 
0.1894265 0.05950489 0.7885862 
1.072122 0 2.356934 
0.5810198 0 -2.857602 
-1.864559 0 -0.07505844 
-0.6020787 0 1.651964 
1.503575 0 0.4070037 
-2.382005 0 0.1250753 
0.05775455 0.1477637 0.7165539 
-0.5272617 0 2.533103 
1.917112 0 -0.9644909 
2.710448 0 2.471663 
-1.528147 0 2.53333 
-1.09268 0 -1.835287 
-0.9565592 0 2.129116 
-2.510251 0 -2.052132 
2.222322 0 -0.01176899 
-1.673793 0 -1.432549 
-0.1651233 0 -1.390573 
-2.351801 0 -2.596194 
2.65222 0 -0.5755175 
0.5011057 0.2308217 -0.1223107 
-0.3841439 0 2.789687 
-0.8971357 0 -0.861317 
-1.06819 0 2.834708 
-2.871581 0 1.479697 
1.782248 0 -2.400872 
1.326775 0 -1.899734 
-0.1234207 0 -1.685814 
0.2095921 0 1.589975 
-1.278603 0 1.896875 
-1.999842 0 -2.683909 
-1.213704 0 0.1095038 
-0.8436142 0.001971533 0.2978969 
1.888292 0 1.43168 
-2.565742 0 1.46228 
-0.2677312 0 1.715214 
-0.1875229 0.4200748 -0.0912241 
-0.156955 0.2175052 -0.3811846 
-1.162756 0 1.999 
-0.6918777 0 -1.721154 
1.922859 0 0.8582156 
2.45361 0 -0.6249269 
-0.8658655 0 -2.876674 
-1.880206 0 -0.1824789 
-0.9988365 0 0.05048419 
-1.600886 0 -0.8842966 
0.3309301 0.1112489 0.6654732 
1.636818 0 0.8898451 
-1.877631 0 -2.628398 
2.591656 0 -2.95634 
-1.5928 0 2.040508 
2.199384 0 -2.721881 
-1.806137 0 -2.331592 
-1.615019 0 -0.7614922 
-0.3561162 0 2.672457 
-2.596227 0 -1.277112 
-0.4331909 0 -1.492331 
0.4551138 0 2.967842 
2.85806 0 -2.463397 
1.096287 0 2.328551 
-1.569138 0 -0.5965941 
-2.181701 0 2.699948 
-1.583287 0 -1.899399 
1.789554 0 1.249556 
-1.725739 0 -1.111604 
-1.082744 0 2.064418 
-1.135958 0 -1.873431 
1.647983 0 0.2210532 
-2.646298 0 0.08894362 
-2.035414 0 -0.3454185 
-2.905268 0 -0.06719329 
-1.608109 0 -2.188323 
-0.1824857 0.1987542 -0.3894296 
-1.377167 0 -2.062513 
-0.2016207 0 1.609042 
0.6203952 0 2.267465 
0.1084112 0 2.619813 
-0.5409192 0 1.65726 
0.6670769 0 2.429496 
-1.239057 0 -1.631003 
-0.782741 0.000240953 0.6635826 
1.579024 0 -1.809878 
2.181268 0 -2.426764 
2.435743 0 -2.955408 
-2.501983 0 1.826908 
-1.063009 0 1.22011 
1.034348 0 2.596646 
2.026026 0 -2.406117 
-2.430086 0 -0.6877934 
-2.587446 0 -2.883828 
1.705691 0 1.084122 
-2.518085 0 1.857468 
2.335923 0 1.624763 
1.325199 0 1.81583 
-1.880723 0 0.4653649 
-0.5433909 0.07338128 0.4884293 
-0.02894835 0 2.090134 
-0.5493177 0 1.61935 
0.5371472 0 1.064931 
-0.2318072 0 -2.104598 
1.76607 0 -1.227632 
-0.03730272 0 -1.167993 
-1.627412 0 -0.8565274 
-0.05545057 0 1.39709 
-0.1466806 0.02712166 -0.6057256 
2.85752 0 2.6744 
1.147423 0 -1.794426 
-1.024786 0 2.844914 
-2.759114 0 2.251111 
0.1742225 0.06013451 -0.5567591 
-2.757012 0 -1.416911 
0.9278141 0 0.6129779 
1.92742 0 0.6685241 
-1.673228 0 1.638489 
-2.271164 0 -2.277025 
-0.4727997 5.921283e-05 1.053541 
2.781437 0 -0.3872013 
0.7881966 0 2.208596 
-0.3603612 0 -2.749332 
-1.685331 0 -2.255149 
-2.636111 0 0.6517784 
-2.542672 0 2.798364 
-0.6998337 0 -0.9021907 
-2.035691 0 -2.741136 
-2.732039 0 1.979186 
2.125199 0 0.04811066 
-0.484386 0 2.679311 
-2.015056 0 -0.1596468 
-1.332309 0 0.5595629 
-0.9021642 0 -2.743073 
2.916869 0 2.122288 
-2.046328 0 2.576588 
-0.8360656 0 -0.905661 
2.140457 0 -1.847552 
-1.066812 0 -2.417456 
2.185844 0 -0.2573176 
-2.845228 0 -1.501428 
-2.087177 0 -1.591544 
-0.4824325 0.009044152 0.7837248 
0.5207109 0 -1.337503 
-0.4764508 0 2.409771 
0.3135749 0.3950578 -0.08726078 
1.210234 0 1.745136 
1.444923 0 2.147915 
1.177719 0 2.725474 
-2.001082 0 -1.625021 
-2.397742 0 -1.353049 
0.989461 0 -1.675211 
-2.926619 0 -1.183671 
-2.308016 0 -2.526097 
0.8837342 0.0004196408 0.03541622 
-0.2198729 0 2.294497 
-0.2388698 0.0006799097 1.060763 
-0.04042342 0 2.824447 
2.164423 0 0.8064984 
-1.641243 0 1.097275 
-1.82638 0 2.579795 
1.310636 0 -0.3085212 
-2.377313 0 0.917255 
-1.623037 0 0.7084712 
-0.6939769 0 1.166708 
1.459592 0 -0.8417323 
-1.271158 0 1.045048 
-0.2076805 0 -2.145676 
1.878576 0 -1.174734 
2.352571 0 -1.026718 
-0.9760283 0 2.083785 
2.424444 0 2.472638 
2.443795 0 2.750548 
-1.017 0 1.509028 
-1.548142 0 -1.440757 
0.4201763 0 2.288355 
-0.5842848 0.1239003 0.05824309 
-0.1574726 0 -1.194079 
-1.958587 0 0.4796607 
-0.6622728 0 -2.150171 
0.4147351 0 -1.300508 
1.431711 0 -1.160647 
1.126139 0 2.210505 
0.6512972 0.0004252262 -0.5958512 
-2.729863 0 -0.6018552 
-1.062455 0 1.960234 
0.7653524 0 -1.305632 
-0.03764433 0 -1.641831 
1.32405 0 2.319321 
-1.032934 0 -0.2060456 
-1.024871 0 2.046397 
1.071877 0 2.095318 
1.692045 0 1.185476 
1.136319 0 2.756719 
-1.444377 0 2.628982 
0.09633601 0.03704735 0.8462743 
-0.2953554 0 1.297311 
-2.35795 0 -2.241396 
2.190633 0 0.5719491 
2.800011 0 0.6183863 
0.7381331 0 -1.946153 
1.312526 0 0.2452048 
0.9722098 0 -2.210478 
-2.7983 0 -2.339559 
1.065719 0 -2.18447 
2.381789 0 -2.624706 
-1.813915 0 -1.754575 
-1.216987 0 2.839352 
-0.8831468 0 1.915356 
-0.3735688 0 -1.213477 
-1.090514 0 -2.98033 
1.189792 0 -1.544562 
2.488984 0 -0.2942534 
-1.361004 0 0.7095277 
-0.5826579 0.08014522 0.3762886 
-0.4219699 0.07115383 -0.3612464 
-1.010518 0 2.857028 
-1.738948 0 0.9708724 
-2.884432 0 -2.079515 
-0.2592742 0.4265627 0.0403125 
-0.2687496 0 -2.337453 
0.1363387 0 -2.168924 
0.585346 0 1.800971 
0.2072435 0 2.940512 
-1.627291 0 -1.794188 
1.80869 0 -0.075638 
1.494535 0 -0.5516075 
2.210294 0 -2.397716 
-2.636916 0 -1.666167 
2.576814 0 2.872202 
0.1787349 0 1.753704 
2.335948 0 -1.165393 
0.810172 0 0.8445903 
-0.6042104 0 -2.951344 
2.674694 0 2.387184 
0.4871694 0 1.899974 
-1.653219 0 0.2800714 
-2.457965 0 -2.027244 
-0.4086962 0 -1.537336 
0.1269725 0.3582918 -0.2691614 
1.504911 0 -2.051944 
-2.686822 0 -0.6315255 
-0.4627567 0 2.914748 
0.3921082 0 -2.988492 
-1.547875 0 -0.171355 
-1.185293 0 0.1756172 
0.1601174 0 -2.309418 
2.131811 0 0.3699284 
-1.133414 0 -1.60226 
2.040356 0 -1.797983 
0.7688293 0 1.522872 
1.162119 0 -1.590274 
0.2047174 0 2.342025 
-1.87719 0 1.835708 
1.258388 0 1.503671 
1.947494 0 2.288541 
-1.73325 0 -0.1615486 
2.125337 0 -1.171254 
-2.677969 0 0.9524024 
2.006073 0 0.2944335 
-0.8681335 0 1.131251 
-1.779752 0 1.837545 
1.54794 0 -2.537312 
1.549434 0 1.277302 
-1.83404 0 2.27778 
2.936185 0 2.864254 
-2.627603 0 -2.487056 
-0.8140157 1.437777e-05 0.7587563 
2.122304 0 -0.9429585 
2.027892 0 -1.015358 
0.8912352 0 -0.743148 
-2.943536 0 -1.101884 
-0.9134494 0 0.8958027 
0.6177976 0 -0.8043966 
-1.476321 0 -1.940672 
-1.441757 0 2.844038 
-1.691953 0 -1.771858 
-1.183519 0 -0.07386824 
-0.8858843 0 -2.733687 
1.752318 0 -2.053087 
1.041454 0 1.43577 
0.0466344 0.006235415 0.9659208 
-2.982004 0 2.94308 
2.87552 0 -0.4548512 
-1.426388 0 1.447405 
-2.743732 0 -2.256859 
-0.4910297 0 -1.366144 
-0.3572044 0.3622533 0.06877549 
1.512074 0 -1.700687 
2.38994 0 -2.177174 
1.506639 0 2.655407 
0.437179 0 2.844544 
1.595338 0 -2.417729 
-1.667345 0 2.216415 
0.9849379 0 -0.7131008 
2.757635 0 -2.738047 
1.577471 0 -1.686205 
2.192708 0 0.3286739 
2.998272 0 0.2335976 
0.190085 0 -2.209189 
0.4292131 0 1.905522 
0.7417111 0 -2.412283 
-0.6152085 0.05673461 -0.1031252 
-0.3146376 0 1.487768 
1.598017 0 -2.223727 
0.1719828 0.461912 0.2777964 
-2.560395 0 -1.3351 
-1.894339 0 2.85155 
1.053205 0 2.888539 
-0.1925477 0 1.156043 
-0.138287 0 -2.193836 
-2.041005 0 -2.305469 
2.096926 0 2.307714 
-2.064195 0 -2.767616 
1.069008 0 -2.696142 
-1.609953 0 -2.406757 
2.277134 0 -0.5307165 
-1.35288 0 -2.768717 
2.1739 0 -2.222051 
1.589417 0 -0.125491 
0.07012039 0.1778896 0.6906478 
-1.323852 0 2.523694 
-1.627128 0 2.823754 
-2.635395 0 -2.626498 
0.5330818 0.2456984 0.01577871 
1.383689 0 -2.583586 
0.5097436 0 2.500384 
-0.1372249 0 -2.852072 
-2.596328 0 0.6699709 
-2.007365 0 -1.482158 
1.238172 0 -1.225319 
-1.586153 0 -2.557081 
1.517682 0 -1.68457 
0.2058263 0.1172471 -0.483814 
0.4031517 0 -1.58162 
-0.6328402 0 2.745793 
2.168305 0 -1.413612 
-0.532425 0 -2.074063 
-1.72485 0 2.712034 
-2.820962 0 -2.311965 
-2.935537 0 -0.9921439 
-0.2319354 0.4080644 0.3093443 
-2.856352 0 -0.4953621 
0.8597047 0 1.843334 
-2.312334 0 0.08299977 
1.370178 0 2.58031 
-1.978149 0 -2.732751 
1.074729 0 0.5451221 
-1.469973 0 -2.113721 
-0.3457598 0 2.734564 
0.04398202 0 2.34873 
-0.8170804 0 2.110008 
-2.319463 0 -0.1187809 
1.95847 0 0.5589453 
2.193918 0 1.014352 
-1.959513 0 2.758517 
0.4107307 0 2.689375 
-0.6686168 0 1.07062 
-1.901918 0 -2.064949 
2.054947 0 1.111867 
-2.505174 0 -0.3108287 
0.9226791 0 1.449845 
0.5730541 0 -2.522902 
-2.170344 0 -2.078268 
2.633087 0 0.7966281 
-0.662861 0 -2.36512 
-2.761416 0 1.013129 
-0.404048 0 -1.584359 
2.892233 0 2.032348 
-0.3724355 0.2450322 -0.1911615 
0.02696625 8.543664e-05 -0.8714824 
1.464101 0 2.606653 
-2.268729 0 2.735683 
-2.76496 0 -1.124553 
-1.268595 0 -2.328886 
1.782324 0 -2.801979 
-0.2840123 0.1237802 -0.4035214 
-0.6203772 0 -0.7884197 
2.009944 0 -0.9481215 
-2.747541 0 0.1212353 
-0.937988 0 0.8298793 
-1.067786 0 0.7212261 
-2.034925 0 1.054078 
-2.008996 0 1.224387 
2.301131 0 -0.6679731 
-1.318165 0 2.143058 
0.1528876 0 -2.093304 
2.36423 0 -2.834759 
-1.345014 0 1.884483 
-0.8015788 0 -1.723696 
1.566716 0 -0.08021075 
-2.282327 0 -0.002578452 
-2.043408 0 0.6739528 
2.951811 0 -2.003963 
0.1447542 0 2.372253 
-1.09698 0 -0.08455249 
-1.79549 0 2.871195 
-1.942201 0 -0.1372564 
-0.2169125 0.0001069035 -0.7751423 
-1.075694 0 1.323225 
1.368419 0 -0.2785687 
-2.589883 0 -1.476218 
-2.025937 0 -1.220795 
0.3294047 0 -0.9591703 
-2.231816 0 2.622047 
1.674691 0 1.749432 
-2.742178 0 -1.403997 
0.3465919 0 -2.928503 
-0.3149036 0.02939769 0.7944205 
2.928692 0 1.083403 
-1.866123 0 0.7963151 
0.6108983 0 -2.502064 
-0.1905006 0 2.413834 
-2.966564 0 2.967107 
-1.013127 0 -0.09380496 
-2.799903 0 -2.722209 
-1.312609 0 -1.358394 
-0.3648351 0.3575014 0.19233 
1.523302 0 0.6685887 
-0.04822208 0.0003306274 1.091678 
-2.613309 0 1.528278 
2.55192 0 2.753359 
0.1917419 0.3012975 -0.3188538 
-0.979507 0 2.704643 
-1.005461 0 -1.975761 
-1.440742 0 1.398658 
0.1150241 0 -2.888053 
1.823517 0 -0.2550372 
0.445823 0 -2.854517 
0.8788666 0 -1.263606 
1.152883 0 -0.08454333 
0.5632916 0 2.921033 
1.025868 0 -1.430965 
-0.09195049 0 -2.189993 
-2.693881 0 1.609195 
-1.40234 0 -0.9108855 
0.6167938 0 1.618676 
-0.7523751 0 -2.094919 
-2.38495 0 -1.315104 
0.5899732 0 1.50168 
2.353013 0 1.740982 
-0.7135381 0 1.21538 
-2.867299 0 -1.023628 
-1.57782 0 1.989215 
1.81515 0 0.9932951 
2.801916 0 -2.128167 
-2.300456 0 -2.732085 
1.065772 0 1.653093 
-2.330915 0 1.898908 
2.509697 0 1.80456 
0.8777673 0 -1.20578 
2.696096 0 0.5836564 
1.463988 0 1.442961 
2.795887 0 0.3126906 
2.799505 0 0.3961098 
-2.636914 0 -2.38349 
-0.8273449 0 0.9565649 
1.198238 0 2.894002 
0.4626833 0 -1.142428 
-2.556123 0 1.540552 
-1.90657 0 -2.069019 
-2.620228 0 0.21072 
-1.866678 0 -2.013144 
-2.123739 0 -1.415264 
-1.670029 0 2.535684 
0.3547673 0 -1.784899 
-2.078825 0 2.974345 
-1.341105 0 -2.895356 
-1.301677 0 -0.08674923 
-0.7022505 0 -1.67381 
-2.627678 0 -1.795226 
1.60057 0 0.9785824 
-2.44605 0 -2.402842 
-1.436286 0 -0.1662672 
0.421039 0 -2.778165 
-1.772649 0 -2.260856 
1.099145 0 -2.148012 
-1.060619 0 1.229165 
0.8365747 0 -1.673016 
0.2609808 0 2.335048 
-1.965513 0 -2.207786 
2.906138 0 -2.80552 
-0.229659 0.3503857 -0.191087 
-2.295509 0 -1.633433 
-1.36852 0 0.6426785 
2.920789 0 0.9198722 
-0.5000393 0 -1.329168 
1.516487 0 1.973707 
-2.701173 0 2.311078 
1.287945 0 -1.378854 
1.057488 0 -2.601645 
0.6129903 0.1517814 0.1837033 
-2.636918 0 -2.059743 
-2.950222 0 -1.917096 
0.7738723 0 -1.682451 
1.643387 0 -0.528432 
-2.463607 0 -1.344421 
-1.455706 0 -2.134507 
-2.25084 0 2.592182 
-2.395056 0 1.736393 
-2.17452 0 -2.083862 
-0.2533776 0.02730215 -0.56145 
-1.169848 0 -1.143243 
-2.617525 0 -0.3477886 
2.385765 0 0.9650851 
-0.1069501 0 2.525272 
-1.948844 0 -1.327996 
2.756504 0 0.6643607 
2.448587 0 0.3772609 
2.131871 0 -1.256317 
-1.127627 0 -0.2745645 
0.4561771 0 -1.182439 
2.965652 0 0.8623022 
2.461833 0 0.6273199 
-0.7624838 0 -2.657986 
2.095989 0 0.5912323 
-0.6201205 0 1.468569 
1.336855 0 -1.148877 
0.5984077 0 -2.381275 
0.2492539 0 -2.611109 
-2.130028 0 0.101571 
-2.514249 0 1.057662 
-0.9686847 0 -0.00948704 
-1.318335 0 0.927909 
0.1980007 0.4772989 0.1840037 
0.834999 0 2.80554 
-1.115284 0 -1.084807 
1.770283 0 2.775503 
-0.4520234 0.006857282 0.8446667 
2.816669 0 -0.286641 
1.362183 0 0.6877388 
0.3446304 0 1.249917 
-2.298299 0 -0.4104591 
-2.328258 0 1.032366 
-1.208239 0 -1.456901 
0.4168398 2.320048e-05 -0.8203408 
2.620879 0 -0.5931901 
-0.6121927 0 -1.712457 
1.55702 0 -0.08713741 
-2.028312 0 2.561138 
1.415825 0 0.3364194 
1.099531 0 1.643815 
-0.3579597 0.2697668 0.4237564 
-0.8707626 0 -1.498405 
1.90934 0 -0.9887529 
-1.020697 0 0.6869994 
0.9950745 0 0.8947778 
2.484849 0 2.399452 
1.147393 0 1.334872 
-0.7198974 0 -1.392274 
0.1181653 0 -2.391138 
-0.3260382 0.1714773 0.5826805 
1.775352 0 -2.393162 
-2.515272 0 -0.9540598 
0.1103124 0 1.432255 
-0.9357119 0 -2.510249 
-0.5596594 0 2.480578 
-1.50283 0 -0.9464949 
-1.580043 0 0.2835101 
2.18545 0 -2.993106 
0.7768778 0 -1.0201 
1.443197 0 0.6936868 
2.441466 0 -1.847687 
2.508206 0 0.2656061 
-0.312904 0 1.265602 
-0.4292799 0.2101125 0.419417 
-1.65702 0 2.639508 
-2.972627 0 -2.372811 
0.9926586 0 -0.6805634 
1.512698 0 -2.497383 
-0.5167777 0 1.974515 
2.158382 0 -1.195575 
-1.195739 0 -1.414315 
1.024815 0 1.1399 
2.060987 0 1.879526 
-1.898313 0 -2.996946 
2.712482 0 0.581643 
-1.934116 0 -0.257419 
2.068296 0 -2.582274 
2.134697 0 1.727401 
2.982614 0 -2.03245 
-1.4297 0 -0.2591223 
0.5786106 0 2.552302 
2.899081 0 -0.3662277 
-2.8937 0 1.16719 
2.551071 0 0.2052706 
1.330436 0 0.01525194 
-1.216654 0 -2.205056 
1.237399 0 -2.581985 
-1.447455 0 -1.472915 
2.717838 0 -1.384155 
2.289901 0 -2.869263 
-1.742865 0 -1.749831 
0.06911725 0 1.563897 
0.7578229 0 -2.668308 
-1.195996 0 0.02482555 
1.3145 0 0.841478 
-0.5383565 0 -1.619218 
-0.6604431 0 1.426746 
-1.711417 0 -2.756624 
2.417006 0 1.371164 
2.794606 0 -1.408371 
1.921627 0 2.249023 
-1.738779 0 1.340812 
0.4345059 0.2125911 -0.2471938 
0.09118274 7.79697e-05 -0.8757191 
-1.578725 0 2.349121 
0.8086419 0 1.100501 
1.777741 0 -0.8839878 
2.465111 0 -1.049817 
0.1344792 0.005138133 -0.7371349 
0.5526953 0 -0.8115603 
2.942317 0 0.5215359 
1.124777 0 2.148055 
2.641083 0 -2.962805 
-2.822497 0 -2.446178 
0.09697793 0.2961837 -0.347883 
2.776588 0 1.457771 
0.6520281 0 1.919988 
2.444779 0 -2.536803 
-2.009023 0 -0.534332 
-2.347518 0 -1.28696 
0.530424 0 -1.11156 
2.265709 0 0.9867076 
-0.5885702 0 -1.237135 
-1.228892 0 2.216703 
0.9526306 0 -2.365771 
-1.743309 0 -2.111612 
-1.084012 0 -1.58215 
-0.8478089 0 -0.5352308 
-1.331076 0 -0.4712566 
0.5915116 0 -2.628078 
-0.6201065 0 -1.568439 
-0.5000614 0 -1.649995 
0.3103453 0 -2.59837 
1.048992 0 1.842445 
0.04644554 0.2163375 -0.4239934 
-2.143479 0 -1.781521 
2.883344 0 -1.665163 
2.415146 0 1.758252 
-0.9407874 0 1.339593 
2.358271 0 -0.5097443 
-0.5969916 0 -2.134506 
0.1171307 0.1450566 0.7078378 
-1.190669 0 1.203071 
-2.497974 0 -1.241187 
1.046833 0 -1.753868 
-2.916503 0 0.229067 
2.435991 0 -2.291396 
2.299136 0 1.590227 
-0.7905511 0 -2.729922 
-2.205119 0 1.178117 
-1.807892 0 -1.925159 
1.763167 0 -1.489406 
-0.1223937 0 2.249849 
1.928543 0 -1.312491 
-2.02744 0 0.9799581 
-1.42249 0 -1.138324 
2.6098 0 -0.1519037 
1.256733 0 2.769046 
-2.489678 0 1.723767 
1.399457 0 -1.84731 
2.361033 0 0.09789781 
0.7705547 0.0008089269 0.5601237 
0.2459669 0.0006325425 -0.7920469 
1.78683 0 -2.39985 
-2.026515 0 0.4193335 
-2.907076 0 0.5486171 
0.06430609 0.4286 -0.1934839 
-1.734159 0 2.866974 
-2.442618 0 0.9283359 
2.300542 0 2.286943 
-0.02298364 0 1.720832 
1.823816 0 0.2531736 
1.934797 0 2.70757 
1.247712 0 -2.239835 
-2.196027 0 1.542352 
0.1184398 0 1.184224 
2.454012 0 -0.7230028 
0.4694151 0.02824197 -0.5014403 
-0.954604 0 2.286592 
-2.279438 0 2.60287 
1.350333 0 -1.546644 
-2.039195 0 -0.9496031 
-0.6205063 0 2.70872 
-0.9806142 0 1.956541 
-1.053671 0 2.829678 
-0.1238848 0 2.596928 
0.2099717 0.005495213 0.9335401 
-2.096007 0 0.7290106 
-0.8595735 0 2.770572 
-2.245424 0 1.0564 
-0.05915096 0 -1.434675 
-1.238502 0 -0.1737354 
-1.002828 0 1.136729 
1.460191 0 0.2738177 
2.723635 0 -0.3744497 
1.747867 0 -0.7501123 
0.8927669 0 2.015292 
1.22407 0 2.98412 
1.181723 0 -1.343538 
2.397339 0 2.121414 
0.9204022 0 2.721062 
-2.017791 0 -0.283285 
-0.3540645 0 -1.969518 
-0.7861899 0 -2.423805 
2.060362 0 0.6786383 
-1.488127 0 0.8138866 
-2.208636 0 1.451379 
1.2516 0 -2.00264 
0.489578 0 1.780452 
2.168646 0 2.985091 
-0.002366126 0.01577588 0.8991588 
1.60293 0 -0.7649365 
-0.9110484 0 -0.8294773 
-2.990923 0 0.5246253 
-2.804176 0 1.74217 
-2.788806 0 0.2228312 
0.9340593 0 0.5984048 
1.038222 0 -1.076518 
-0.8587281 0 2.668107 
-1.801311 0 2.961706 
2.866534 0 -2.994048 
1.352349 0 1.468215 
0.8095535 0.0009399184 -0.3657419 
-1.187824 0 -0.1649166 
-2.294398 0 0.497831 
1.147982 0 -2.456925 
-1.005547 0 0.04091413 
-1.028035 0 0.2454481 
-2.319216 0 0.6334299 
0.5774339 0 -0.8016363 
2.625546 0 1.16459 
0.9511567 0 -0.4749921 
-0.9672512 0 2.583247 
1.259449 0 -1.184216 
0.2561856 0 2.257203 
-2.516898 0 0.765689 
-2.816932 0 -2.15997 
-0.2355905 0.1090003 -0.4465629 
-1.930386 0 1.139778 
1.738617 0 1.384399 
2.22907 0 -0.2255959 
-1.932861 0 -2.055467 
2.442928 0 -2.348766 
1.621876 0 -2.256874 
0.1871639 0 2.752221 
-2.327568 0 2.780607 
2.017408 0 0.1254992 
-2.356397 0 -2.122351 
0.2186618 0 -1.855187 
0.4422121 0.002309684 -0.6834303 
-0.0448646 0.01296132 0.9202576 
2.16118 0 0.861439 
-2.238585 0 1.123811 
0.9249952 0 -1.061937 
1.641619 0 -1.73173 
-1.612455 0 -1.407369 
-2.209063 0 2.794761 
-1.889393 0 -1.924239 
-1.252291 0 -2.166602 
-0.2918714 0 2.105654 
-1.258433 0 2.270685 
-0.3553421 0 -1.86773 
0.4635171 0 -0.9477502 
1.677062 0 -0.1410303 
0.2317939 0.001696281 0.9694423 
1.22593 0 1.430159 
-2.945043 0 0.947467 
-0.7011623 0.0163945 0.4203383 
0.1184578 0 2.603258 
-0.3745341 0 2.734871 
1.824632 0 -2.865701 
2.926181 0 -2.018124 
0.5360186 0.1993361 0.3225322 
1.596058 0 -1.48098 
0.9006921 0.0002378041 0.251701 
-0.7382835 0.01763709 0.1246506 
-2.657596 0 -1.636085 
-0.2016947 0 1.33898 
2.576523 0 0.1071188 
1.998182 0 -2.839596 
1.581431 0 2.107888 
1.229055 0 -0.8727945 
2.931197 0 0.8663704 
-2.104574 0 -2.970834 
-0.2038431 0 2.793728 
-1.915815 0 1.720101 
2.231997 0 -1.716033 
2.477446 0 1.519585 
0.4436642 0 -1.370456 
-2.164673 0 1.781772 
-0.399893 0 -1.624304 
-2.399959 0 2.628086 
1.529373 0 0.3391551 
-2.075453 0 -2.7816 
0.9995836 0 -1.313445 
0.07679419 0.03972753 0.8452609 
-0.60062 0.03310291 -0.2213626 
-2.143138 0 2.415483 
-1.453285 0 -2.558927 
-0.6266566 0 1.443019 
-0.716511 0 -0.6361838 
1.581422 0 -1.780811 
2.029306 0 1.542309 
2.235052 0 2.403214 
-1.015309 0 1.769832 
2.629202 0 1.286822 
2.198979 0 -2.231819 
-0.9978103 0 -0.6887254 
0.9206853 0 -1.795804 
-2.430362 0 2.378853 
-2.315168 0 1.962979 
-0.5676303 0 -1.208672 
-1.698553 0 -2.812354 
2.338316 0 0.4311489 
0.2161624 0 1.717729 
-0.4657724 0.01775701 0.7497696 
-0.5749761 0 2.704074 
-1.547945 0 2.4245 
2.746572 0 0.6143941 
-0.4823438 0 2.548067 
1.959195 0 2.377941 
-0.05170927 0 -2.977615 
-2.641456 0 0.4254437 
2.458639 0 1.814799 
-1.291194 0 -2.413139 
-2.583541 0 -1.420238 
-2.498322 0 2.865116 
-2.233396 0 -2.311444 
2.150563 0 -0.2971507 
2.462255 0 0.5719117 
2.887463 0 -1.881164 
-0.9429951 0 0.7885317 
-1.069125 0 0.2961841 
-0.46667 0 2.879399 
-2.763936 0 -1.340504 
0.3891723 0 2.559608 
-0.3614927 0 2.509016 
-1.399357 0 -0.3730015 
0.6179037 0.1030607 -0.1279026 
0.01344739 0.2665942 -0.3748901 
2.547732 0 0.9592351 
2.912774 0 -0.7111925 
2.395505 0 -0.5992192 
1.654665 0 -0.06597805 
0.6427916 0.1199957 0.1239863 
0.7165841 0 2.162018 
-1.900693 0 -0.8585888 
1.285636 0 2.544405 
2.858957 0 1.750581 
0.5157822 0 -2.009357 
1.236595 0 1.781417 
-1.253842 0 -0.2187442 
0.2858981 0.03386901 -0.572058 
1.404464 0 -2.411057 
1.015169 0 -2.141469 
-2.51015 0 2.728594 
1.313985 0 -1.748239 
-0.06280832 0 2.009372 
-0.6610978 0.005323332 0.6228702 
-2.914763 0 1.887202 
-0.466864 0 -1.506617 
-1.346496 0 -0.09789105 
1.640211 0 -0.4983799 
1.365804 0 1.7846 
-0.7025878 0 -0.5775408 
-0.7106614 0 2.789888 
-2.779254 0 -0.7916104 
2.725682 0 1.176178 
1.820317 0 -2.983966 
2.755521 0 -1.234918 
0.9854915 5.942734e-05 -2.795085e-05 
-0.4065387 0.320967 0.09354409 
0.448357 0.09620976 0.5923591 
-1.784843 0 -1.520797 
0.4196068 0 -1.59482 
0.9992816 0 0.6544059 
-2.174468 0 2.878042 
-2.478215 0 -2.936445 
1.987615 0 2.202666 
-2.46822 0 0.7753994 
2.090734 0 -1.717376 
0.5852737 0 2.249074 
-2.436459 0 -1.060823 
-1.567443 0 0.2901679 
0.2162346 0 -1.393243 
1.262743 0 1.437665 
2.173566 0 2.990214 
2.242763 0 0.4646523 
-0.0009291228 0.253482 0.6211312 
1.577136 0 1.258246 
0.04165152 0.505547 0.09487827 
-0.9721044 0 0.94077 
-2.537168 0 0.8045182 
2.350944 0 2.211121 
-1.975432 0 2.90938 
-2.245939 0 -1.464849 
-0.379968 0 1.196664 
1.661808 0 -1.268386 
-0.3266212 0 -2.162827 
2.048722 0 -2.927236 
0.3923182 0.3646648 -0.02827933 
-1.023932 0 -2.195738 
-1.596937 0 -0.6965974 
1.956836 0 -1.261454 
-0.6268873 0.06372437 -0.033165 
-0.7919527 0 0.8573825 
-1.269017 0 -1.988398 
0.4021211 0 1.813569 
-0.6384529 0 1.063138 
2.634104 0 -0.7093456 
-2.216357 0 0.6563416 
0.6572726 0 -2.021307 
-0.4411991 0 -1.322672 
1.93088 0 -1.542933 
-0.5374699 0.1820346 0.1692866 
0.1182269 0 2.790061 
1.160758 0 0.1478153 
1.058468 0 1.6727 
-2.726442 0 -2.286042 
0.9383785 0 0.8267269 
-1.816629 0 -0.7648591 
-0.8600966 0 -2.036927 
-2.249133 0 0.02728566 
0.193475 0.2446966 -0.3730296 
-2.241833 0 1.188104 
2.670796 0 -0.7768032 
2.540453 0 -1.690901 
-2.193058 0 -0.8089815 
-0.8449607 0 -2.034594 
0.1131565 0.3285411 -0.3125339 
-2.743999 0 -0.4987865 
-1.722955 0 -2.962474 
-2.969553 0 0.9642212 
2.528137 0 -0.9317368 
2.739213 0 -2.736755 
1.942041 0 0.6935984 
1.115379 0 2.446359 
-1.159397 0 -0.7236435 
0.3483154 0.3883954 0.2648431 
-2.076174 0 -2.249987 
-1.645494 0 2.778334 
2.875445 0 -1.333201 
2.144778 0 0.5767571 
1.321058 0 -0.3424682 
0.577609 0 1.460023 
-0.7887825 0 1.8583 
0.5110819 0.01095623 0.7325886 
1.017287 0 -0.7641115 
-0.4486615 0.09040515 0.5735822 
0.4156685 0 1.056887 
0.1115285 0.4679818 -0.07927715 
2.7858 0 1.907851 
-1.013421 0 -1.492672 
-0.2562439 0 -2.462374 
-0.5570148 0.000442693 0.935787 
-0.5583004 0.09164344 0.4144339 
0.3380382 0.4171813 0.1628877 
-0.7364489 0.0002224231 0.8442365 
-1.622557 0 -1.841665 
2.181598 0 -2.887889 
2.529507 0 -0.4331877 
0.7966752 0 2.333191 
-2.026459 0 1.362972 
1.633638 0 2.153278 
-2.715585 0 -2.919579 
-1.670543 0 2.774593 
0.7356561 0 2.005067 
-1.045318 0 -1.712215 
-1.271578 0 2.000196 
0.1095072 0 -1.493218 
1.552163 0 0.3439937 
-1.250114 0 -1.89667 
0.8515784 0 1.486866 
1.764188 0 2.093425 
-0.9510829 0 1.057889 
2.311511 0 0.3137435 
-1.936992 0 0.3284895 
2.243351 0 1.118494 
1.038702 0 -1.971386 
0.8835084 7.343403e-06 0.4322734 
0.1591575 0.439281 -0.1232366 
1.786262 0 1.161239 
2.436251 0 2.668771 
0.5341676 0 1.70405 
0.9609936 0 -0.7448561 
0.650412 0 1.020995 
-2.766832 0 -2.817685 
-0.2449965 0 -2.987178 
1.068167 0 0.428237 
0.002249107 0 1.450687 
1.334998 0 -0.3381001 
-1.051285 0 1.453451 
-2.407529 0 2.296664 
-0.8799725 0 -0.6099728 
-1.294085 0 2.775847 
0.5338636 0 2.707603 
-2.008649 0 -1.66112 
0.04137804 0 -1.060008 
2.533257 0 0.361959 
-2.067367 0 -2.082424 
-2.085928 0 2.929072 
0.808791 0 2.703592 
-2.350384 0 -2.345299 
1.409044 0 0.3664285 
0.6342931 0.00386301 -0.5178761 
1.890971 0 -0.7373271 
1.648629 0 -2.204161 
0.1115322 0 -1.763338 
0.385731 0 1.371751 
-2.587799 0 1.724532 
0.8431873 0 2.503381 
0.3132878 0 -2.157165 
2.84926 0 0.19149 
-2.900604 0 0.6071925 
-1.461473 0 -1.156572 
-1.833732 0 -0.07649396 
2.737565 0 -1.397616 
1.9382 0 2.720654 
-2.041875 0 2.401136 
2.617028 0 2.54569 
2.169933 0 -0.1660073 
2.83897 0 2.843426 
1.244344 0 0.2580222 
-1.873406 0 -1.19883 
1.765542 0 -2.871877 
-0.8468206 0 -0.9165254 
-2.591738 0 -1.328373 
-1.766048 0 -1.78134 
-2.711625 0 1.908905 
-1.043072 0 -1.126745 
0.1872284 0.3878891 0.4337575 
-1.154277 0 1.641481 
1.63688 0 -2.027214 
-0.9467992 0 -1.174228 
1.375061 0 -2.307042 
0.1162069 0 -2.103295 
-1.389252 0 1.526513 
0.09866755 0 2.022197 
1.154176 0 -1.117487 
-1.261913 0 0.5903198 
2.081111 0 2.49673 
2.957562 0 1.036322 
-1.566025 0 0.2614766 
0.4963759 0 -1.889111 
0.4591979 0 2.946462 
-0.8751731 0 2.496527 
0.462504 0 2.915719 
-0.122407 0 -1.151444 
-1.923623 0 2.577442 
-2.417986 0 1.758386 
1.883407 0 -1.921422 
-1.21087 0 0.7872954 
-1.163535 0 -1.675736 
-0.3098261 0 2.583772 
0.4143786 0.0126207 0.793698 
2.394394 0 1.480357 
-0.07444024 0 2.651864 
-2.187802 0 2.358134 
-2.92714 0 -1.241631 
0.5523458 0 1.145716 
-0.3109094 0 -1.986193 
0.2201911 0 -1.371913 
-0.878176 0 1.646687 
1.694638 0 1.918498 
2.24464 0 1.78486 
2.370602 0 0.06460588 
2.769741 0 -0.9960977 
0.7076094 0 -1.129611 
-0.6022335 0 -2.257665 
1.736921 0 -0.2807789 
1.56681 0 1.49145 
2.080773 0 0.5848349 
1.609492 0 0.4851198 
-2.175572 0 0.3803511 
1.774082 0 -0.2263794 
-2.072943 0 0.3401353 
0.01223927 0 2.624587 
0.6890013 0 -1.872945 
-2.721395 0 -2.054015 
-0.7180905 0 -1.977225 
-1.907774 0 1.723346 
0.6765696 0 -2.706616 
-2.855375 0 2.731413 
-2.619256 0 1.376474 
0.2744645 0 -1.256923 
-1.130598 0 -0.6926901 
-0.04852343 0 -2.177148 
2.781782 0 1.063089 
2.788987 0 2.895844 
0.9936862 0 -0.5705689 
2.628963 0 -0.3553551 
-1.033097 0 1.766249 
-0.7045431 0 -2.564109 
1.640169 0 2.780135 
1.516577 0 2.247597 
2.716192 0 1.994111 
0.160217 0.06333157 -0.5551918 
2.543015 0 0.6567841 
-2.879196 0 -1.038963 
-2.362375 0 -2.973087 
0.2107617 0.4737679 0.1975093 
0.8271511 0.001020309 -0.3020338 
-0.5142077 0 -2.020223 
-2.334006 0 2.838427 
2.163155 0 -2.976579 
-2.512646 0 2.182048 
-0.09893928 0 1.951076 
1.191872 0 -0.3803712 
0.9190155 0 2.274164 
0.4966139 0 1.012331 
-1.929381 0 0.3052711 
2.923376 0 -1.237865 
2.234409 0 -0.9957153 
2.849216 0 -2.213455 
-2.006076 0 0.355361 
0.5053988 0 2.719008 
2.024003 0 -1.633491 
-0.01451583 0 -2.365858 
2.267771 0 0.03351253 
0.646506 0 2.467019 
1.863438 0 2.046876 
1.877193 0 -2.061988 
-1.035071 0 -0.8348998 
1.696878 0 1.93865 
1.148461 0 1.484181 
-1.732507 0 -1.177488 
2.67984 0 -0.390759 
1.524693 0 -1.79542 
-1.124445 0 0.4201455 
-0.5508214 0 2.532446 
-2.588972 0 -2.289085 
1.655321 0 -1.418929 
2.461524 0 0.01679363 
2.502264 0 -0.7373915 
-2.947365 0 -0.4362909 
1.324008 0 -0.5646002 
-2.311398 0 -1.118665 
-2.897838 0 2.983377 
-0.9437064 0 -1.082124 
1.210948 0 -1.512517 
-0.4073485 0 2.519206 
-1.575543 0 0.2872648 
-2.595805 0 -1.687249 
1.162694 0 -0.4284489 
2.02634 0 -0.631375 
0.5336929 0 1.382162 
-0.1220121 0.1857068 -0.4236891 
-2.065165 0 2.391493 
0.1129628 0 -1.082126 
0.8055963 0 -2.130381 
-0.2363177 0.02310682 0.8568031 
1.925294 0 0.4373724 
-2.149962 0 -0.001139765 
-2.932031 0 1.597934 
-0.429409 0 -2.425384 
-1.236923 0 2.694929 
-2.01716 0 0.4132378 
-1.779294 0 0.4464172 
-1.110301 0 1.133482 
-0.8822916 0 -0.368013 
2.767302 0 -2.870004 
1.380263 0 -2.761602 
-2.951687 0 1.659698 
2.230022 0 -1.27581 
-0.5922905 0.02300712 -0.2708611 
-0.8138908 0.0002012313 0.6429947 
-0.794045 0.005187138 0.1517593 
-0.3459936 0 -1.91848 
2.669578 0 -1.014591 
1.408325 0 -0.2655215 
2.08782 0 0.4953109 
-0.05682953 0.3554204 -0.2720447 
2.807695 0 -2.209796 
1.36868 0 -1.928674 
1.094602 0 0.8717006 
-1.88612 0 2.284842 
2.314859 0 -1.161146 
1.231867 0 0.9146711 
-0.9631057 0 1.365297 
2.900673 0 -0.05770522 
1.86996 0 0.4388541 
-2.616301 0 1.413866 
1.818716 0 -1.125556 
-0.77371 0.005383066 0.3047627 
-0.02112652 0 2.853547 
0.6959597 0 -1.842124 
1.97946 0 2.590363 
-1.244199 0 -1.525529 
0.6242774 0 -1.596213 
2.901754 0 -0.9421891 
2.298677 0 0.2404427 
2.362676 0 -0.8743392 
2.074919 0 1.097449 
-2.814933 0 0.7107664 
-0.6351802 0.005469825 -0.3169689 
-0.3307306 0.1665726 -0.3276415 
-2.060806 0 2.041894 
2.528929 0 -0.01198253 
-1.474382 0 0.4499007 
2.473677 0 -0.7793483 
-0.6251584 0.08433838 0.09904428 
-1.869435 0 2.419343 
-2.103466 0 -1.683368 
1.341808 0 2.060087 
-1.029507 0 2.649459 
-1.090104 0 2.810816 
1.379132 0 1.362889 
-0.5087153 0 1.390166 
1.914573 0 -2.328631 
0.395319 0.0001704578 0.9802669 
0.1233505 0 2.020554 
1.019783 0 -1.630223 
1.726603 0 -2.719898 
-2.362831 0 -1.606232 
1.050223 0 2.334054 
-1.129839 0 -2.698817 
-0.69223 0 1.181012 
-0.646083 0 2.32569 
1.537305 0 2.64476 
-1.254307 0 -1.071013 
0.0770315 0.3309404 0.551875 
-1.499191 0 2.782193 
0.4668861 0 -2.366042 
0.7689151 0.003428993 -0.2653373 
2.541206 0 1.410616 
2.680407 0 1.43728 
0.1300835 0 -2.389816 
-2.319916 0 1.025037 
-1.076193 0 1.888434 
1.184757 0 2.139063 
1.447967 0 -1.171376 
0.1384268 0.4513326 -0.1052657 
1.94125 0 2.229036 
-1.30332 0 0.9553742 
2.36489 0 1.004934 
-0.005458548 0 -1.211921 
-0.9547416 0 1.190918 
0.2942724 0.3878329 -0.1370363 
1.445005 0 -0.3088869 
1.580048 0 2.987293 
-2.932445 0 1.186538 
1.855128 0 1.626467 
1.635599 0 0.3685549 
-2.772924 0 -2.373531 
2.409891 0 1.146189 
-1.143273 0 0.3349903 
-1.798233 0 -2.160589 
2.859685 0 -1.531793 
2.543787 0 2.052787 
2.16913 0 0.9594196 
-2.072863 0 -0.4307761 
0.2378926 0 1.428879 
-0.01174058 0 1.470509 
-1.899364 0 0.3278198 
-2.831912 0 0.2689815 
-1.306136 0 -1.322872 
-1.108643 0 -0.5654284 
-2.051309 0 -1.082894 
1.061469 0 1.522309 
1.439436 0 1.685507 
2.566745 0 -1.941862 
1.638975 0 -1.828422 
1.739865 0 0.1490614 
-2.534794 0 1.483915 
1.541327 0 0.1560533 
0.1090042 0 1.297263 
1.730903 0 2.818621 
1.261584 0 0.5348868 
-1.156638 0 0.1077036 
-1.568225 0 1.62034 
-1.245559 0 1.047359 
2.395715 0 -0.8825312 
0.5634782 0.004769773 -0.5335113 
2.814973 0 0.2678157 
1.866075 0 -2.096957 
2.5587 0 -1.294647 
-0.1544968 0 2.789682 
-1.658757 0 1.525739 
1.804525 0 0.3007606 
1.491595 0 -0.7881859 
2.014713 0 -0.5711185 
1.06877 0 0.8641791 
0.3910073 0.1799645 0.5453056 
-2.616761 0 -1.395998 
1.567922 0 1.751662 
0.2459688 0 2.039832 
2.66055 0 -1.0809 
-2.394085 0 -0.1295941 
-1.366978 0 -0.4561975 
1.218889 0 0.1236571 
2.831313 0 2.636953 
0.2468356 0 1.459106 
0.1079983 0 2.518804 
2.71689 0 -0.3527336 
2.243045 0 -2.242472 
1.091967 0 -1.919257 
-2.213324 0 -1.896449 
0.1052683 0.05059519 -0.57963 
-0.3992389 0.1846887 -0.2464914 
2.081906 0 -1.542439 
-1.181373 0 2.771574 
1.980919 0 1.075621 
1.721639 0 0.9985279 
1.489299 0 -2.011511 
-1.625145 0 0.06070285 
-0.8975155 0 -1.411252 
2.790647 0 -0.5586116 
0.605286 0 2.142515 
2.118659 0 -0.5766923 
0.4550672 0 -2.224742 
2.915837 0 1.724224 
-1.345128 0 -1.499164 
1.292901 0 1.708977 
2.99764 0 -0.1316427 
2.367939 0 2.623678 
-2.718192 0 -0.4604074 
2.966943 0 -0.4820765 
2.216605 0 -1.514524 
2.387513 0 -1.588778 
0.0996283 0 -1.08768 
-2.526965 0 -1.233492 
-2.131541 0 -0.2447434 
0.3336564 0 2.054349 
1.618105 0 -1.270602 
0.9978006 0 2.002743 
0.736377 2.263917e-05 0.7624902 
2.676982 0 -2.848723 
0.3187742 0.06201072 0.7350953 
1.090858 0 -2.590555 
2.426223 0 -1.831043 
2.340208 0 1.902329 
1.573313 0 -2.188572 
-2.311553 0 2.918932 
-1.999147 0 -0.9151557 
0.8249956 0 -0.5371955 
0.5647377 0 1.70296 
-1.469393 0 -2.074128 
2.255337 0 2.267525 
1.485719 0 2.46761 
2.256303 0 1.416254 
-2.347244 0 2.997478 
-0.8397013 0.00234395 0.1493768 
-2.864529 0 -0.8453295 
2.4911 0 -1.822948 
0.6887016 0.01189569 0.5075892 
0.1082483 0 2.199417 
0.4166729 0 -2.69904 
-1.182538 0 -1.438284 
-2.951678 0 -2.049948 
1.546126 0 -2.417624 
-2.413391 0 -1.063544 
-2.558075 0 2.034442 
0.3182073 0.2814695 0.4918856 
0.3199525 0.1282602 0.651445 
2.255233 0 1.582095 
-2.38592 0 1.621109 
-0.2057691 0 1.348063 
-0.2322893 0.3220973 0.4714568 
-0.329412 0 -2.09805 
0.6540114 0 -2.019113 
1.461685 0 1.175671 
0.3176386 0 -2.049523 
-0.4142222 0.001572051 -0.6283215 
2.751306 0 2.631247 
-0.7689777 0.003305733 0.4055408 
0.934376 0 0.5970563 
1.93084 0 -2.690989 
-2.818971 0 1.262227 
0.8191445 0.007992018 -0.09234896 
2.422882 0 -2.701869 
2.250489 0 -0.06051266 
-1.025181 0 0.6376159 
-1.959122 0 0.1677997 
-2.286097 0 1.777276 
0.3648329 0 -1.866217 
-0.095971 0 1.584355 
2.077293 0 -1.947759 
-0.8053915 0 -1.055415 
0.1785585 0.3434337 0.4975972 
1.094992 0 1.753526 
0.182778 0 2.793396 
1.711007 0 -0.2691036 
-0.517446 0.2048809 0.1592509 
1.830275 0 -2.22159 
0.756367 2.644138e-05 0.6710538 
-0.7318615 0.004609514 0.5311583 
-0.9616321 0 1.699625 
2.393161 0 -0.9249481 
2.668103 0 -0.2061724 
-2.894022 0 -0.02279747 
1.667121 0 2.322783 
-1.092065 0 -0.2043343 
-1.311111 0 -0.4714593 
2.094099 0 0.8649706 
1.623261 0 -0.6789216 
2.346154 0 2.033589 
-1.195587 0 -2.549464 
0.6261393 0 -2.880421 
0.3917123 0.0004320239 0.9499867 
0.4102851 1.882402e-05 -0.847235 
1.129652 0 2.493438 
-2.79622 0 -0.4322025 
-0.3410261 0.09142612 -0.4071869 
-0.2825516 0.32758 -0.186488 
0.9189628 0 -1.95251 
0.4225267 0 -2.543399 
1.37762 0 -0.7023859 
0.4928988 0 -1.320848 
-2.350076 0 -2.543942 
-2.362107 0 1.090448 
-2.191047 0 -1.068829 
1.875082 0 -0.5723343 
1.934051 0 -0.6144594 
0.7365763 0 -1.66903 
-0.06653217 0 -1.51119 
1.383341 0 2.747232 
0.100863 0 -1.621436 
2.061652 0 -2.923491 
-2.913095 0 -2.373383 
-0.8793138 0.0001550466 0.3982456 
-0.8100692 0 1.361934 
-0.279893 0 1.156896 
2.448489 0 -0.1924087 
2.725633 0 -2.270415 
2.362735 0 -0.4705472 
1.523469 0 0.9923787 
0.3057362 0 -2.505531 
0.4152158 0 -1.403616 
0.06950672 0.2232503 0.6528202 
0.4000895 0.01038103 -0.618741 
-1.003775 0 -2.547446 
-2.029875 0 2.120825 
0.3314824 0 -1.948508 
-1.229672 0 1.604825 
-2.79099 0 -1.917318 
1.054387 0 -2.311031 
0.5012591 0 -1.338203 
-2.141322 0 1.577057 
0.5434723 0 -1.478848 
0.9253566 0 1.435735 
-2.233023 0 2.033988 
0.1873414 0 -2.551252 
-1.685332 0 -0.2860034 
-1.575903 0 -2.21551 
2.094168 0 -0.05866211 
-1.148971 0 1.847269 
0.8744663 0.001103472 -0.1197419 
-0.8031046 0 -0.6159796 
0.9639597 0 2.280287 
-1.688492 0 -0.01624745 
-2.908783 0 2.878152 
-2.081338 0 -2.738707 
-2.332422 0 -0.1214806 
2.031934 0 0.3982649 
-1.288454 0 1.141928 
-0.1244849 0 2.925565 
-0.5023842 0 -0.7055214 
-1.251237 0 -2.719791 
2.407023 0 -0.7327583 
-1.775667 0 1.616225 
2.555913 0 -1.291846 
0.9599063 0 -0.4343964 
2.737247 0 -0.5609117 
2.745101 0 -2.950974 
2.628013 0 1.952155 
-1.905953 0 -2.993638 
0.5297292 0.01703803 0.6812247 
-0.6630763 0 -1.850349 
1.7777 0 0.9409764 
-0.6881399 0 1.483208 
1.794307 0 1.707648 
2.600099 0 2.669237 
-2.4621 0 -2.468734 
-2.157393 0 2.857929 
2.442408 0 -1.795139 
1.267954 0 2.602886 
0.8110254 0 -0.703108 
-0.9400189 0 2.340547 
2.834463 0 -0.7400252 
-0.6497711 0 -0.7750745 
-1.313762 0 -1.110188 
-1.974457 0 0.04260308 
-1.179491 0 0.3757466 
2.893162 0 -0.03773681 
-0.6355072 0 1.493763 
2.132557 0 -2.44944 
-2.513836 0 -0.2619092 
2.49615 0 2.077199 
-2.14122 0 1.9411 
2.157067 0 -2.711938 
0.3509637 0.2416134 0.5162984 
-0.406794 0 -2.74007 
2.406476 0 -2.662468 
-1.33338 0 -1.586042 
1.751199 0 0.3567867 
0.0749765 0 1.68 
0.02471799 0.1870706 0.6824248 
-2.273698 0 2.136611 
0.4834044 0.2210262 -0.1675439 
0.3193469 0 -2.326159 
-0.05736319 0 -2.767438 
2.588446 0 -1.707279 
1.040754 0 -2.168822 
2.415856 0 -1.950377 
-1.337788 0 0.3023247 
-2.090278 0 -2.303428 
-2.568417 0 0.7071892 
2.219627 0 0.8913807 
1.358654 0 1.638435 
0.5848037 0.1128303 -0.1744119 
1.896388 0 1.095356 
1.720434 0 2.779706 
1.83602 0 -0.1463609 
-1.586339 0 0.5058166 
2.40844 0 0.001809331 
-1.641821 0 0.76994 
0.6053625 0 2.072337 
-0.394855 0.0002062312 -0.6883341 
-0.734356 0 1.78322 
1.619544 0 2.945431 
-1.092334 0 -0.07767599 
0.9743118 0 2.864309 
1.939371 0 -2.508645 
-1.046062 0 0.8260061 
2.216074 0 -0.8094951 
-0.09874532 0 2.959131 
1.306508 0 -2.463197 
-1.425901 0 1.139628 
2.859589 0 -2.482472 
0.934141 1.468646e-06 -0.290442 
-2.09121 0 1.432231 
2.156696 0 0.2331944 
2.405795 0 0.4408267 
-2.41603 0 0.8055211 
-0.6337956 0 -0.694674 
0.4286636 0 -1.918577 
2.191964 0 1.9159 
0.2599072 0.4358913 -0.05824088 
-2.937075 0 -0.4408002 
-1.670593 0 2.683219 
-1.787258 0 1.119034 
-2.228554 0 -1.58712 
2.162148 0 2.359832 
-1.576679 0 2.207115 
-0.5190089 0 1.888641 
2.047997 0 -1.399643 
-1.476647 0 -0.05048998 
-1.753106 0 2.043313 
-1.47378 0 0.5801436 
-1.431133 0 2.995542 
-0.5329953 0 1.449195 
-1.806617 0 0.08975609 
0.3002498 0 -2.814788 
-0.3856833 0 1.282478 
-1.814664 0 -0.2415435 
2.949009 0 -0.02337067 
1.369085 0 1.109359 
0.4297258 0 1.416352 
1.062485 0 2.513335 
1.785922 0 1.407207 
-1.847409 0 -0.2479223 
-0.4793324 0.00797053 0.823025 
-2.133777 0 -0.2198298 
2.673943 0 -2.245909 
1.544039 0 -0.3436555 
1.720887 0 -0.8906747 
0.4255103 0 2.536156 
-1.727811 0 -2.828496 
0.1908848 0.1407222 -0.4674112 
1.362699 0 1.48459 
1.582651 0 1.692591 
0.1845642 0 2.025307 
-1.991493 0 -0.9806166 
-2.729025 0 -0.8490336 
1.644233 0 1.708484 
0.6114439 0.1392453 -0.02242599 
0.5616507 0.01811448 0.6405048 
2.695636 0 2.519564 
0.1341185 0 1.830727 
-0.2967986 0 2.56692 
-0.7359199 0 2.096824 
0.7541597 0 2.20021 
2.013157 0 -1.083887 
-2.639883 0 -2.35789 
1.936797 0 1.588075 
1.047905 0 -2.106364 
-2.536222 0 -0.6163852 
1.211488 0 0.2029597 
-0.5206361 0.146805 0.3680853 
-1.769571 0 -2.821909 
2.53037 0 2.493336 
0.6015188 0.1663583 0.1758641 
2.088293 0 -0.3636439 
-1.219044 0 2.667536 
0.06186382 0.5076987 0.03743021 
-1.633448 0 -2.99812 
1.048333 0 -2.386227 
-2.205367 0 -0.6711498 
-0.1856764 0 -2.417682 
-2.990177 0 -1.6024 
-1.390368 0 -1.535646 
-0.2142227 0 1.81276 
2.185087 0 -0.1226271 
-2.933814 0 0.1095679 
1.444606 0 -0.4668132 
0.6634323 0 1.131773 
-0.2577011 0.2159085 -0.3341329 
0.3544202 0 1.762426 
-1.625979 0 2.4017 
-1.54999 0 -1.030318 
2.402537 0 2.321549 
1.016283 0 -2.973985 
1.234612 0 -1.573272 
2.301411 0 0.3136703 
-2.178059 0 0.8360118 
-0.05653727 0 1.840725 
0.8593259 0 1.716722 
2.703792 0 -0.7497032 
1.334672 0 -2.92672 
0.7918937 0 1.374211 
0.08581834 0.1198054 0.7386436 
2.222657 0 1.711319 
0.4604622 0 1.708177 
-0.4022439 0.322899 0.02653372 
-0.5192755 0 -1.011334 
2.734444 0 -1.276659 
2.67532 0 -1.510078 
0.06301112 0 -0.9518487 
2.219166 0 -2.793758 
2.835792 0 1.400551 
1.862929 0 1.7676 
-2.162338 0 0.8162628 
-2.425227 0 2.840875 
1.700038 0 2.958011 
0.4527537 0 2.72561 
-0.4455063 0 2.992333 
-0.4583926 0 -2.499227 
-2.302529 0 2.86158 
-1.694625 0 -1.440722 
-0.5126325 0 1.864554 
-2.639291 0 0.5183601 
1.130027 0 2.63838 
1.99326 0 1.215966 
2.064689 0 2.34068 
0.2113103 0 2.017298 
2.926189 0 -1.829545 
1.719125 0 -1.554584 
0.3265205 0.3686646 0.3541203 
1.788801 0 0.7588749 
-1.790212 0 -1.998827 
0.8529814 0 -1.057606 
2.650253 0 0.04754868 
1.437163 0 -1.184452 
2.964828 0 2.42019 
-1.580317 0 0.03756062 
-1.758447 0 1.602111 
1.84875 0 1.433798 
-1.807011 0 0.08102614 
-2.953111 0 0.3999011 
1.247066 0 1.014953 
0.1578813 0 1.71033 
-0.1489409 0 -1.947789 
1.222335 0 0.196311 
0.7688041 0 -0.7987053 
1.487581 0 1.818483 
2.866346 0 -0.2377725 
0.7163856 0 -2.168504 
1.683637 0 2.87913 
1.63114 0 -1.150225 
-0.07286382 0.4546177 -0.09503508 
0.3031191 0 -2.235002 
-0.4009334 0 -1.556769 
-2.936879 0 1.52837 
2.588281 0 0.8562218 
-1.041873 0 -2.521345 
1.332835 0 -1.574831 
-0.6016771 0 2.376194 
2.746149 0 -2.957481 
0.9805113 0 0.8302276 
2.227446 0 0.9374092 
-1.942047 0 1.493318 
-1.07252 0 0.9106805 
-1.423137 0 1.841922 
-0.7375081 0 -1.608937 
1.194131 0 -2.331856 
2.662384 0 -2.187017 
1.658905 0 2.247968 
0.911016 0 1.565689 
-2.739781 0 2.23758 
-0.4178284 0.2758328 0.3148313 
1.541567 0 -2.702983 
-2.256577 0 2.179243 
-0.4669259 0 2.657496 
-1.210203 0 -0.0923078 
-0.6592777 0 1.702392 
-1.857124 0 -1.028485 
-1.071227 0 -0.4610269 
-0.1537027 0.280293 -0.324922 
1.995464 0 -2.161119 
-2.475057 0 1.97665 
1.859489 0 -1.824564 
-0.2324771 0 -2.1293 
2.560739 0 2.702675 
-1.883028 0 1.110389 
2.802136 0 0.9793529 
2.158303 0 -2.271198 
0.8124279 0 1.260563 
1.89804 0 -1.365873 
2.510006 0 0.9982525 
1.60667 0 2.961881 
-0.2924263 0 -1.761339 
0.5364345 0 2.551943 
0.827508 0 -2.424749 
-2.127396 0 -2.095 
-0.3000085 0 1.974145 
2.648795 0 2.713274 
0.5998403 0 1.370307 
-2.984398 0 -1.643475 
0.2851735 0 2.27386 
2.512405 0 1.115478 
1.945509 0 1.912877 
1.406539 0 -1.444638 
2.20183 0 0.7251118 
0.8375911 0 -1.055985 
2.389191 0 -1.209663 
2.760054 0 2.307826 
-0.2262389 0 -2.616699 
-1.370422 0 2.013881 
-0.6281455 0 -2.25453 
-1.338183 0 -0.1243529 
-2.391374 0 -2.682688 
1.634947 0 -2.054767 
-1.443555 0 2.984094 
-0.3579805 0.3354751 0.2879225 
-0.1957398 0 1.908496 
0.3723263 0.001096033 0.9138635 
-0.5473078 0 1.76788 
-2.86991 0 2.033662 
1.610913 0 1.34478 
-2.963311 0 0.6431687 
-0.6803883 0 2.782115 
0.715299 0 -2.523258 
-1.645936 0 -0.8719865 
-1.174047 0 -2.844229 
2.388659 0 -0.7492818 
-1.56681 0 0.8133094 
1.175647 0 -0.6176211 
-0.8705542 0 2.266877 
-2.680393 0 0.489893 
-1.635223 0 2.812204 
1.873117 0 -2.403404 
-0.3382315 0 -1.030455 
-1.820798 0 -2.586868 
2.570197 0 2.993271 
-2.703951 0 -0.4825163 
-0.5213721 0 2.857175 
-0.5839677 0 -1.014515 
1.875648 0 2.885124 
2.306384 0 -0.8185772 
-0.9858614 0 -0.3272745 
0.3306077 0 1.455886 
-0.2531092 0 1.727869 
-2.878314 0 1.920392 
1.39468 0 1.320213 
1.446597 0 1.299232 
-0.8433236 0 1.88323 
1.217444 0 2.361336 
2.455448 0 -2.577113 
2.206359 0 -0.1284347 
0.7501778 0.0001842643 0.6563992 
-0.309545 0.05836322 -0.472945 
0.5431067 0 1.700203 
1.129181 0 -2.224238 
2.7565 0 -1.776637 
0.8542691 0 -0.7095354 
0.1523613 0 -1.950583 
0.01554656 0.1790425 0.6890026 
-2.087907 0 -0.7941921 
2.556559 0 -0.6023566 
2.162689 0 -2.987378 
-1.605104 0 -1.080577 
-2.981089 0 -2.497843 
2.844017 0 0.5040979 
0.3223129 0 2.672531 
0.3916734 0 -2.812112 
-1.645877 0 0.4315045 
-0.1333286 0 -2.45278 
-2.912505 0 1.026513 
-1.283767 0 -2.491481 
-0.9166383 0 1.878289 
-0.7416725 0 -0.5260108 
2.484918 0 0.5950084 
-2.423489 0 -1.470022 
0.5819592 0 -1.861529 
2.96055 0 -2.780676 
-0.8780145 0 -1.975539 
0.1943873 0 2.393568 
-0.6594788 0.01040487 -0.2334774 
2.251109 0 1.152394 
-0.292652 0 -2.463932 
2.424571 0 -2.373307 
0.6978192 0 1.236018 
-1.113632 0 -1.8604 
-2.512264 0 -2.897895 
-0.7893664 0 -1.455024 
2.611387 0 -1.969796 
-0.2926077 0 -2.472506 
1.389291 0 -1.099758 
2.667449 0 0.6449406 
-2.700668 0 -1.00681 
2.967894 0 -0.5830406 
1.285416 0 -2.940529 
-1.778879 0 1.5655 
-1.921501 0 -0.3283244 
1.28359 0 -0.2800905 
-0.3916569 0 -2.677082 
0.02414801 0.1700159 -0.4597687 
2.739614 0 1.835861 
0.5200782 0 1.840325 
1.359085 0 -1.035889 
1.055843 0 1.424536 
0.2620824 0 2.116701 
-0.6340535 0.07755661 0.1307998 
-1.88886 0 1.269063 
-2.296041 0 -1.333035 
0.7648236 0 -1.897641 
-0.4479331 0 2.23394 
2.874614 0 -2.305186 
0.9738501 0 0.6711007 
-1.80945 0 -0.2434444 
2.681794 0 0.2912773 
1.944813 0 0.3913937 
-0.1566778 0 -1.839679 
2.557986 0 0.003754901 
1.973398 0 1.566305 
-0.8083562 0 1.39634 
-2.520665 0 -2.964074 
-0.2828716 0 2.138574 
1.105315 0 2.338686 
2.517492 0 -1.533016 
-1.658546 0 -1.921287 
-1.821379 0 -0.5870324 
2.070582 0 2.719601 
0.6097011 0 -1.5719 
-0.9854584 0 -2.295655 
1.574531 0 -0.9764155 
-1.492216 0 1.801334 
-1.107715 0 1.20263 
0.07872675 0.5090496 0.04876834 
-1.675155 0 -2.686699 
-2.200495 0 0.2426011 
-0.6058378 0 2.073941 
-0.1679487 0 2.001761 
1.605389 0 -0.4456038 
2.316847 0 -2.862752 
-0.1574137 0.04053689 -0.5682048 
0.3205439 0 2.494941 
-1.445071 0 0.5769147 
1.104663 0 0.7019083 
-1.986122 0 0.01674775 
0.3581971 0 1.377242 
-2.119998 0 -1.371849 
2.511682 0 1.339437 
1.093481 0 1.706005 
2.543758 0 2.536106 
2.244747 0 2.639669 
0.6485153 0 1.479346 
1.274827 0 2.900981 
-0.6723374 0.002859216 -0.3259906 
-1.355452 0 -1.799564 
0.4402092 0 -1.833529 
2.266907 0 -2.257773 
-2.882065 0 -1.761814 
1.455542 0 -0.9709716 
-0.7017971 0 2.56213 
1.852246 0 -1.64073 
2.188793 0 -2.2226 
0.8334451 0 -2.788957 
-1.512645 0 2.18878 
-1.850912 0 -0.9820238 
-2.87351 0 -0.5752795 
0.3670919 0 1.481942 
1.403891 0 -0.583038 
1.800202 0 1.656728 
-1.559461 0 -1.278484 
-0.03659875 0.004488153 -0.7375161 
-0.2180237 0.009299536 0.9189596 
-2.561608 0 -0.7988945 
-1.96227 0 -2.231566 
-1.725617 0 -0.5514454 
-1.214136 0 -0.5827177 
1.648914 0 -2.729238 
1.605576 0 -2.522695 
0.9707263 0 1.932581 
-2.79832 0 -1.460365 
-1.785714 0 1.785052 
2.690402 0 2.165699 
2.422537 0 -0.5252398 
-0.1225261 0.444524 -0.1076632 
-0.3193867 0 -2.231664 
-2.613817 0 2.596242 
-0.9829968 0 2.149409 
-0.7683893 0 -0.3673405 
-2.764418 0 -2.423063 
0.04130902 0 -2.059939 
2.164179 0 0.7503467 
-0.6298282 0 2.829424 
2.301722 0 -1.933492 
1.432928 0 -0.9505411 
1.277354 0 -1.372803 
