ply
format ascii 1.0
comment VCGLIB generated
element vertex 1663
property float x
property float y
property float z
element face 0
property list uchar int vertex_indices
end_header
-5.74706 -26.96118 5.298613 
-37.70436 -12.5881 5.76541 
-6.684017 -5.958963 5.834701 
31.28898 -17.04059 4.791026 
-34.02518 -41.97327 6.153712 
-19.1194 25.2078 8.057103 
32.03266 32.57544 6.113163 
-35.49231 -37.36264 6.373497 
5.205762 1.397659 5.486804 
-1.005292 -16.45023 5.117543 
0.1880177 -33.82579 5.23146 
-4.103033 26.97606 7.311236 
-42.78193 -44.39341 5.548998 
-13.46978 9.179178 7.518514 
29.41026 8.488211 5.479959 
-1.712417 -37.73701 5.163962 
-10.01403 34.91261 7.545959 
-13.32394 -16.17385 5.277488 
-5.503012 -48.256 4.479722 
9.776153 -8.914778 5.102875 
-7.112638 40.45492 7.138167 
38.0478 -6.730864 5.030872 
42.48582 -1.237314 4.974521 
-30.67266 15.94694 8.116331 
-38.50834 -41.49698 6.115982 
17.56167 -47.9709 3.407315 
-13.36531 -25.00545 5.201375 
43.2877 27.39389 5.75409 
30.20535 -7.053977 5.177147 
42.45242 -12.25183 4.274203 
35.29729 30.08017 6.234421 
-36.05346 -47.8298 5.259464 
-8.509178 -20.28725 5.131788 
-12.30968 -22.29177 5.140292 
5.727464 -36.34311 4.81711 
12.33584 -36.47253 4.508493 
-1.14092 32.63953 6.891834 
39.67708 -24.62632 3.671775 
-35.12105 -2.829804 7.269003 
36.22527 36.08791 6.210188 
29.56932 -25.07764 4.417487 
3.841618 -16.87741 5.065715 
-3.327476 19.98543 7.233656 
-30.01838 -40.4028 6.289993 
-5.140839 -36.30311 5.439257 
-24.59692 41.02902 7.798562 
-46.82341 -4.103786 6.484452 
-42.58158 -22.42696 5.129458 
-31.22241 -34.30748 6.111985 
-31.77451 -36.94894 6.311666 
15.66278 -6.99834 5.080216 
9.100519 -21.76514 5.02514 
-22.25328 16.23208 7.978179 
13.64555 -44.79964 3.884851 
29.37177 -35.17035 3.699093 
-31.36789 0.6090857 7.536318 
-40.68432 -41.20459 6.072864 
-28.97536 19.64497 8.100397 
11.32992 -46.99577 3.821189 
35.04269 -52.11495 2.251269 
-1.520145 -10.51418 5.237247 
-33.40828 39.44991 7.880701 
-1.417591 -34.50427 5.294889 
28.5969 8.787679 5.445988 
45.47204 -6.411662 4.31722 
48.1239 -50.85048 1.818784 
-41.51176 -22.13253 5.11952 
-33.52145 -49.16935 5.092596 
19.31986 -24.06803 4.767839 
-43.94881 -9.756722 5.851624 
21.39879 21.95041 5.310981 
47.3797 -2.236662 4.328915 
14.17256 -45.91244 3.765496 
48.08302 38.89762 4.716679 
29.77926 0.1135736 5.337893 
-45.99218 -21.44744 5.114682 
-4.868211 -20.92721 5.128652 
15.15979 -26.68029 4.712202 
41.96584 -51.56596 2.007107 
22.19111 25.80742 5.352335 
8.709757 5.84889 5.435063 
-9.418867 9.036646 7.364893 
-42.29287 12.75726 7.851582 
4.732289 5.408296 5.708389 
5.374558 13.59176 5.996504 
35.74283 -3.628758 5.293705 
13.48549 -47.29922 3.684816 
34.74978 -25.30574 4.043941 
-36.7237 2.858959 7.617918 
-7.591343 -15.92972 5.194102 
23.7477 -41.03035 3.611485 
-42.56368 3.546319 7.555691 
-24.51052 30.69683 8.096065 
3.507164 -16.36268 5.064358 
19.5212 -48.66227 3.241935 
35.54994 -28.05452 3.772778 
-39.27096 22.00776 8.058985 
45.89518 44.17741 4.766922 
-19.80074 -41.59682 5.925343 
4.581206 12.87001 6.067026 
31.98085 -41.22869 3.063107 
-3.880408 33.89242 7.148613 
-5.050634 8.676854 7.013072 
3.554033 38.61464 5.978592 
32.12917 20.42669 5.881114 
19.57402 42.1417 5.387995 
20.998 41.62173 5.451686 
-14.87316 -45.4157 5.251529 
-5.52484 -18.42293 5.129437 
-44.88629 12.31115 7.781427 
-34.44097 2.089302 7.602363 
14.88996 -45.82106 3.734962 
-0.04291737 -33.94782 5.239599 
-28.4392 -46.23208 5.569534 
3.501841 -34.04959 5.047585 
21.88446 -37.14266 4.028289 
-42.96659 -32.19379 6.066441 
40.54957 5.053959 5.483363 
-26.93346 -39.21169 6.293474 
-51.61716 4.692363 7.170467 
-36.55261 -25.94646 5.259955 
9.287088 -14.91235 5.029242 
3.316713 -45.23337 4.339337 
41.83834 24.13556 5.932583 
-12.36226 -42.74915 5.423816 
-38.64598 -27.25376 5.398286 
9.087271 5.230267 5.396677 
-5.473594 -32.02327 5.481874 
-17.20865 11.58404 7.709462 
5.351633 -21.55905 5.101581 
-22.00023 8.073849 7.813581 
16.84103 0.6759178 5.151489 
-3.844771 -35.33423 5.400331 
-49.75872 41.23804 7.826901 
14.42375 -5.500572 5.10237 
13.70243 -40.92648 4.176027 
-10.3581 -27.21716 5.314511 
-38.56967 39.78616 7.868767 
26.07367 -10.78734 5.039232 
-38.93098 17.52934 8.026767 
35.55664 -46.89326 2.502496 
28.95967 19.20324 5.628319 
-33.85144 11.69912 7.987993 
8.287207 4.966304 5.432306 
-4.649568 -45.36468 4.716558 
-13.73925 -50.39598 4.589243 
-23.06964 7.546802 7.812213 
-2.110533 21.73406 7.138675 
22.54097 -42.6284 3.557552 
-4.926525 -26.82595 5.289776 
-41.94227 -41.33461 6.005015 
27.77876 -41.34116 3.326701 
0.1100208 -37.84898 5.046665 
22.71126 -6.905301 5.078569 
25.55616 -22.0932 4.719754 
-47.15809 -46.02602 5.068735 
-48.01239 31.43197 7.890443 
28.10832 -5.710226 5.173394 
26.49249 -34.67088 3.934608 
7.194854 38.6254 5.616783 
-45.12981 32.83379 7.886238 
43.32228 32.50815 5.657812 
-43.19366 -23.56333 5.181073 
-37.4951 2.30537 7.581668 
-39.56161 40.02927 7.871527 
-39.22131 32.63994 7.971241 
-26.51628 -16.70208 5.433466 
-1.221847 28.84412 7.007175 
14.04661 -14.01463 5.025288 
36.11531 19.36257 6.073849 
32.12547 8.862276 5.626204 
23.45442 2.889729 5.211318 
-25.0515 -38.47408 6.256338 
1.658375 -44.33148 4.488226 
-39.44161 -20.71319 5.119697 
-2.718166 -25.40557 5.229808 
-37.33406 -3.995574 7.099034 
22.71042 10.45811 5.265806 
24.41389 -19.85268 4.815122 
16.80789 25.113 5.302164 
-0.1010776 -12.82494 5.150028 
1.158477 40.47967 6.150315 
7.471344 19.09376 5.881648 
-43.1569 0.239607 7.328152 
-43.51413 -41.66021 5.890297 
4.360711 -41.86718 4.54092 
13.75467 -21.79927 4.863465 
-24.59299 1.912387 7.565056 
47.6386 40.46479 4.711546 
10.65001 -13.24689 5.058815 
-2.870138 19.71365 7.188261 
-40.2653 -37.77345 6.334079 
-3.245112 17.86489 7.1916 
3.483339 13.02108 6.212654 
-29.88146 -10.14557 6.303994 
9.005283 -17.07322 4.959781 
15.24698 27.81072 5.331148 
-11.62824 -21.9163 5.138476 
-28.21824 8.409149 7.898769 
14.54125 35.57298 5.306544 
3.754309 14.25312 6.225642 
17.78251 -14.6531 4.980835 
-44.90495 -2.391207 6.922282 
-19.9763 -10.45142 6.070242 
-45.31257 23.22816 7.896819 
33.85618 -42.16842 2.882669 
21.30635 -1.257867 5.140953 
-22.55471 -19.47644 5.228326 
-50.26295 -15.38393 5.091039 
36.3116 -27.46374 3.753945 
-23.07564 -29.95192 5.513022 
-29.89475 -52.12932 4.674621 
-3.229585 8.749172 6.828103 
9.474171 19.41785 5.677443 
-14.42354 33.70414 7.759076 
-48.85703 33.55995 7.927684 
16.06978 -10.30943 5.04455 
-17.12636 -11.5418 5.815908 
-39.56557 -32.22743 6.022987 
-28.6508 -50.91648 4.849178 
18.98979 13.50514 5.245683 
19.83086 23.13459 5.292051 
36.92574 -11.59401 4.816904 
46.20536 32.58381 5.231544 
15.22811 -22.09046 4.858169 
-13.09089 10.93021 7.608404 
39.33626 31.20687 6.122649 
-51.54211 -13.31389 5.134019 
4.548182 38.86349 5.855515 
-37.50068 -34.68321 6.25233 
0.607906 30.04428 6.750996 
34.05467 31.10428 6.205503 
-23.9354 40.49636 7.804499 
-42.47146 -27.65868 5.519414 
-6.864496 4.083205 6.86002 
21.49932 43.46746 5.508573 
-10.44427 -51.78044 4.3165 
-29.7622 34.85311 8.020236 
-26.72687 14.85729 8.06414 
-12.05765 -23.41846 5.15856 
-9.708981 15.7451 7.595202 
17.24125 -26.11459 4.676496 
44.82899 42.00885 5.040749 
15.27304 34.05561 5.303275 
11.40919 -31.41726 4.776515 
23.52752 -1.388784 5.161526 
34.00444 10.98745 5.77057 
-33.93032 -24.56805 5.169606 
-0.422628 16.2518 6.848659 
15.73962 -12.35667 5.026019 
9.688472 -15.48926 5.019322 
-19.54269 -32.63956 5.775505 
-15.09492 32.419 7.813772 
-33.25459 38.78205 7.897383 
16.32832 26.61233 5.309064 
14.91937 -32.38483 4.605476 
-3.428077 2.086497 6.324313 
5.588674 -0.8239575 5.378715 
46.54044 -27.94104 2.898087 
-33.52551 6.720671 7.816494 
0.9322628 24.19641 6.79417 
9.704994 36.16003 5.501888 
10.59295 -0.6599544 5.146906 
-15.56617 4.210462 7.432904 
-50.46491 40.57029 7.818569 
28.00718 15.90357 5.519833 
-37.93982 -52.71426 4.489282 
-25.22395 -48.78476 5.135195 
26.2877 -0.3623458 5.227548 
-46.74235 37.81321 7.946861 
-21.34469 4.883779 7.659227 
-34.43288 33.31163 8.032754 
-46.95612 -36.60416 6.148069 
24.96295 -40.69147 3.561116 
-25.13376 4.58717 7.710154 
31.79834 33.17636 6.106312 
26.40396 -12.46189 5.003874 
38.26718 -22.79884 3.93034 
-35.78078 9.941666 7.908169 
-0.5057123 -32.08521 5.299848 
10.42747 -20.64631 4.938331 
42.72213 -15.73306 4.007704 
46.6516 -22.80386 3.180818 
26.08221 8.877059 5.344737 
16.20658 -12.98496 5.015569 
13.61796 -10.96861 5.054688 
13.72167 3.808211 5.142956 
9.267176 13.22209 5.591269 
-40.70558 -5.220997 6.786176 
11.43561 -37.133 4.510266 
-16.68722 41.34034 7.629488 
-4.588577 33.70376 7.220522 
7.176675 -19.6396 5.048581 
5.231102 33.75953 5.99941 
-2.639913 -13.60072 5.190098 
-5.28292 -3.269158 5.961494 
6.196128 -23.71016 5.100059 
23.40784 -42.87295 3.483996 
-7.191462 12.46568 7.356193 
-39.4705 -51.33681 4.640902 
-26.23309 33.2556 8.052654 
-29.21276 30.94579 8.121919 
-31.00862 -17.77893 5.333935 
12.00241 -40.31993 4.294654 
6.130139 -32.02685 4.989968 
-16.52762 22.66147 7.978503 
20.40827 -6.011611 5.081334 
6.139602 26.44907 6.060649 
5.795401 -36.76047 4.791039 
28.67655 -25.89013 4.414075 
-40.0818 35.12224 7.914176 
-37.96079 14.17576 7.988345 
23.94527 -43.24657 3.420451 
26.00475 21.0667 5.474449 
23.45634 34.97227 5.499634 
47.48671 11.92426 4.959449 
-14.59275 -1.086486 7.005372 
-44.31998 23.22566 7.919652 
-13.918 -36.29361 5.861031 
-30.02789 -51.28385 4.796481 
-22.8405 -5.431084 6.907159 
-30.94677 -33.94715 6.069946 
-0.4704635 -44.3455 4.591947 
-10.21866 30.68381 7.64027 
-30.35558 -6.376028 6.897429 
-47.29715 23.50788 7.861577 
31.06407 27.00728 5.936597 
1.416856 16.8793 6.631064 
22.04861 -39.58457 3.832496 
15.02678 -1.940151 5.136055 
18.88049 36.92371 5.321935 
-14.72534 2.571586 7.304397 
39.44014 -18.73667 4.118229 
-41.7259 -41.33092 6.015136 
25.58116 19.67247 5.438581 
36.78665 -34.56237 3.20221 
-43.36046 -15.96656 5.243042 
28.26304 -18.70455 4.798639 
-39.05268 -23.1333 5.138595 
32.16418 -5.759472 5.235065 
-32.2361 -2.15374 7.350317 
-2.255104 -38.47768 5.15055 
-44.69331 -19.7067 5.091592 
5.926869 -40.13962 4.581192 
-36.36047 -7.038378 6.696493 
-40.24989 -25.37759 5.259961 
4.516138 -21.14511 5.106147 
-6.379941 17.8446 7.434925 
-24.86539 36.86922 7.928547 
6.514384 25.1317 6.024592 
5.784753 10.90847 5.8503 
-43.92342 12.33642 7.803311 
18.85505 17.37735 5.267052 
-12.70748 31.35635 7.74078 
27.93892 12.28196 5.465808 
-36.57513 -36.83454 6.366992 
-2.927432 -10.0118 5.287484 
-21.20077 -17.79636 5.313863 
1.262473 29.3908 6.68004 
-1.858369 -29.33316 5.32986 
20.31688 -39.73435 3.922549 
9.561861 17.83334 5.650756 
-34.63844 1.241368 7.556893 
-27.469 26.82281 8.181231 
42.92711 -1.922004 4.886092 
-10.29226 20.69398 7.695593 
35.06303 -18.16097 4.52618 
-32.03516 -51.99012 4.684861 
12.70577 -49.30979 3.552289 
-35.42733 -49.40675 5.02574 
-39.49212 8.571255 7.799585 
16.57168 14.70026 5.271893 
-49.20134 -18.94124 5.067535 
-30.30136 -34.24146 6.0876 
-48.9353 -52.01956 4.176693 
20.21522 18.50521 5.27749 
20.10917 11.32976 5.209473 
-41.28499 -24.08026 5.190772 
-14.32318 -41.76815 5.635682 
-18.50262 13.71571 7.829165 
-36.76246 -22.07826 5.12458 
-26.72388 -22.58722 5.14633 
-10.33859 -41.92745 5.384559 
-13.50941 4.560754 7.324006 
0.4414245 36.59668 6.492487 
26.72859 12.95949 5.418078 
48.62356 -17.9183 3.287975 
33.68301 19.31426 5.960593 
14.10815 0.4924147 5.147576 
-6.321475 -43.57151 4.981046 
-16.0674 -48.73731 4.879531 
30.8658 -7.111472 5.183228 
11.00958 -34.81769 4.646916 
-27.09744 21.17596 8.114643 
-4.524386 30.51773 7.295207 
1.284442 -33.21047 5.19399 
-29.689 33.3031 8.064183 
41.50161 25.58639 5.968929 
27.45772 0.5143024 5.272445 
-36.37676 -42.93874 5.995838 
-32.93947 25.11783 8.175183 
-2.635695 -41.14317 4.976696 
-50.79768 -0.7988331 6.546204 
-22.17643 2.193402 7.537345 
41.76191 -2.200677 4.991638 
7.192074 30.0509 5.873949 
9.901937 -40.1515 4.398402 
5.52726 11.82882 5.914448 
-39.67574 20.3476 8.036925 
22.49128 -29.64321 4.407207 
-34.25612 -41.10566 6.239529 
5.205615 -33.6275 4.974857 
-7.676043 -24.39838 5.196914 
33.9943 -8.023678 5.13744 
41.76152 -23.7597 3.546774 
0.9290019 -10.14224 5.13519 
-30.2028 2.348768 7.630593 
11.3461 22.84227 5.538541 
-30.38536 -2.536627 7.321214 
8.153335 15.19905 5.735441 
-17.73516 -51.65704 4.564879 
-23.75805 -16.7295 5.415743 
-39.04918 -4.746457 6.93924 
-35.78389 -13.07623 5.757385 
-42.03204 24.20703 7.981157 
-26.33348 41.07273 7.816402 
15.16062 4.773474 5.111383 
-34.30884 20.04364 8.146632 
46.81502 13.8885 5.117345 
-33.71885 -17.24726 5.349609 
5.069004 -46.78923 4.134985 
7.804862 -8.384399 5.131614 
-33.33139 34.71595 8.007433 
-24.99768 26.3962 8.16547 
-32.89033 17.91422 8.136642 
34.13781 17.74654 5.950435 
-39.98105 39.91291 7.873322 
-50.43793 -20.72807 5.123659 
-40.21261 -11.22997 5.851042 
29.35292 -34.29748 3.76839 
48.05659 35.11726 4.866256 
-11.77837 33.14543 7.665165 
-44.01297 2.333791 7.453395 
30.03858 -37.87369 3.442001 
7.343662 -9.862111 5.115291 
-42.69787 -43.4286 5.693572 
9.964396 21.28674 5.645833 
-22.8026 -37.48363 6.183528 
-1.04438 11.075 6.707466 
0.6368604 -2.881254 5.557903 
-38.87425 -15.39343 5.411345 
-46.16862 -38.84977 6.044932 
-21.66547 -27.25211 5.258539 
12.81383 -14.12528 5.035742 
43.21561 -13.24455 4.125959 
45.06951 23.60127 5.523675 
10.70943 28.45368 5.562425 
-26.40459 28.4181 8.156112 
22.73122 -20.68211 4.811242 
4.52417 37.08779 5.944445 
32.60296 33.8793 6.163954 
36.46977 -17.94843 4.434417 
-16.78852 10.35426 7.649692 
45.47331 -42.73524 2.231585 
36.50393 -41.69201 2.754631 
28.72699 -12.15233 5.021995 
-26.19235 -30.57271 5.593872 
34.37685 35.2578 6.231576 
-3.499652 -0.6429604 6.062879 
-3.72165 -12.75439 5.232064 
-41.75202 -16.36577 5.258617 
-47.97559 -30.20096 5.916602 
4.832304 39.19283 5.810944 
-43.66862 -13.86303 5.394471 
35.57719 28.67723 6.227464 
43.62963 -51.87417 1.935199 
-20.81909 -46.40673 5.373881 
-2.426933 33.68301 7.003273 
-17.70668 -25.0297 5.165989 
16.05522 -44.6967 3.765102 
-35.74361 -45.22141 5.678587 
-6.883095 -39.48481 5.371936 
-28.10777 27.65102 8.174708 
-40.64674 32.70901 7.943545 
-22.51743 40.96526 7.77037 
-10.897 -20.40774 5.13843 
-25.95788 -22.52932 5.147497 
-33.47279 -14.45883 5.632423 
14.78013 -46.26674 3.703609 
2.346747 0.8907884 5.664131 
-43.71682 -12.61549 5.514206 
-45.3321 -27.3382 5.551355 
6.768342 6.087064 5.570829 
-32.36572 -5.634113 6.987267 
-8.451246 35.03068 7.459995 
11.90573 43.5606 5.273779 
4.464153 33.9977 6.086138 
11.03568 23.31667 5.561423 
13.07774 6.867466 5.271735 
-11.86136 5.72181 7.246731 
39.6893 -32.33084 3.139239 
-46.43172 14.52727 7.789374 
-35.82479 37.47739 7.913736 
36.33487 6.57302 5.69507 
29.82243 17.81068 5.663561 
-41.52992 -25.46013 5.285405 
-8.193821 -0.1297436 6.570424 
10.53544 20.72906 5.594853 
-17.94758 12.14246 7.748071 
-42.75072 -45.10099 5.444795 
17.84554 19.02874 5.277462 
12.67628 -6.336672 5.105885 
-17.34947 -16.85112 5.326187 
14.25234 -51.11466 3.317326 
18.64964 -10.72528 5.025519 
-39.48447 -26.21733 5.315813 
-2.419587 21.96719 7.169458 
41.72936 20.3536 5.902812 
44.32479 -13.51923 3.989701 
-44.29395 -17.4233 5.145965 
29.23884 -47.72806 2.77759 
22.60643 40.02075 5.522856 
-12.48497 -52.93594 4.258623 
-48.61378 37.8093 7.977609 
40.53417 14.01125 5.841038 
-47.68449 -9.437902 5.644288 
35.41027 4.279179 5.607597 
17.42273 -31.57355 4.536266 
48.28063 7.225193 4.67124 
-36.13124 8.493022 7.854074 
-33.56314 -39.90997 6.329218 
-48.78153 -32.80824 6.088379 
31.58082 29.2697 6.022579 
-6.355383 -44.01569 4.93955 
28.75357 31.63882 5.836294 
-16.61283 3.126733 7.424562 
30.84663 -42.11434 3.071988 
-21.04847 -29.82067 5.500429 
-36.19557 -1.419058 7.373208 
18.173 17.68877 5.269406 
-26.43237 26.87304 8.17504 
16.61558 32.7304 5.294507 
30.05719 -3.106527 5.274658 
41.01492 22.02479 5.991249 
1.669693 -3.997166 5.435345 
-7.304663 -20.2633 5.128468 
-8.072438 -45.52084 4.881823 
-10.92313 31.06793 7.666721 
-29.5467 -37.49027 6.329289 
20.91197 -38.57162 3.977423 
10.45124 -10.45062 5.082048 
-25.00058 20.26843 8.11791 
-9.861426 -10.15067 5.629669 
-20.61117 -52.1794 4.568719 
20.20523 1.871214 5.166505 
-13.23794 -21.07399 5.128376 
45.65182 -28.13375 2.952578 
21.94906 29.55479 5.370129 
-33.08397 -15.31619 5.540112 
-8.995649 -18.48339 5.152728 
-1.153868 -24.71442 5.202778 
-26.13418 -0.05389753 7.469142 
1.291082 -14.81377 5.100863 
43.4875 40.09593 5.334584 
-5.35292 -40.12421 5.227487 
-44.43449 6.587328 7.640215 
28.07076 -10.98951 5.051143 
-1.707809 26.20423 7.095986 
-23.72607 -13.31075 5.780392 
-33.08318 -4.663557 7.101472 
-33.49834 12.53185 8.015767 
5.550506 12.64706 5.942261 
-15.72756 -46.50172 5.154015 
-31.69363 8.36433 7.893442 
43.11896 -30.9723 2.972514 
-8.070187 -17.87831 5.155841 
-28.01327 -40.78461 6.240401 
30.6818 -0.3178014 5.357418 
11.34069 -40.54245 4.309832 
-36.24638 36.35498 7.935882 
12.38699 38.83043 5.324844 
42.39141 -38.17071 2.612007 
-7.040671 -17.72047 5.149678 
33.69703 0.4856434 5.456334 
42.62995 -46.05859 2.213238 
-51.71091 -11.62096 5.218996 
-19.54772 -51.85413 4.586837 
13.74395 37.00904 5.311506 
5.333257 39.42407 5.750759 
-15.94108 25.81059 7.947774 
29.52932 14.87131 5.594047 
38.23729 -21.31382 4.04179 
36.61639 1.981322 5.517222 
-3.173328 -37.12043 5.28817 
-33.27383 -32.18211 5.903164 
-28.91884 39.24621 7.884434 
-0.6481615 29.16801 6.93273 
-37.91416 14.51655 7.996612 
-44.1768 3.445408 7.512979 
26.2173 -17.58054 4.867344 
30.05787 6.016078 5.46609 
26.42357 15.81231 5.436773 
-9.572106 -10.94445 5.546571 
38.69709 5.443105 5.607362 
43.07575 0.4614757 5.007102 
-33.35793 37.42517 7.932295 
12.15644 -20.01715 4.916981 
-42.57327 -9.012418 6.049751 
-1.906359 -14.35918 5.159156 
-15.82808 -13.82484 5.527364 
32.1506 1.806928 5.455642 
-9.684777 -16.95896 5.185218 
6.74504 -29.61162 5.031591 
-29.09045 -52.97771 4.556586 
-50.66158 34.8708 7.970952 
6.429719 8.975664 5.710303 
18.5916 -36.44234 4.246697 
-19.58769 19.4674 8.053063 
-49.03339 -43.32237 5.326035 
-33.27339 -32.37411 5.928308 
-14.693 5.743583 7.430075 
3.225671 -20.61857 5.110074 
33.48039 -24.33098 4.213796 
-14.37882 -2.98031 6.786868 
11.52939 21.51324 5.522313 
1.933784 -24.08556 5.165603 
-21.12383 7.278461 7.762342 
-4.883663 22.4834 7.378672 
-1.404343 -20.09775 5.117967 
32.05762 34.54617 6.139988 
-16.98938 -35.32533 5.933434 
35.83578 33.04737 6.248284 
-13.55157 11.96207 7.665823 
-44.71079 8.793758 7.702766 
44.6557 0.5740692 4.828969 
-33.92155 21.61242 8.161684 
23.30729 35.60346 5.499551 
-36.03793 2.862915 7.625794 
17.08312 13.28261 5.255279 
-49.41384 6.090911 7.468404 
-37.75605 -48.69518 5.082069 
-51.83444 40.05991 7.704162 
-36.04152 10.88058 7.934299 
-39.77878 -6.457114 6.639682 
-38.03185 14.67046 7.997525 
11.8428 -21.39132 4.89406 
45.34003 -40.43628 2.340175 
39.0794 -15.61326 4.374059 
-38.03771 -26.74555 5.341735 
-2.462786 4.116067 6.394638 
13.515 -35.23976 4.524996 
36.55707 -1.953622 5.349353 
-25.62413 34.52882 8.010103 
0.379222 -37.18077 5.070145 
-28.28267 -39.26373 6.317612 
17.80402 10.01961 5.183347 
-9.681171 -41.2366 5.407367 
-1.487893 17.88532 7.01525 
-5.051323 5.573791 6.80514 
22.97788 28.2355 5.400126 
44.46849 25.48361 5.606312 
-24.44095 -3.165689 7.199728 
-40.624 0.03365876 7.394179 
20.20476 -45.23914 3.484112 
11.96982 9.848555 5.358379 
29.74395 5.093432 5.434735 
16.30855 41.92013 5.284807 
-28.86128 -51.60107 4.750439 
24.93576 -25.89372 4.572043 
-30.98612 -34.75051 6.14984 
45.34209 41.85035 4.975558 
31.61098 27.5062 5.990114 
-45.64004 -37.85838 6.146668 
41.05516 38.65474 5.730025 
-21.30517 27.03422 8.098065 
-5.313113 38.93529 7.054557 
-20.62111 14.53687 7.891726 
30.0823 -32.89053 3.825074 
40.96789 27.34292 6.01901 
30.56705 -16.35478 4.845844 
18.7731 -44.69249 3.612787 
9.699234 -31.48509 4.845257 
23.24997 -47.38123 3.134875 
24.05141 -19.94007 4.817103 
-24.10349 -3.770868 7.133141 
21.58433 -23.28313 4.752747 
-48.62751 21.04512 7.830319 
21.68817 -18.25258 4.881545 
12.00608 20.07528 5.482224 
-36.17464 -3.08352 7.227046 
20.81539 -26.5512 4.644456 
42.0424 -0.9899591 5.034162 
26.25659 17.0884 5.442679 
-13.05474 -25.5766 5.224901 
-42.21205 26.49645 7.97098 
-34.66166 40.03678 7.867146 
-23.27826 -29.85597 5.501168 
40.46592 6.616077 5.56136 
2.056172 3.085934 5.824271 
42.57607 -16.69452 3.956426 
2.397202 3.094948 5.793768 
-27.07087 -7.607781 6.69742 
-41.11554 -35.61971 6.31051 
26.86201 -43.05216 3.253087 
-13.64733 25.16052 7.859272 
-7.449139 -24.12886 5.18911 
7.742256 -22.26601 5.068745 
-41.90142 -12.16144 5.649552 
42.29124 3.874378 5.27413 
-32.29763 30.89978 8.110018 
34.56287 -5.310434 5.244889 
-48.43939 -41.14283 5.652355 
9.203763 -50.43325 3.62841 
44.64199 8.481102 5.221687 
-3.530908 -10.08219 5.317097 
-36.01929 -1.39311 7.37749 
16.76635 -17.38451 4.954832 
-26.5487 19.81252 8.093517 
-44.31661 28.94925 7.909107 
23.81421 35.35457 5.527475 
-19.0364 39.4623 7.743271 
-13.79151 6.447646 7.387671 
-7.222474 -13.949 5.229378 
21.30576 25.70561 5.327116 
47.27195 23.37506 5.190808 
-1.601999 28.51087 7.055299 
27.94216 24.00371 5.634534 
-17.26938 -38.7775 5.981139 
21.76605 26.03549 5.341568 
-14.72429 -38.18921 5.882561 
1.655384 -5.237612 5.348744 
-40.04459 6.144222 7.705466 
-7.076851 -46.43571 4.735493 
-1.573175 -15.58889 5.132911 
28.39227 -34.27277 3.837621 
33.93976 10.56868 5.756019 
44.34498 -48.76963 2.028878 
9.039951 -46.05121 4.011188 
-31.14553 -1.0511 7.433416 
39.49586 -21.00798 3.949058 
-2.911814 -3.995745 5.689456 
40.63509 42.42669 5.587088 
-2.845814 38.73849 6.785511 
21.95507 13.66723 5.276599 
-45.28664 35.43139 7.893898 
24.41989 -21.26422 4.77073 
-21.77064 -16.21947 5.439752 
1.523107 21.54759 6.705695 
-31.33189 17.3618 8.137064 
-51.03175 35.95831 7.966024 
16.47534 -0.1792488 5.145582 
-16.13597 34.50928 7.799695 
18.28547 -48.85918 3.293504 
-49.79266 -30.07098 5.913365 
-41.30735 -3.718156 6.973411 
22.82482 11.29542 5.276026 
0.9554708 -11.47969 5.120028 
-33.21036 -43.36415 5.989969 
-23.09136 -52.9594 4.512398 
39.38867 -43.34756 2.500562 
10.30624 -6.13625 5.131708 
-50.47557 13.59377 7.715022 
14.91623 11.49566 5.280102 
40.01602 6.334059 5.579252 
-18.1559 -34.54544 5.914738 
-4.270401 41.90365 6.718814 
-28.76396 29.90064 8.142118 
43.34816 43.69616 5.152288 
-16.20006 -36.73874 5.951995 
-4.374249 2.799135 6.493673 
13.43023 29.26218 5.39032 
-7.481562 -4.177569 6.082044 
1.219716 31.25231 6.631204 
-9.157429 4.021522 7.021066 
8.726789 25.73995 5.765108 
-19.40344 24.50381 8.068316 
34.2647 -19.6072 4.48495 
-25.38891 19.84575 8.101728 
9.470833 15.62988 5.62389 
29.65521 -30.9631 4.001891 
-24.72145 37.05056 7.920945 
43.19211 23.55395 5.775416 
-17.69064 -24.59845 5.142374 
-48.89166 -15.39384 5.123453 
-11.68358 -44.58158 5.182671 
-29.90523 20.47907 8.10692 
42.59695 37.47298 5.582551 
21.37653 37.11993 5.414613 
35.2482 -49.8351 2.358504 
-45.3499 15.31334 7.823476 
30.32494 -40.20171 3.245491 
47.5344 -50.17229 1.861665 
24.84574 -17.97196 4.865901 
12.34441 16.43327 5.431819 
-48.18433 -12.52511 5.315902 
-20.10972 -29.92152 5.508845 
7.503954 -44.556 4.200061 
47.77423 17.96429 5.065083 
43.81195 30.9791 5.627869 
-47.37418 4.032695 7.434908 
1.51029 -6.010462 5.289834 
-47.43903 -39.00301 5.955755 
-1.099104 -1.565172 5.774299 
-37.69483 7.870813 7.807332 
-8.067946 -9.470229 5.600161 
-38.9745 23.92765 8.071214 
-29.19162 -38.84364 6.339357 
4.047704 -51.43967 3.77614 
-12.76393 -12.10563 5.579589 
-41.64046 -26.21923 5.351899 
-13.89409 -36.24578 5.86013 
-12.94451 -32.83991 5.695106 
3.541086 -22.02208 5.122775 
47.18128 -15.10036 3.591442 
24.16098 42.3638 5.669969 
-0.834284 19.41593 6.973293 
5.509011 -51.94456 3.66498 
-36.63295 29.14473 8.082314 
-40.38147 -14.98961 5.405964 
-18.35074 -18.74083 5.232249 
-32.98804 -18.81145 5.24909 
-0.9144859 -9.606371 5.222833 
-43.02572 36.57162 7.884466 
-22.66886 16.82447 8.00223 
-4.420177 28.28937 7.321929 
-27.23058 -5.651556 6.974798 
43.70928 43.40487 5.119729 
24.33075 20.76992 5.393255 
-22.13929 11.01347 7.906507 
47.0899 -33.23967 2.585773 
-14.62953 31.55069 7.814607 
-7.9375 13.90362 7.448426 
8.696829 -19.23233 4.980023 
33.86051 43.61271 6.085098 
-39.97084 23.49827 8.041843 
9.601238 -45.8117 4.003662 
-5.248021 23.90542 7.408849 
-25.22753 -19.3125 5.244758 
10.19425 -5.059639 5.148276 
-38.19021 6.074677 7.733311 
42.76221 29.47904 5.796747 
14.98549 -23.58443 4.794004 
-41.69503 4.642935 7.61975 
4.807288 43.00644 5.627308 
28.5437 34.45591 5.873235 
-4.418575 33.07668 7.224398 
13.97013 30.12304 5.362106 
-20.56221 -49.66884 4.90374 
-43.19237 -15.35843 5.289385 
33.20638 -6.518294 5.208875 
40.08621 -36.84834 2.827665 
42.34975 38.02969 5.591508 
-14.80056 -29.02217 5.427675 
19.04181 36.81046 5.325243 
-29.08787 -15.23329 5.582934 
-44.95538 -35.22242 6.239546 
13.51798 -36.9551 4.433943 
39.96213 18.83728 6.009607 
-46.54799 -22.48826 5.162203 
-41.09856 -23.34871 5.154384 
28.47735 20.62917 5.618664 
16.31375 -12.09537 5.024261 
-27.13825 24.36054 8.180866 
46.15331 4.902353 4.862073 
41.8259 -0.8212565 5.065232 
-2.276276 12.8694 6.938575 
44.35328 27.35396 5.609528 
14.50882 -41.09059 4.125797 
25.06698 14.48064 5.366744 
-26.7731 -23.37564 5.146135 
2.425246 -16.09333 5.08525 
41.95889 -12.56333 4.304609 
-17.39379 17.77444 7.965298 
30.17883 -23.9614 4.454383 
-15.8951 -3.302381 6.848022 
-34.79708 -30.06096 5.652779 
23.8338 6.522264 5.256736 
22.60958 10.85427 5.266809 
5.685717 36.8605 5.826161 
30.61022 39.34946 6.094632 
-44.79524 -2.408426 6.928518 
3.138303 -41.80308 4.605605 
25.64567 -21.13203 4.754348 
29.88346 16.41363 5.642847 
-51.52979 17.27758 7.769554 
43.74722 0.388166 4.926813 
30.45005 29.05841 5.927406 
0.2763813 -25.47251 5.208779 
-47.12252 31.56145 7.884287 
30.20516 -1.634908 5.312903 
4.899867 -20.1846 5.095408 
15.76165 1.726014 5.150006 
-25.14744 16.67505 8.02377 
-6.317389 18.84505 7.446112 
-10.13156 -51.93557 4.288876 
-3.545721 24.77828 7.276302 
25.77835 23.6454 5.492126 
-21.67962 -48.39174 5.114446 
-41.9999 30.51518 7.945411 
-22.55031 -24.54753 5.154691 
-2.475974 -31.55291 5.378231 
-34.81947 38.61623 7.894664 
25.0205 37.50989 5.646636 
11.77546 30.74949 5.463987 
-43.37271 -38.2136 6.222798 
-13.48883 -2.097368 6.826519 
-39.61102 -6.56846 6.630802 
-18.00928 -35.04448 5.942639 
-36.05137 -49.74665 4.961474 
20.95544 -23.66733 4.752229 
41.62876 -19.54593 3.851614 
33.51152 -35.18995 3.396558 
-1.097799 12.23472 6.773191 
38.75361 20.55059 6.09717 
4.080512 37.52707 5.973648 
-43.59025 20.70853 7.927084 
33.70993 25.85258 6.105266 
14.71429 -46.10616 3.720677 
3.379931 20.35261 6.43464 
16.50823 -1.472965 5.132842 
16.62663 24.41212 5.304749 
-8.181257 15.09101 7.493785 
-31.33014 -24.56656 5.16497 
24.51064 -28.87371 4.425476 
2.036185 -24.95968 5.178579 
-6.984005 32.77724 7.425742 
-6.320645 4.889685 6.876771 
17.7444 41.45308 5.315649 
-19.70237 24.39848 8.076566 
23.83427 38.87454 5.585307 
37.70422 -5.83257 5.103588 
20.23252 -30.40737 4.413579 
38.91639 26.5325 6.167972 
-27.54313 18.11263 8.073664 
46.711 31.07708 5.191687 
-21.91544 10.74931 7.894167 
29.91441 3.557018 5.412462 
15.53288 -44.87185 3.779188 
-43.96522 17.62382 7.888238 
6.090212 -0.1804351 5.378136 
-45.28955 37.31699 7.91263 
-35.95026 -42.12356 6.106941 
-47.41637 -27.35878 5.6042 
-35.08638 12.60608 7.998521 
-12.16989 38.32959 7.554321 
-13.57359 -1.803507 6.864229 
-42.99618 -4.710681 6.717157 
-22.79544 36.32857 7.915556 
33.30289 33.42474 6.193751 
-11.06801 12.53726 7.585492 
7.356777 -39.02312 4.58314 
15.3893 -0.6882765 5.145595 
-44.49205 -11.05089 5.651504 
34.2519 31.65055 6.217379 
-40.82912 -24.50383 5.209146 
-4.506643 26.35511 7.346481 
-40.35605 21.25434 8.022935 
35.49435 23.24078 6.139352 
-27.06904 -30.94603 5.646008 
15.41896 -18.48384 4.959379 
-7.243626 39.38004 7.212381 
-20.4565 3.487954 7.567447 
-35.6219 27.48746 8.121391 
28.37087 6.588234 5.401638 
-14.91293 39.98013 7.611888 
12.30961 -24.46831 4.884952 
27.25263 18.25442 5.508453 
30.89545 43.71576 6.089858 
1.815032 32.41739 6.50642 
42.95199 -45.83936 2.209184 
20.41439 43.43459 5.445626 
-46.23961 29.84421 7.881793 
-28.06332 31.77769 8.101044 
-1.619007 -1.913708 5.78496 
26.43481 -42.99862 3.284049 
-36.7501 -38.45126 6.36939 
-16.37277 -0.3325044 7.171963 
-28.39703 20.20633 8.085152 
6.597147 11.57668 5.789765 
43.11977 10.25343 5.476887 
1.367663 39.25371 6.20604 
37.67643 3.492003 5.558371 
-33.02102 11.46016 7.989318 
-13.33103 33.56623 7.720557 
-20.64599 30.47729 8.02817 
29.9885 23.51338 5.780089 
-29.46098 -43.50235 5.975704 
38.68571 -34.79575 3.050468 
13.70157 10.73387 5.306202 
-35.32013 3.078463 7.642657 
-5.409455 -26.838 5.292164 
-28.98172 28.35093 8.16694 
-23.89995 17.15729 8.019141 
45.3444 33.52286 5.334857 
-29.15672 -43.16669 6.015644 
-33.40623 -18.98242 5.235489 
25.96827 -48.0134 2.935499 
-12.17354 34.27367 7.657693 
34.96083 9.401185 5.761748 
46.64433 -0.2212635 4.533962 
11.85091 5.792058 5.293596 
15.686 -22.1479 4.857491 
-16.22103 -50.76355 4.62995 
22.15879 23.15648 5.335492 
30.38671 -42.45451 3.07626 
30.65983 -45.16512 2.870918 
48.22728 2.870153 4.483497 
-41.55019 -2.159835 7.157976 
-51.23093 29.42168 7.912835 
21.96424 -41.56186 3.679523 
8.867065 -8.279981 5.120214 
-49.46904 -7.745844 5.712383 
-9.02133 -10.27082 5.578957 
-44.44281 6.570288 7.639464 
23.3107 20.03559 5.350402 
33.41233 4.513955 5.570575 
-49.89401 -12.51233 5.241415 
-33.98786 35.94046 7.968302 
-26.2986 -18.54052 5.291842 
-39.48555 8.964451 7.812122 
-37.5744 24.92617 8.103056 
-2.545993 -49.65108 4.220289 
28.90773 11.14462 5.498423 
-40.36634 33.76528 7.931917 
-2.071095 30.948 7.054022 
-14.77468 -22.06779 5.105746 
-23.85813 -36.51956 6.17435 
28.95002 -40.05485 3.348345 
38.63026 4.682901 5.576929 
-2.460213 -7.126254 5.445862 
21.11175 31.53372 5.354648 
25.53481 -16.10693 4.912569 
-19.2467 -3.790689 6.966492 
7.478978 13.42044 5.758759 
29.79788 1.184748 5.360593 
20.44517 26.18556 5.311056 
-31.75551 -12.24713 5.955785 
-24.76377 23.96166 8.173004 
42.20808 9.577529 5.544125 
-19.41765 -17.23738 5.330642 
18.94482 -19.42033 4.888659 
-5.452672 32.8884 7.315038 
-21.45165 36.45217 7.886501 
-48.63915 -51.04619 4.311905 
-12.07543 20.12612 7.779188 
-46.37595 -22.26632 5.150184 
46.82064 -22.79204 3.16703 
7.766984 29.5671 5.82023 
-7.535091 20.80515 7.543331 
-16.50577 30.69909 7.900742 
-23.06221 -23.46929 5.145605 
18.38581 8.596816 5.12853 
45.48818 4.400276 4.925383 
-26.77814 0.9166546 7.535131 
38.79026 16.25844 5.992213 
40.66707 -47.66204 2.226455 
-50.66052 -10.72603 5.33484 
43.25626 -5.652245 4.621278 
-22.40631 9.668802 7.879957 
17.24802 5.90244 5.119739 
-38.46154 16.6178 8.024529 
-41.56527 2.739428 7.537163 
-16.49703 -41.41263 5.783775 
5.783935 -42.1289 4.454836 
35.67846 -38.08208 3.038614 
27.73099 27.97858 5.684968 
27.17251 27.76005 5.639204 
-29.88286 6.248883 7.813019 
-39.52589 -7.278373 6.517588 
-27.50225 15.28424 8.082697 
-19.31205 -3.358201 7.018534 
-24.52444 -53.0148 4.523834 
-26.6658 -50.44642 4.906116 
-27.33773 -19.26074 5.249084 
9.258281 -17.634 4.953598 
1.830051 -8.670578 5.174001 
35.68617 36.78014 6.213445 
19.02965 41.0848 5.354708 
8.51581 33.63304 5.65677 
29.07093 22.12667 5.684934 
17.61997 3.964499 5.156912 
-46.07801 2.735565 7.4025 
-8.887508 -2.850683 6.356593 
-18.93984 0.3526923 7.332458 
-25.07063 -21.28626 5.167792 
40.97586 -35.4028 2.856508 
34.24619 4.635729 5.598403 
19.52266 -22.63234 4.806429 
-7.556068 -48.48312 4.548386 
-23.80072 11.54809 7.960764 
-41.94522 2.92642 7.538897 
23.29917 -38.17658 3.866625 
-38.09515 3.868178 7.645646 
-11.59822 9.001969 7.462964 
38.06628 -39.25907 2.809471 
23.35889 2.310228 5.203484 
-37.28626 -31.52682 5.892039 
-8.4351 -28.75644 5.39727 
-19.35065 27.37145 8.044968 
27.97942 -22.55644 4.632883 
27.80241 11.89435 5.454082 
40.01051 -15.56337 4.29028 
14.52216 11.88689 5.294227 
-30.1401 -31.20688 5.724763 
44.64005 -50.23876 1.96123 
-18.81025 -38.08976 6.059335 
-33.20684 -42.57387 6.091743 
-24.48423 25.68556 8.164762 
5.413275 -24.94598 5.119081 
41.29062 -5.190418 4.857517 
44.37311 -9.78371 4.229743 
-25.51595 -25.33028 5.188445 
-0.7358694 33.49197 6.806702 
24.91875 -32.07635 4.216303 
23.61593 38.59637 5.565818 
25.65646 13.33947 5.377736 
-30.40034 36.96017 7.955855 
-42.54372 -52.13232 4.431255 
23.20155 38.20963 5.531694 
-51.75803 -14.79891 5.074543 
30.47399 5.376426 5.472281 
1.936037 -15.17941 5.088338 
-39.83161 21.21861 8.038321 
13.24065 -15.51912 5.020819 
-16.6034 22.1587 7.980293 
45.25821 38.98294 5.132791 
-14.54689 -43.09418 5.510327 
-32.61203 -39.76218 6.334944 
-11.94216 33.86016 7.656982 
-45.38905 13.8811 7.799691 
8.646675 10.2578 5.566244 
39.72424 -18.45345 4.112015 
-12.24841 39.61069 7.518508 
37.71418 -13.63276 4.628706 
28.12706 -23.93312 4.555146 
-26.08951 -36.57275 6.227889 
-21.24712 -24.53099 5.130947 
33.03168 43.51005 6.105112 
16.35268 -13.37724 5.009905 
6.741419 30.94846 5.90571 
-42.14005 -43.78518 5.669123 
5.956597 35.17231 5.863471 
36.2528 -37.65916 3.028351 
-0.8847474 29.70392 6.949306 
-48.43517 -1.262205 6.757875 
-30.40807 -11.44292 6.091855 
39.91217 36.58635 5.944079 
12.68114 -23.60339 4.858303 
39.78624 26.22323 6.115793 
27.38988 -1.353299 5.239343 
33.8076 -3.218041 5.331031 
41.93315 -39.43007 2.571223 
-0.3069443 2.208312 5.998952 
21.42019 4.312156 5.197903 
-24.89908 -5.341709 6.974317 
10.6496 38.31585 5.400376 
-18.96218 12.31965 7.784102 
-18.33714 33.28763 7.900416 
-23.4306 -25.61576 5.192422 
-6.500132 -37.28698 5.477502 
-10.97577 -46.2475 4.953855 
28.45809 33.35943 5.844943 
37.41632 20.34072 6.112822 
-0.8379916 3.496626 6.15704 
-20.00377 23.45638 8.08606 
15.4051 24.98098 5.332216 
40.22365 28.50876 6.078119 
-14.20261 -29.86688 5.491996 
22.65009 35.35863 5.459113 
-1.835886 -30.91259 5.351793 
-22.05435 3.442654 7.60223 
37.35723 -8.523322 4.97187 
20.04551 -15.55834 4.947056 
5.55081 21.438 6.146985 
-39.81022 -22.5178 5.124927 
33.02582 12.75585 5.76573 
-29.33147 24.03989 8.16515 
-6.418193 -22.36448 5.147676 
-23.71268 29.31476 8.11101 
44.16609 -4.938498 4.562059 
-5.622353 16.63935 7.358697 
7.323956 -26.71219 5.05934 
37.0656 42.85326 5.936652 
32.2221 13.38999 5.733558 
19.75671 -38.18134 4.069449 
-11.09555 27.82692 7.720891 
36.87152 34.7182 6.211291 
-4.502083 -44.19987 4.81771 
44.29145 -12.03194 4.091363 
38.38422 6.487496 5.663267 
-42.28545 28.38413 7.958703 
47.02241 1.257686 4.563519 
35.20897 -49.75327 2.364542 
-38.86154 -32.28778 6.018039 
9.201647 -32.10713 4.843931 
17.56285 -39.01998 4.123065 
-45.42292 27.26968 7.895257 
42.40668 -27.54103 3.24063 
32.27238 -11.78841 5.008138 
20.77621 30.28138 5.337717 
-30.91345 -29.12673 5.487448 
39.53173 -31.71024 3.192358 
-9.665238 -28.90667 5.411632 
-30.09852 -28.78863 5.445045 
14.06681 -13.49379 5.029562 
-26.04908 -32.94347 5.882287 
6.813738 3.478543 5.471088 
13.2529 -10.33922 5.062758 
-37.58619 -32.98726 6.080459 
33.72353 44.16003 6.0685 
20.15532 19.62137 5.281712 
-48.86625 2.05167 7.153785 
32.04032 14.44335 5.74529 
-26.05162 21.04324 8.131822 
-34.69229 -35.19188 6.258001 
-2.561119 -12.77035 5.212591 
-36.90757 -38.64838 6.363102 
17.80965 40.83934 5.31397 
-11.73352 19.12037 7.752637 
1.832276 23.7515 6.673757 
-9.060032 1.883069 6.839706 
-25.17006 -31.97188 5.756908 
23.85316 0.2670305 5.187365 
33.16972 19.81586 5.940063 
-46.95951 18.42447 7.830174 
5.022062 -0.5486695 5.418543 
36.35758 -34.58184 3.231969 
30.71765 -46.33537 2.789572 
-31.30963 19.39986 8.151491 
3.158014 4.093404 5.781085 
29.20229 7.203154 5.448394 
-37.12535 35.66335 7.941747 
35.46062 -0.7555162 5.420984 
-42.04534 -12.05797 5.655272 
33.1035 -15.39086 4.806888 
-7.910117 6.295156 7.111825 
28.9349 30.20507 5.823466 
-16.589 -45.44717 5.330685 
-5.175241 24.91431 7.402858 
-16.767 11.90878 7.712167 
44.39445 -44.06823 2.222517 
-31.07189 12.91533 8.04467 
-15.39211 -13.72828 5.523358 
-26.04765 -32.30025 5.803381 
37.5353 37.89313 6.102819 
10.47672 4.944232 5.327129 
-29.65474 27.48545 8.177168 
-44.8714 -25.08701 5.313881 
2.358664 -4.636165 5.365767 
-51.6713 -5.261936 5.819087 
-26.70123 11.94656 8.012285 
46.03637 -37.76668 2.42813 
-39.46907 -8.774187 6.270147 
-5.726311 -51.00988 4.219414 
14.94745 -25.67659 4.734147 
22.74853 -7.609362 5.068561 
-2.615828 30.3231 7.125741 
-46.51336 -51.39527 4.36789 
-28.81371 16.75032 8.108131 
-44.55777 5.843689 7.611184 
35.64996 -6.677214 5.155132 
-28.02819 -0.4312731 7.462978 
-48.54583 -31.77735 6.041789 
33.78996 -27.45979 3.959286 
-5.880589 31.90433 7.370049 
8.208308 -52.12448 3.524767 
13.15844 16.195 5.386616 
31.08593 34.46229 6.075256 
0.3177397 -40.12261 4.879693 
-24.67781 -6.358166 6.834821 
-13.39241 7.856183 7.434093 
-35.43169 37.1446 7.924623 
3.13949 -52.49381 3.71867 
-24.84674 7.270952 7.82656 
-3.834335 -3.083001 5.83676 
-45.86938 28.84527 7.885023 
-36.523 1.912816 7.574258 
48.36901 -5.919476 4.000928 
32.67772 -10.82529 5.042813 
-50.78538 37.7012 7.94074 
39.568 41.05967 5.786627 
3.651585 -1.817019 5.437412 
14.91107 33.42816 5.313424 
-47.19092 38.35358 7.961657 
-0.5539972 24.74919 6.976467 
-1.179706 -38.70612 5.06938 
-35.92362 -44.64149 5.763345 
7.087507 21.94021 5.953067 
-3.29429 2.484726 6.346715 
-29.2252 -14.40056 5.680309 
-13.38521 -12.35171 5.582021 
-34.45413 -42.92403 6.033881 
19.71939 -29.26326 4.46325 
33.04831 -11.71639 4.993256 
-21.92662 -46.36489 5.416652 
45.00558 16.55323 5.443543 
1.525791 26.93989 6.69185 
-46.48312 27.05507 7.879983 
4.163865 -0.5516768 5.465006 
-20.44666 40.84486 7.735688 
-18.98476 22.78042 8.058032 
39.10284 2.007717 5.431314 
-47.64896 22.20183 7.850008 
1.633536 -31.98728 5.205573 
-1.529236 9.530897 6.67751 
-14.24835 36.59828 7.680963 
-51.3053 17.61635 7.776437 
6.933568 42.58301 5.492248 
-31.02794 -29.91225 5.578397 
24.94289 -31.96325 4.22281 
-10.60043 23.73832 7.720775 
-25.1972 -33.46824 5.935164 
-35.05073 -51.66744 4.695239 
6.161819 16.45923 5.985586 
30.55944 -0.6371129 5.346382 
44.4236 -3.432972 4.624357 
-31.12873 13.00401 8.046932 
4.773952 9.5331 5.900905 
-43.20396 17.50504 7.9069 
3.248188 40.59425 5.902536 
-47.08415 6.971515 7.59683 
3.166972 21.66097 6.479122 
-20.75905 20.11837 8.087694 
-19.16353 -5.586048 6.738969 
24.99937 4.266952 5.258942 
9.027493 -9.177361 5.107376 
1.502043 -51.98695 3.835372 
-9.335344 35.32236 7.501234 
-22.41285 -21.16212 5.166908 
23.35472 19.46123 5.347844 
45.42432 -12.63007 3.929537 
-42.59874 -52.12331 4.430503 
-31.6755 9.148424 7.922261 
29.87534 32.96446 5.956041 
24.35476 -36.37884 3.940164 
-6.239914 -21.7914 5.138783 
29.63168 -26.22253 4.339761 
10.8889 -15.09662 5.039557 
-13.96448 13.8459 7.750252 
21.00601 40.37055 5.435379 
-14.95667 19.50093 7.899664 
-8.403213 9.18612 7.309049 
33.15978 -47.02904 2.615997 
-37.7757 -10.45174 6.075961 
15.55775 22.27643 5.326668 
44.28848 -39.1999 2.453143 
-40.69379 -13.92733 5.498958 
-41.43355 -24.18124 5.197527 
19.22851 -15.08831 4.961393 
34.91475 -32.64477 3.480185 
44.85342 -19.22683 3.561939 
7.815883 -5.799494 5.173875 
-3.523044 27.99307 7.251139 
31.68009 -43.32982 2.935827 
-10.58702 24.82182 7.717697 
-28.78783 -9.232654 6.453909 
44.78908 38.85258 5.207953 
7.898469 -34.47395 4.802415 
38.72036 42.08569 5.823953 
13.29167 30.97751 5.383058 
-29.60056 7.207154 7.853084 
3.359921 26.40282 6.442271 
-27.27139 32.86203 8.070586 
5.8519 21.53087 6.107354 
-16.23287 -9.457536 6.04067 
-6.866 3.758602 6.832025 
-47.85523 8.526823 7.633366 
0.9743662 -37.46214 5.018137 
38.633 -9.505487 4.822214 
-32.58243 35.14754 8.001173 
-45.96866 4.037239 7.491174 
-5.178922 -50.99559 4.199345 
13.20929 0.6930618 5.138458 
-24.1282 32.90541 8.038034 
20.97538 28.63625 5.333774 
39.13705 21.27177 6.096645 
22.81124 32.63032 5.435161 
-1.654196 8.947548 6.65662 
-13.05017 31.48761 7.75287 
-40.90025 35.45305 7.900173 
-45.56221 -8.569607 5.908117 
35.1627 -26.32137 3.934699 
-6.141261 -14.16998 5.223312 
-40.60456 -25.74063 5.294054 
-21.11404 -41.64851 5.975109 
-50.72687 21.16685 7.820643 
-29.19953 -28.88892 5.447334 
-35.09505 -10.49071 6.16319 
28.45065 -7.342756 5.14414 
45.22411 4.698867 4.974369 
25.46874 -13.07717 4.98607 
20.3793 -49.66286 3.115028 
-44.32616 19.51175 7.898825 
-29.05638 -51.78347 4.724553 
-43.14929 -17.41239 5.16883 
39.71945 11.14782 5.790082 
39.65861 -28.46912 3.402472 
-33.44549 -23.27072 5.138515 
-1.895857 33.20177 6.961331 
-2.585058 -29.43349 5.348396 
41.23169 17.55453 5.89006 
35.56256 -17.29803 4.547872 
-23.64431 -47.96854 5.22659 
-30.98008 -32.67546 5.925217 
-28.28436 24.29877 8.173473 
26.54587 -8.52277 5.090735 
-18.09311 -32.62363 5.756867 
-45.83328 33.92857 7.888748 
42.76321 -45.72998 2.222347 
-35.54323 -14.69672 5.564343 
34.55991 -12.238 4.91329 
36.33119 27.54005 6.225651 
-5.4502 32.49362 7.32489 
48.59406 -17.37336 3.321299 
-37.1671 -0.6254818 7.417163 
21.37731 -7.528881 5.064075 
16.51413 -49.70104 3.319078 
27.91133 20.07869 5.573048 
27.40298 20.05826 5.541322 
23.60055 -17.38873 4.888236 
37.56896 16.73637 6.023576 
-36.51001 33.52321 7.999439 
-4.44092 30.67321 7.28525 
40.06034 10.18274 5.737092 
25.64458 -7.031399 5.10646 
-36.11334 2.904899 7.626842 
-11.58762 14.06115 7.653053 
34.23597 41.37051 6.143674 
9.376162 10.16832 5.51007 
-31.96439 -2.884086 7.290639 
32.89534 -3.216829 5.325429 
42.46473 -36.25494 2.712248 
45.46599 39.65146 5.070193 
-25.99407 -52.19935 4.649919 
34.23319 -29.44806 3.773999 
-32.47334 -50.42754 4.911084 
25.35325 41.80276 5.749887 
3.384491 1.141853 5.599122 
7.795442 3.940874 5.428658 
-13.64901 -31.21623 5.59263 
29.28076 -3.968778 5.23616 
-16.10362 -51.39429 4.549318 
-19.80565 -24.98392 5.120493 
26.49275 -18.88688 4.821091 
47.81207 -13.57411 3.617595 
-38.69555 32.36443 7.986286 
17.47997 -42.36423 3.876111 
-49.89886 4.858757 7.3455 
-49.54609 41.70864 7.810876 
-5.489001 -17.90773 5.133605 
16.5002 0.1199892 5.148051 
-42.5584 -16.45267 5.232784 
36.75295 33.22188 6.23243 
-40.93472 -9.45664 6.078901 
-29.77917 33.72707 8.052503 
-41.48899 5.804244 7.667957 
-1.085104 -21.3354 5.131637 
-48.73216 -34.93462 6.116118 
13.30991 -16.31586 5.012729 
4.854931 38.00246 5.864655 
-41.9834 -9.406247 6.025252 
-49.4013 17.61773 7.789296 
5.940381 38.58692 5.728693 
25.93296 -46.32502 3.061311 
16.45464 43.48997 5.292615 
1.537226 -52.55195 3.78116 
22.95556 -32.66894 4.278694 
-40.03959 -35.11405 6.293941 
-35.1265 14.52789 8.046053 
-29.71683 -11.26226 6.124298 
-41.33871 -5.792558 6.656313 
42.0823 40.85736 5.488496 
-30.95412 0.9813218 7.558147 
-48.18569 17.00992 7.79515 
-2.474684 12.00914 6.921131 
9.765129 0.3023393 5.19017 
-27.85281 -15.33372 5.5732 
13.97433 -34.45322 4.545946 
26.40367 -41.00703 3.442379 
-29.86343 8.001438 7.884608 
46.00051 -10.89474 3.976363 
40.02232 43.78281 5.582187 
-36.92793 9.196302 7.865856 
-37.56115 -32.97306 6.078349 
-6.04317 37.46099 7.203616 
-26.50662 25.05768 8.184812 
47.39924 -3.23444 4.270682 
-36.5521 34.42903 7.977712 
11.92769 28.08938 5.479568 
8.539967 -17.6609 4.951674 
-49.40813 -33.14321 6.084024 
32.40156 -7.773958 5.165862 
26.66394 14.74938 5.436069 
-3.936645 34.60874 7.127579 
5.11997 -29.93658 5.09262 
47.64898 -30.3435 2.695399 
-35.61805 26.06314 8.134312 
-40.11933 4.692761 7.648932 
-16.33205 -19.89571 5.108738 
-30.22156 18.02417 8.135218 
29.30173 -28.3098 4.218063 
2.17046 -21.88409 5.130129 
-44.36396 -4.033504 6.719296 
-21.96474 -30.57876 5.580426 
-20.30002 -40.15022 6.052506 
35.16832 -12.83858 4.849171 
10.1645 -6.547239 5.128297 
-1.242951 21.64673 7.047132 
34.19481 36.24718 6.225365 
-8.029148 -7.108207 5.816872 
-4.024605 0.5651307 6.237092 
-13.7011 -27.54013 5.326885 
-26.8501 11.09333 7.987032 
-26.29491 -36.66311 6.236613 
-39.59916 -0.2189884 7.400018 
23.88902 -37.20356 3.905293 
-17.37057 33.13791 7.874677 
7.068456 13.36604 5.797509 
40.96416 38.00955 5.769964 
-18.39476 28.70994 7.998476 
-33.04459 5.496317 7.769592 
-34.75337 13.97163 8.038191 
-47.68617 -16.59147 5.108722 
8.740593 -26.32745 5.01851 
40.94538 6.642863 5.526967 
34.15427 34.19283 6.228355 
-4.159162 -48.77306 4.371449 
-43.02269 16.49321 7.898508 
48.07843 -14.17982 3.555218 
-5.628224 25.15686 7.43254 
32.5956 33.80186 6.162852 
41.86208 12.8623 5.69899 
43.15647 -27.59105 3.176976 
38.06432 -32.36516 3.258753 
34.12284 -48.02897 2.509456 
-34.82569 -0.2861198 7.466791 
-33.31652 16.4726 8.108827 
-18.18446 21.49221 8.030004 
24.11477 -27.75622 4.502243 
45.90573 -0.936112 4.588531 
-6.447019 -9.261998 5.534817 
36.63792 -44.1157 2.603932 
-3.072499 -35.29369 5.359866 
-48.60831 -32.64348 6.085928 
42.4582 -21.48637 3.638542 
27.43716 25.11512 5.616421 
34.98095 24.74482 6.15027 
3.961369 11.07697 6.065669 
7.67416 -48.25605 3.892211 
28.20594 -32.37238 3.99544 
-47.98288 36.01276 7.945531 
28.03059 36.48163 5.868606 
-20.50246 -6.107428 6.730017 
-12.48347 -10.78909 5.696039 
48.1853 -44.6834 2.035648 
33.76998 -19.13549 4.549347 
-49.57798 -18.4536 5.062723 
-23.00459 -47.29851 5.310724 
2.236144 -3.019955 5.45691 
3.112708 29.65631 6.414745 
-40.49929 -16.10064 5.309593 
-36.01524 32.02332 8.040535 
-42.83398 16.46382 7.903292 
29.01126 19.11601 5.630327 
-46.54971 -17.40833 5.105264 
15.01736 35.09599 5.301588 
-51.13795 14.77756 7.729302 
-9.629592 6.377411 7.216452 
-12.81332 15.65543 7.747652 
-32.99676 -21.97091 5.137055 
1.503661 -41.89825 4.683335 
-11.89464 39.33096 7.511418 
17.59615 -50.93404 3.160173 
-8.65413 -35.1059 5.637124 
46.62769 36.10368 5.049535 
-33.92684 28.5177 8.133659 
41.83036 -3.352582 4.915975 
-29.52632 -29.89529 5.558697 
22.01166 -24.92124 4.689953 
42.33517 -32.39328 2.943829 
36.71637 -5.666052 5.163104 
-43.77447 15.1165 7.857869 
24.57099 38.50017 5.631601 
-45.50498 25.1489 7.89582 
8.044546 -33.5601 4.836802 
41.39772 18.63968 5.900145 
10.60386 31.83658 5.525963 
28.56191 -36.46885 3.654481 
-25.84416 -4.50349 7.091751 
5.109239 0.1047111 5.438952 
-14.59957 -11.63401 5.702004 
34.40949 -50.76091 2.347063 
26.53299 14.01086 5.421451 
38.20472 42.82032 5.835904 
42.50061 -7.249978 4.602266 
23.49629 -37.75952 3.886893 
-41.93668 -50.75063 4.643127 
-44.32391 -37.25181 6.232573 
31.36416 38.87215 6.132626 
-26.30403 27.66836 8.165333 
26.34979 -27.99306 4.402842 
3.09093 -0.9584287 5.510262 
-2.287339 -18.76804 5.113129 
8.882757 38.04124 5.509014 
-25.56311 2.468451 7.607914 
48.49406 -4.411337 4.069555 
14.28649 -28.0264 4.755721 
48.23487 9.656785 4.771951 
34.52794 10.58528 5.780519 
-25.10341 -46.61221 5.462803 
11.36924 10.72236 5.402248 
-9.265508 -42.00524 5.311004 
13.92218 -13.57141 5.030179 
-38.97186 -28.21843 5.507868 
19.15665 -29.67779 4.469117 
45.6834 43.29256 4.847225 
39.97771 -25.06582 3.61401 
-40.43935 -11.76116 5.768679 
47.35857 -8.671717 3.959355 
-12.11717 -42.01664 5.483115 
13.59604 -30.1277 4.739681 
21.87468 43.6958 5.535337 
-32.27709 -16.35492 5.444872 
43.98873 40.77033 5.228333 
-6.088007 -7.080875 5.690113 
29.15892 -21.38391 4.649549 
35.06115 -34.71344 3.317675 
-47.34972 35.40942 7.924788 
-39.58368 -22.55529 5.125665 
30.65968 8.76188 5.547871 
-10.3194 -37.82951 5.670102 
-31.50578 -33.80239 6.066202 
17.5827 -28.66089 4.565954 
-31.15433 32.0897 8.091084 
26.48656 34.48292 5.704669 
3.988726 36.82154 6.019271 
-24.22667 -24.31966 5.1593 
19.97498 26.34 5.304037 
-18.54504 -41.15457 5.906261 
-1.006272 -37.16467 5.154374 
22.12936 33.66103 5.412738 
21.50497 41.10973 5.473075 
26.86112 -24.6857 4.564612 
42.95313 37.59409 5.529154 
41.73273 19.08794 5.879933 
-11.3536 -45.60032 5.04773 
-31.99851 38.62928 7.904615 
-44.90292 -32.14487 6.0763 
-51.14705 38.66761 7.877937 
-25.05313 -51.91176 4.679845 
-49.39023 -37.67178 5.947459 
22.37556 -34.86164 4.164478 
23.53264 -41.37854 3.597072 
-45.75874 -27.23616 5.5502 
0.297396 4.607027 6.114023 
-17.10412 21.16671 7.993302 
40.95918 15.36357 5.854421 
-49.54531 -12.86424 5.233054 
-22.2408 -43.57449 5.809401 
9.261787 -14.50607 5.038892 
-47.16684 -0.9819126 6.926504 
32.75311 -26.89029 4.081819 
-37.42674 21.72071 8.104386 
