ply
format ascii 1.0
comment VCGLIB generated
element vertex 1660
property float x
property float y
property float z
element face 0
property list uchar int vertex_indices
end_header
-5.609902 -23.7763 5.182458 
-45.52758 -24.84862 5.30704 
-21.22283 -30.54721 5.573853 
-14.31769 38.09809 7.6436 
5.622704 40.01597 5.69644 
-3.313046 40.53352 6.71303 
-23.70839 -0.7972419 7.380389 
-32.0971 -35.49488 6.220881 
-33.07724 29.81553 8.123318 
-32.43324 36.60526 7.960403 
-39.87429 -23.8274 5.166832 
6.78392 -10.55914 5.107513 
43.95528 38.3432 5.353659 
-9.590508 -4.667518 6.205819 
-38.70424 9.205746 7.834915 
-2.087999 -12.54787 5.209109 
48.81513 -49.26704 1.848902 
46.91851 -25.96371 2.979066 
15.26515 16.92783 5.313405 
-34.56872 -29.70293 5.604502 
33.6554 40.62152 6.170442 
-11.04102 -13.09769 5.436065 
35.57157 -48.7703 2.399746 
35.81998 15.90965 5.975996 
-47.54876 -28.00835 5.679275 
-27.83526 -48.68561 5.182264 
-19.06393 7.295532 7.704851 
-45.94376 41.2586 7.959418 
0.3192893 -49.15272 4.143862 
-30.35896 -20.75307 5.175496 
-23.24582 -8.485811 6.479839 
-27.28745 36.25337 7.97045 
-38.21839 -35.11786 6.290818 
1.081447 -31.8408 5.233678 
-18.05337 24.63893 8.027568 
-39.54504 -11.81503 5.800226 
-6.544042 -39.27014 5.365879 
-9.529978 25.32703 7.661615 
9.078501 40.18414 5.43832 
-51.32536 1.016625 6.742222 
-31.2473 -19.47622 5.224649 
11.58902 8.833278 5.358145 
38.65476 11.93864 5.85998 
3.82854 -34.16402 5.025054 
-0.1081675 -19.74416 5.112593 
2.170209 31.69184 6.484287 
-44.10136 -39.1063 6.128832 
44.23883 14.41203 5.487953 
3.889004 -10.29731 5.103507 
-33.1943 -51.23956 4.782876 
-16.14304 25.21823 7.959526 
-44.78072 -7.404848 6.140769 
-8.218592 -44.99732 4.944695 
-40.90511 1.797708 7.500535 
33.92865 -42.69274 2.843701 
-1.176695 -34.73988 5.274258 
-25.0241 32.16392 8.068806 
2.490109 5.981718 5.962705 
-16.09553 1.138516 7.275397 
29.80952 20.56724 5.711744 
-16.90954 -20.28975 5.112353 
-36.22387 -11.62696 5.950995 
20.89942 34.81095 5.371944 
-28.09703 15.35466 8.09244 
-1.667043 17.0108 7.013542 
8.77151 -18.3623 4.957917 
-26.11433 -33.09721 5.901324 
-17.43121 25.25978 8.004687 
23.71425 39.62932 5.58999 
-29.13707 -45.45647 5.693964 
45.68122 -35.73045 2.546427 
37.63525 -30.79471 3.402546 
43.81521 -51.42332 1.946025 
-8.786489 9.478891 7.346271 
-29.19407 -48.78476 5.174045 
-7.318965 -5.026505 5.979273 
-12.82937 -47.05835 4.949867 
38.12891 12.70684 5.899355 
34.56435 -40.00934 2.981791 
-12.6398 5.977528 7.306861 
-32.68182 -52.22099 4.646246 
5.013571 -13.64157 5.001066 
-0.8327358 -40.39558 4.927274 
39.73715 17.92239 5.998488 
-2.535963 -51.82069 4.015562 
26.38601 -22.33791 4.690942 
43.36057 23.86582 5.755236 
10.33129 20.9931 5.612885 
-19.35908 -8.703757 6.299739 
19.88418 1.774015 5.16402 
-37.61677 0.5984305 7.488743 
-26.3817 1.837833 7.583251 
-25.40797 -40.11555 6.224587 
-29.66342 -12.80156 5.892145 
24.61236 -40.80516 3.574548 
33.90035 -43.71184 2.779998 
-10.96322 -48.25223 4.724692 
-10.34375 32.50568 7.613523 
14.1363 30.93965 5.350242 
-16.87882 -1.712229 7.072794 
-30.90205 29.34033 8.147628 
-41.108 -16.19564 5.287453 
32.66796 -18.98011 4.623473 
-29.83073 -9.144436 6.468948 
15.95954 26.25184 5.316948 
40.0073 29.54807 6.08921 
42.07024 9.624251 5.559205 
-45.09071 21.65409 7.895142 
9.50705 5.659211 5.38738 
-47.04395 23.40896 7.864592 
-46.97652 16.38012 7.80562 
16.0764 -36.13566 4.374643 
28.96273 -10.10603 5.080963 
-50.70155 23.03749 7.838475 
-20.38775 -22.96174 5.099801 
47.72681 41.07277 4.669628 
-18.06924 5.571368 7.600209 
-49.91858 29.72132 7.8968 
-8.662017 -30.09196 5.471202 
10.98293 21.8371 5.563291 
-4.721593 -23.51795 5.176268 
32.02208 29.27046 6.056582 
-5.875675 -41.08527 5.182148 
-42.84684 -34.69313 6.256676 
-6.677586 4.166776 6.850097 
33.346 8.73199 5.68161 
-19.03848 -41.75871 5.877677 
33.7648 17.55291 5.923837 
8.70391 -27.23051 5.004746 
22.10434 42.84956 5.53593 
-39.88465 -11.99434 5.760754 
11.92656 -48.54089 3.65884 
44.82617 25.22522 5.557077 
-15.47757 19.40439 7.919413 
42.60735 17.68798 5.762672 
0.268073 25.92256 6.869359 
45.07986 37.78328 5.214047 
32.16803 26.63258 6.015391 
15.69517 -3.89289 5.111758 
-21.64397 19.5609 8.093058 
-15.93009 12.09943 7.713344 
13.79203 -40.04196 4.232317 
2.295364 -13.44464 5.063568 
28.22933 -5.803106 5.173784 
-6.128355 -32.84898 5.51762 
34.93201 38.30423 6.201797 
-52.04084 -5.541961 5.749285 
19.64495 -4.310267 5.100014 
38.3117 -50.94341 2.174097 
-1.04899 -2.622877 5.684994 
39.98489 36.26105 5.947234 
14.32582 13.2672 5.313067 
-20.44841 -24.27979 5.110459 
39.46729 37.40694 5.957874 
-25.52166 -51.84447 4.694512 
-7.861494 -33.82495 5.59421 
19.75573 17.80404 5.271583 
36.29776 -2.881759 5.314156 
0.8671747 -41.9791 4.711019 
-10.78036 23.5396 7.730071 
-49.29978 -41.79974 5.508735 
-43.67229 -16.22584 5.218548 
-12.63291 -39.15757 5.735866 
-4.747186 4.400686 6.677021 
7.451398 4.894608 5.480494 
-30.08999 19.32434 8.129896 
-2.345499 2.505603 6.243329 
1.012496 23.67568 6.784293 
17.71099 -50.6749 3.175243 
19.08139 -33.98643 4.373089 
43.64153 30.49442 5.661444 
-17.53693 32.45037 7.8966 
-22.11922 -48.25034 5.147053 
-42.88341 15.63418 7.889473 
-15.89339 5.392558 7.492832 
16.75653 38.43781 5.287895 
-0.9727508 18.18056 6.965135 
-3.133297 6.726485 6.680166 
-21.43024 -45.00689 5.591987 
9.368391 -46.45208 3.962799 
-30.1731 -27.30166 5.309901 
15.56657 33.73417 5.300912 
26.08533 22.5289 5.495661 
-42.14561 24.82316 7.977192 
23.25697 18.12175 5.33536 
-32.85112 32.27221 8.074539 
-52.49913 16.66781 7.747802 
-48.13548 9.434751 7.655378 
3.127226 -37.39834 4.897756 
-45.05124 34.70811 7.888414 
24.72711 -39.53307 3.66907 
-13.16662 -15.51287 5.327477 
11.40385 -39.4472 4.376713 
-20.08035 -51.48851 4.646845 
-1.635403 28.74133 7.054923 
-22.71976 -40.42604 6.125958 
30.17378 23.81445 5.800436 
-42.94991 -52.88401 4.317583 
36.02346 44.37698 5.939883 
3.169139 -12.57712 5.036663 
37.00085 -25.92841 3.810126 
-22.7859 35.42706 7.943373 
9.434858 -17.64157 4.95357 
-7.823505 30.96886 7.510212 
48.10091 36.38776 4.814488 
-42.13895 -45.88012 5.355575 
-39.95313 -52.41545 4.477289 
17.70407 42.3741 5.320165 
-3.719942 37.86755 6.945112 
-1.402303 -11.26763 5.221208 
30.50829 34.60424 6.034831 
-51.51968 29.92805 7.92391 
-22.84328 -52.45742 4.575056 
40.28596 35.86327 5.928241 
-41.562 -26.22716 5.35122 
-20.89699 -47.35983 5.239892 
-27.76424 -0.005801005 7.488316 
38.6161 9.351139 5.767722 
35.51424 -37.10269 3.116462 
-28.37099 -42.20983 6.117812 
-17.9039 -16.14998 5.384806 
22.56454 35.76806 5.459387 
43.57233 -8.06988 4.431255 
11.09222 -49.02215 3.659339 
-48.53687 -15.6086 5.12351 
-24.77659 2.369347 7.592379 
-31.89125 32.37583 8.079586 
-48.79819 -31.13333 5.996233 
-15.51595 29.84468 7.880929 
36.39853 -27.99666 3.707183 
-47.35541 30.52239 7.880292 
-43.25838 -3.694063 6.855041 
-25.03842 -13.67301 5.753588 
-12.30326 4.103975 7.211549 
-37.842 -44.84951 5.680208 
-3.452285 -25.18398 5.225645 
19.96014 -3.770875 5.106767 
-17.856 27.54242 7.997536 
-28.54509 -32.3933 5.841339 
-11.45058 -37.05997 5.750651 
39.28063 -34.48425 3.028663 
36.62208 -28.27833 3.667681 
26.18423 -39.96553 3.539449 
-20.73046 -39.92453 6.083046 
35.70589 -23.41924 4.105502 
-49.5035 -52.02246 4.148616 
-51.14299 -12.37546 5.197614 
-21.28924 -37.84854 6.14326 
9.549782 -31.27466 4.859696 
32.04594 -15.93853 4.820207 
43.38401 31.93573 5.664224 
11.52605 24.22027 5.525499 
-40.79412 -4.089222 6.94962 
-42.9166 21.70925 7.950775 
14.72954 -15.22062 5.007142 
7.372468 -8.549053 5.13476 
3.716217 -43.55001 4.44987 
37.40663 30.78576 6.227077 
2.813556 8.976112 6.099258 
-38.53362 -36.72867 6.360722 
28.09812 8.556892 5.420018 
4.30417 18.59857 6.276388 
42.0647 -20.78876 3.723284 
-46.51794 -32.14399 6.078237 
-47.57706 -40.48808 5.789898 
-0.2395847 26.1581 6.930337 
-6.368658 17.24108 7.42335 
-12.59862 0.3798059 7.012946 
1.850345 32.30528 6.505817 
42.69768 -12.0687 4.2609 
-43.51999 29.39344 7.922266 
-28.22755 16.17823 8.097594 
-17.48302 14.90292 7.879272 
3.018544 9.142519 6.083066 
28.50265 29.52371 5.774663 
25.23895 1.832717 5.233911 
-35.61738 -4.413852 7.092599 
-15.7506 -21.84214 5.071531 
-36.34706 13.51219 8.002632 
-47.5943 3.789623 7.405935 
0.2577744 -8.788076 5.195078 
3.579848 -4.248079 5.316508 
-17.77868 22.60556 8.020923 
18.4009 -43.42383 3.738811 
-37.44839 -17.81915 5.253758 
2.724584 -36.26602 4.984591 
-10.42994 -6.959293 5.999744 
26.60699 -34.78009 3.918629 
40.1958 40.20415 5.758462 
-8.389432 41.14845 7.207374 
-47.3787 13.28355 7.752514 
21.47591 -11.27604 5.010192 
-42.90307 19.40277 7.935567 
-27.16045 -20.66897 5.18638 
37.36253 -4.96631 5.169296 
7.330862 -37.70109 4.662085 
-5.367454 -12.21313 5.25393 
-51.7473 3.069882 6.963429 
-25.41547 -5.781801 6.927559 
18.41601 0.8718442 5.152029 
-0.6701031 17.96387 6.924244 
-38.34482 12.27331 7.933374 
-20.85154 18.55966 8.060583 
-34.31341 -7.274199 6.716769 
0.09147681 36.47362 6.546763 
12.12258 9.314016 5.342661 
27.83316 6.376339 5.376848 
-2.796021 5.405911 6.53924 
-18.03922 2.637721 7.448768 
-10.93384 -35.81736 5.734165 
-31.50184 2.600614 7.642423 
34.6363 34.55437 6.238021 
-30.93984 -20.75183 5.173314 
-21.20459 -41.3289 6.005382 
7.478309 -46.17429 4.074584 
-51.82362 11.99889 7.641835 
35.06115 -7.411764 5.137398 
46.33194 -1.540239 4.500677 
-10.6655 -46.43935 4.916169 
-22.29218 9.695385 7.878151 
-12.27105 40.65901 7.483116 
26.80414 21.4173 5.523673 
47.15006 35.00375 5.009583 
20.96599 44.09662 5.486064 
39.33672 33.94868 6.073501 
31.52642 -15.24769 4.870697 
45.89651 13.49897 5.237825 
17.90966 -23.79475 4.788786 
48.09515 -24.50355 2.968437 
-0.2317922 -2.670982 5.628825 
-40.09685 -31.9908 6.003069 
13.38951 -3.81689 5.128212 
-32.55626 -29.13196 5.507207 
-26.63755 31.00325 8.1113 
-33.99527 -7.523368 6.683878 
15.38659 -35.95935 4.413199 
28.65109 1.400122 5.325442 
-23.84314 -29.56192 5.464974 
1.973126 -39.35587 4.839017 
-4.378204 26.73723 7.334018 
13.85395 26.82143 5.384348 
-47.68201 -15.74035 5.13987 
42.02054 35.80999 5.726264 
-40.17959 -24.88129 5.226494 
31.91823 -24.14306 4.337737 
47.9946 -39.58627 2.247514 
-0.8189899 31.35714 6.895967 
23.3418 28.58784 5.419387 
-37.9073 -41.73276 6.107593 
-21.56383 -37.70635 6.149976 
13.41711 -16.18259 5.013006 
1.597951 10.99722 6.363259 
-30.0453 12.7837 8.044391 
33.75415 15.41384 5.870797 
37.42604 -48.32825 2.337522 
-34.0226 28.0628 8.138693 
48.12594 11.10852 4.838769 
12.33945 -30.14251 4.786937 
-7.732437 -16.74456 5.17834 
-17.61595 -49.31536 4.860086 
43.28035 2.139124 5.077378 
-10.5319 30.03812 7.664934 
28.56643 -5.738304 5.182141 
37.96214 24.08018 6.177344 
41.08926 -47.60861 2.210637 
-28.16169 -25.63262 5.201491 
-8.679358 -9.573215 5.621885 
21.85385 40.89804 5.490207 
-14.34383 -18.91492 5.125237 
45.95911 -25.83672 3.060568 
-20.48132 16.98886 8.00575 
36.15277 29.11672 6.238883 
23.07088 35.50724 5.48385 
-47.85823 -43.7288 5.349293 
-49.88491 -25.81419 5.499448 
17.00218 29.76265 5.296818 
8.955739 -30.80845 4.901535 
-39.06419 -20.22488 5.130718 
43.60931 17.91668 5.65299 
28.54874 -4.450408 5.209462 
-11.34365 -47.51985 4.825528 
22.09633 -5.25506 5.097619 
-23.47632 -7.905214 6.576167 
-39.32412 -1.030952 7.344103 
-29.39239 -41.69802 6.182822 
0.00402879 -16.69945 5.108691 
45.04678 -11.73231 4.028454 
33.06841 37.75294 6.196778 
-45.73969 -33.0639 6.144368 
-50.28065 -24.82383 5.412613 
-27.76392 -44.78647 5.780467 
-21.0417 18.61101 8.063987 
-48.17265 -13.7679 5.229303 
40.73762 5.953327 5.510771 
-2.278995 -43.13323 4.789974 
-19.57313 23.37029 8.07489 
-0.4016681 -21.38653 5.13143 
-29.70245 16.06506 8.115886 
-4.883839 31.9891 7.292909 
-2.097231 29.22968 7.096623 
28.81199 -11.56073 5.039608 
39.43207 -43.87288 2.470708 
-10.26014 39.80498 7.408483 
18.18728 -34.71968 4.368505 
43.91553 26.21879 5.680391 
44.30939 -13.03889 4.022865 
28.07071 26.0452 5.677381 
26.81077 36.38626 5.766439 
-40.73399 3.757385 7.599809 
-40.56052 -21.30216 5.111222 
26.81126 -4.227752 5.175899 
-29.64686 11.70877 8.013697 
-39.94967 -7.693129 6.42428 
-2.708428 -4.05219 5.671086 
31.67624 -19.48287 4.645354 
-18.59908 -41.19231 5.905565 
2.255187 -44.91804 4.413344 
-9.381868 -29.15016 5.424353 
4.068983 32.44962 6.195294 
7.285229 39.69788 5.57173 
6.174533 -31.25263 5.013269 
26.03313 -43.4623 3.273475 
-48.69664 -12.63153 5.285063 
3.492879 -22.16506 5.124676 
26.42235 -28.8329 4.347649 
17.43365 -30.49054 4.551366 
-48.00901 33.2832 7.909103 
27.56717 -31.29899 4.11515 
-11.32069 6.936216 7.317418 
39.3575 -2.073344 5.205928 
18.69004 20.57507 5.279099 
41.30612 -45.32473 2.306628 
-34.21165 33.27639 8.036276 
22.21606 -4.417962 5.109438 
16.84732 3.453857 5.14661 
-19.53624 15.25314 7.916306 
35.56929 -47.76683 2.453802 
22.21743 -23.49576 4.734886 
33.36015 9.497889 5.701975 
27.89012 -0.415641 5.269462 
-35.58855 -12.61029 5.827482 
1.717555 43.07374 5.910829 
25.34969 19.55491 5.426044 
5.997095 2.635841 5.48889 
-50.30329 -5.802768 5.883717 
-41.42551 -27.17994 5.443258 
-6.873731 19.11469 7.485176 
-46.70598 -8.906281 5.778159 
-34.1677 -12.48897 5.878829 
6.831343 38.69417 5.644775 
7.829119 31.97042 5.762296 
8.19832 30.83135 5.749964 
-35.19281 -24.89869 5.18891 
-4.897154 13.41342 7.213873 
36.54583 -43.11631 2.667105 
-42.27773 -47.1778 5.152384 
-29.8296 -35.09294 6.167403 
-42.94583 22.96044 7.954335 
-25.10791 30.37604 8.109989 
44.70744 13.65157 5.403985 
-28.4949 9.649579 7.945095 
-37.83721 36.77884 7.910985 
-51.34322 -9.750683 5.375804 
-19.59993 -31.25195 5.637526 
-25.4092 -0.9369217 7.400092 
29.43606 21.05898 5.693142 
-8.348692 2.552812 6.839602 
-5.644767 42.37564 6.840779 
-49.73967 -5.68383 5.953182 
25.05617 -2.827517 5.165205 
44.07825 39.31136 5.290009 
9.25013 -32.61931 4.820924 
19.11755 20.84388 5.279707 
-23.37561 10.00273 7.910347 
44.47681 -41.12148 2.35189 
27.00103 -11.33491 5.034427 
-33.088 26.54012 8.165403 
23.67345 -51.34858 2.817559 
-35.24615 -4.094058 7.136193 
44.38906 -34.98054 2.662398 
-8.715047 6.755291 7.194131 
45.94782 -43.47621 2.178518 
-18.27152 30.65357 7.959674 
-22.22443 30.34945 8.065683 
14.15825 21.98372 5.373967 
6.464525 -35.03738 4.846584 
37.61681 -4.683774 5.170869 
-18.69866 -49.51947 4.869038 
-17.1804 -11.4595 5.827763 
-37.09983 2.857801 7.613428 
-33.98855 13.48543 8.035737 
-22.99103 -39.71239 6.171076 
-7.178444 -43.22755 5.065001 
22.94856 -48.24554 3.085256 
8.662618 0.04342668 5.241279 
-7.54238 33.30787 7.448263 
46.7447 10.63539 5.022432 
-23.35421 31.24288 8.067184 
-9.184677 18.40432 7.612404 
-6.598336 -52.74303 4.079317 
4.923181 -4.315796 5.210542 
-26.78843 7.598403 7.858866 
-40.16963 23.00679 8.035272 
-41.9384 22.1382 7.980229 
-17.60729 38.55618 7.732512 
40.25556 -46.73149 2.288068 
13.07311 39.59728 5.298624 
-25.47404 29.21433 8.135505 
-33.82064 30.38511 8.104403 
-45.03668 8.015698 7.674305 
-26.89619 6.925349 7.831684 
29.718 -14.53707 4.937546 
6.261227 -18.05129 5.027187 
11.64694 -44.16385 4.035468 
-7.069736 11.56115 7.315236 
-47.18727 -35.09591 6.173941 
27.50653 -32.11358 4.059918 
32.24018 -25.65665 4.209084 
-1.481668 18.1518 7.020652 
10.81832 -52.31209 3.383944 
49.17767 -41.68768 2.108546 
-51.22368 -6.570199 5.704415 
-50.90027 10.1063 7.604712 
27.48563 1.705284 5.292495 
9.711289 4.396726 5.346538 
-49.782 1.241616 6.961067 
-9.396832 -46.62231 4.832106 
29.56631 -16.15344 4.876468 
-52.59405 18.03614 7.772848 
-4.312051 33.55748 7.200383 
-45.90392 11.7998 7.750825 
-0.6600308 12.19227 6.716462 
39.61877 -16.16499 4.285221 
-5.638333 -51.12077 4.205016 
-28.31904 28.2665 8.167584 
-0.3729544 -32.00199 5.294473 
-15.7347 8.62616 7.558645 
-40.91619 27.65078 8.001053 
-37.68015 -16.83046 5.317949 
20.34952 28.23152 5.317213 
-28.18619 -13.63872 5.778483 
27.13504 25.63108 5.602896 
-2.5288 0.2323874 6.057517 
42.06615 -7.840364 4.609487 
-40.42881 -29.3142 5.671537 
-50.51102 -6.307873 5.799209 
43.89809 -2.34095 4.751204 
-10.87536 25.31961 7.72999 
37.20936 -3.891306 5.23134 
-0.7977567 -16.51641 5.11561 
-48.25216 39.46452 7.970026 
10.3393 10.9338 5.464686 
-24.17089 -0.3144856 7.422213 
22.27719 -23.43616 4.735726 
-42.20235 25.78966 7.97362 
29.24889 15.58797 5.588249 
36.03417 -12.05482 4.845181 
-29.80483 -2.744436 7.30303 
-21.16915 -14.61377 5.583115 
-51.24831 -17.20316 5.048063 
-36.19651 -12.80566 5.783254 
30.07064 34.50351 5.999475 
-45.09094 29.10521 7.895023 
39.12207 38.67076 5.943045 
29.41882 8.809554 5.485834 
-32.8847 12.04975 8.008062 
-37.66897 -19.00383 5.186525 
32.55549 -9.440608 5.101508 
-27.57799 -37.389 6.296041 
44.74355 -1.923552 4.675644 
-23.30907 30.94255 8.073285 
12.98543 1.328058 5.124807 
-26.33386 26.32341 8.17859 
-42.51916 1.785184 7.46216 
21.43727 -18.21414 4.884668 
15.9135 -5.338006 5.096004 
25.47686 7.843699 5.312778 
-48.89263 -21.95965 5.16524 
47.62254 35.58999 4.916831 
42.67585 11.76853 5.580245 
33.63467 3.156598 5.536853 
-6.663303 -26.32037 5.272687 
-4.619947 21.68316 7.35459 
-45.24684 40.8144 7.955537 
-44.62339 -45.3769 5.30743 
3.458352 -25.76174 5.16487 
-26.86507 -1.781413 7.358019 
-43.82618 -3.712723 6.810756 
-21.2911 14.52576 7.904864 
33.21178 11.30294 5.740674 
42.31515 -20.92414 3.690463 
-14.26203 28.0089 7.859664 
28.65013 31.63301 5.827519 
-14.7271 -36.7093 5.894038 
-25.81818 -13.65036 5.764535 
35.25843 -23.72668 4.119537 
22.80871 24.9531 5.368009 
8.002515 -7.767781 5.138357 
-15.07708 -8.211208 6.145307 
-9.245933 -4.180689 6.235212 
-11.76533 -16.20565 5.191616 
-27.99742 -38.83074 6.320374 
10.11546 9.559287 5.447392 
26.71749 16.00425 5.453293 
-5.510405 33.65464 7.298867 
-19.42865 -35.8859 6.026142 
-12.09532 13.12904 7.652173 
2.549945 -18.59258 5.0977 
-43.56698 -4.119245 6.768874 
-24.71778 -8.83248 6.464964 
-41.32339 21.32075 7.994411 
46.28728 -11.29657 3.919565 
-12.28248 20.1924 7.789745 
3.583834 6.347994 5.867413 
46.71312 40.7252 4.834314 
-41.8772 -47.26882 5.156106 
14.97692 0.9539762 5.149449 
-15.69622 -20.34341 5.092033 
3.065868 -31.91116 5.1408 
-33.87077 38.47564 7.902249 
-2.479582 36.9347 6.853054 
-46.66696 -10.76343 5.559232 
-11.31665 -49.07954 4.646536 
-0.465333 16.41061 6.858851 
-13.94851 20.07452 7.863344 
-15.49111 -7.398838 6.280863 
-13.48484 -12.873 5.53671 
-4.447588 34.98824 7.161995 
-6.758842 -27.41157 5.321517 
-2.404351 -47.51855 4.40945 
34.3797 -36.11764 3.265589 
13.73821 -17.79636 4.988725 
43.14942 -43.2108 2.319489 
-42.1599 -41.66251 5.956732 
-48.63374 38.4512 7.976673 
30.37262 -0.4407149 5.345147 
29.24276 13.45385 5.553298 
-0.1883093 -11.99995 5.163176 
-18.65019 -46.17375 5.32436 
33.11823 -7.81104 5.159144 
21.97641 6.833472 5.223409 
41.57646 2.81818 5.28777 
-50.6241 -23.85521 5.333878 
-15.70836 32.96854 7.822878 
34.78308 -3.042281 5.334168 
4.196007 37.8768 5.943141 
-9.910034 -33.53712 5.656094 
-31.16711 -20.74015 5.172728 
-8.860666 4.62319 7.049896 
47.53284 -39.67999 2.266019 
17.88083 -36.79778 4.256792 
-24.57263 8.868668 7.886883 
-16.03282 -16.37921 5.333967 
-20.69629 0.07794493 7.368843 
-35.01056 -31.29041 5.817092 
45.71055 17.63041 5.366991 
-36.91405 -5.983256 6.841999 
-45.11252 -41.33204 5.841352 
-31.79968 -22.89569 5.136624 
-13.5598 -27.88566 5.34902 
-3.723595 -6.481608 5.573075 
-12.19264 -10.89695 5.671338 
-30.49756 -52.79924 4.579001 
-22.32111 -35.65314 6.085152 
-20.07414 -49.77136 4.875968 
40.03626 -30.69571 3.221003 
-25.15036 -7.271709 6.714552 
-4.054318 13.79151 7.153731 
14.53617 19.67443 5.352681 
34.15303 17.02468 5.933517 
39.49137 -9.407766 4.756484 
2.893232 -40.59473 4.703965 
-32.51793 -17.81243 5.319364 
34.40981 21.45816 6.052112 
2.375438 24.60821 6.59612 
29.5814 21.56578 5.712942 
-49.81886 17.31398 7.781677 
23.55394 33.93105 5.491195 
-6.176835 -7.545777 5.65776 
-37.62351 38.20832 7.887672 
7.758411 -25.76404 5.055848 
-7.105379 -0.6119171 6.403767 
-6.182713 -6.506369 5.74787 
-27.05589 37.96403 7.91428 
-2.958523 -40.17924 5.072898 
-39.28526 -28.34967 5.529552 
-4.362757 -47.65765 4.485943 
40.94342 -41.47213 2.517656 
-28.02865 -4.512319 7.120316 
-7.936446 -5.930141 5.931871 
10.56709 4.061419 5.30358 
-21.25696 -42.01324 5.946343 
-30.03164 -16.35615 5.462573 
-9.123044 26.39656 7.634331 
-16.43434 -17.35918 5.280126 
26.63422 -31.85226 4.133519 
38.73111 2.171745 5.457638 
7.770049 -21.25187 5.062198 
29.60569 4.578995 5.419333 
-38.42281 12.88884 7.947434 
-20.05634 20.52191 8.075813 
-30.26555 20.86938 8.107762 
17.29364 -0.7679524 5.137558 
-15.979 -4.425676 6.714698 
-43.75534 -39.57813 6.104622 
36.603 29.55611 6.241385 
1.732923 -34.34589 5.130537 
-51.12649 36.79842 7.9497 
-5.982194 -46.49731 4.674776 
-6.355108 -19.5177 5.126608 
-42.99454 -38.55782 6.216576 
12.11488 30.6864 5.443582 
37.64824 -44.54565 2.526233 
6.847449 -21.03505 5.078876 
-22.70637 -5.981249 6.83 
19.72964 42.41957 5.398304 
-12.92281 -42.59723 5.472251 
22.23058 -32.68288 4.311827 
-38.71759 -40.63519 6.199513 
-40.83742 37.62851 7.880868 
-49.92906 19.03986 7.801431 
12.16758 -40.11809 4.300247 
12.6812 29.09709 5.42838 
-46.46428 32.00368 7.884391 
-25.61688 -18.58387 5.288021 
-39.58769 11.44828 7.884625 
-25.70907 -32.93575 5.878371 
3.553818 23.85728 6.432209 
34.84947 21.90267 6.085345 
-23.09073 -20.01294 5.207149 
10.12242 38.62739 5.420022 
-18.22484 -7.073962 6.48313 
-24.47326 30.91596 8.091103 
19.00372 29.05131 5.299428 
13.81508 -20.92068 4.898608 
-47.8171 -25.25468 5.394202 
26.31394 -13.88024 4.969789 
-28.39656 6.504194 7.821889 
-31.50587 24.20875 8.179325 
-37.95175 36.28969 7.918799 
40.27434 -34.7061 2.945676 
-2.526527 -29.76149 5.354144 
-45.36388 24.15509 7.897716 
-10.24548 19.91458 7.686493 
-8.685405 -50.63012 4.373132 
-33.48153 6.156857 7.793818 
-26.26081 25.88803 8.181289 
-38.33163 12.90347 7.949812 
-44.86779 39.85415 7.938127 
-43.3462 -18.92055 5.114224 
-14.95954 -3.55027 6.758275 
11.24347 -17.97519 4.968044 
-27.10426 -38.5678 6.303844 
-19.0874 39.55647 7.741888 
-27.28129 -12.1647 5.981412 
-49.88118 -21.13567 5.135897 
-50.97406 33.61731 7.960931 
12.93096 -27.99518 4.82597 
-14.49306 9.119591 7.536326 
-40.61227 -52.07555 4.503359 
44.34596 23.45003 5.624341 
-10.85917 28.59535 7.700724 
-36.22093 28.67236 8.096626 
-50.83585 32.9714 7.953348 
-3.672019 -4.180195 5.730065 
0.9327846 31.61896 6.658487 
-0.4290314 -50.33971 4.068304 
0.8070579 20.73542 6.792185 
11.78998 41.29193 5.306316 
3.565816 -24.76202 5.153484 
-1.238743 40.82546 6.427071 
-30.98049 33.34377 8.059961 
41.68552 -15.24872 4.146986 
-8.390217 18.33851 7.566618 
33.71548 0.7256424 5.46401 
-39.6814 -24.29498 5.187214 
29.41166 6.247903 5.441154 
47.19062 11.27933 4.981236 
-14.40833 29.69845 7.840579 
-13.96067 10.55026 7.602324 
-43.08273 38.64302 7.893774 
-42.82045 -19.14287 5.115402 
-33.14423 9.935078 7.939327 
2.8522 -22.73441 5.136891 
-23.85977 21.67621 8.149523 
-11.72314 -15.44711 5.276115 
45.86647 -2.09524 4.527508 
8.458556 -23.50888 5.052095 
39.67136 31.35638 6.094971 
43.40762 14.58618 5.593189 
11.91332 -8.377771 5.090573 
-19.05919 -10.71461 5.99898 
18.29483 -13.99323 4.98544 
-38.4791 -46.4966 5.403965 
-14.1793 29.63883 7.832407 
-6.585693 -2.57864 6.16061 
-4.868766 7.16989 6.90002 
22.94862 26.59099 5.385405 
-17.60932 -31.91767 5.686507 
31.24531 -10.7847 5.06153 
-19.52818 -13.80079 5.632838 
19.02841 -31.88695 4.459601 
36.62072 -23.10273 4.052007 
36.11246 37.04034 6.196148 
33.66196 1.805007 5.496754 
-18.81397 9.897202 7.749216 
-25.5722 -38.85638 6.267822 
26.8866 -20.94133 4.737103 
19.74471 -45.99126 3.448728 
14.24661 34.95004 5.316934 
-3.242776 34.20605 7.072066 
-2.656605 -17.2547 5.12187 
-42.7266 -1.534953 7.173 
-30.12894 14.71732 8.09306 
27.99763 28.22247 5.709832 
13.95931 -13.11332 5.033746 
47.64641 -22.18277 3.13274 
44.27242 -10.3587 4.203369 
-30.8383 -2.663581 7.31185 
-17.30871 -2.148619 7.050411 
-47.512 -52.70953 4.157291 
-50.31295 -0.4469801 6.659573 
-44.15533 17.07182 7.876368 
-31.11666 -12.46975 5.929783 
-14.23052 -27.34443 5.313143 
-8.17127 -28.85312 5.401357 
31.38378 -7.552198 5.172793 
19.84195 -18.87151 4.887934 
3.535539 43.34893 5.71806 
39.46225 -26.41192 3.563352 
-50.90652 31.70829 7.93874 
-14.83636 28.08731 7.881685 
-34.25916 32.93015 8.044155 
43.39279 21.23943 5.732632 
5.221233 -50.89589 3.773143 
-22.97953 -29.26115 5.431793 
-18.36979 -34.53114 5.918903 
-31.16542 10.44468 7.969732 
-38.7954 -35.43745 6.312228 
-34.48989 40.14975 7.865074 
-16.7901 23.93873 7.987519 
-46.42413 -31.19599 5.999199 
27.97058 14.06672 5.492269 
-48.78276 -0.6954408 6.802619 
12.59303 34.304 5.377852 
-37.35276 -3.942601 7.104905 
5.328651 -6.025914 5.203192 
12.77026 -33.5068 4.636134 
-10.05793 3.337445 7.021245 
-7.474248 7.064329 7.128789 
-16.80897 -28.38488 5.378254 
49.26826 -47.30918 1.899437 
-20.63191 -14.22971 5.612594 
21.71767 -7.469664 5.06582 
-4.217732 -30.20452 5.403494 
15.69422 -44.89147 3.768888 
14.6751 -42.31518 4.027589 
13.62203 -5.761449 5.104831 
-20.22554 15.47427 7.93161 
-12.06041 9.999507 7.53254 
-47.86243 -43.57161 5.370968 
39.17097 -14.3254 4.455472 
-32.46762 7.432899 7.853074 
-48.0817 8.637687 7.631948 
-1.113886 -41.03957 4.894759 
-47.46377 1.448946 7.204213 
1.439023 -44.1962 4.509443 
-27.26423 -21.2283 5.167954 
30.16402 6.946559 5.488686 
42.36443 42.52998 5.356433 
38.3022 16.85544 6.01965 
-46.44112 22.09428 7.8693 
-3.778805 -36.63738 5.347092 
7.465762 0.8682502 5.348042 
-14.10609 29.32062 7.834692 
24.62089 -44.56808 3.273791 
-48.87571 -32.12183 6.057285 
33.6438 35.4014 6.216216 
45.09538 -12.54919 3.970389 
47.84474 -35.84939 2.419024 
13.82334 -29.32865 4.754019 
-29.37541 -40.75703 6.261457 
17.03774 -21.09037 4.884018 
-8.479313 6.113918 7.138204 
1.15749 20.27807 6.739707 
45.57878 14.87585 5.321557 
1.848573 8.462825 6.18767 
-19.5636 -43.07748 5.762196 
-8.463447 -42.93395 5.171195 
-29.24581 -21.21635 5.164424 
1.366767 2.469748 5.850649 
16.803 -51.9612 3.117509 
9.060062 0.4818411 5.24654 
-7.845448 16.18772 7.497052 
16.18632 -0.06184052 5.147885 
-42.21039 33.42421 7.908193 
-40.14872 5.744526 7.689143 
29.9609 -2.585208 5.284356 
19.27479 20.57591 5.279251 
48.87611 -30.90262 2.589146 
32.58533 25.27218 6.018003 
19.33337 21.32698 5.282169 
-47.57122 -35.08802 6.160735 
46.90529 -4.042329 4.285862 
14.20202 -28.59756 4.751598 
45.46813 24.06268 5.465281 
32.12415 33.52781 6.131805 
5.394808 -44.23191 4.320879 
-10.33588 21.57641 7.703277 
-0.9769551 0.5786397 5.936449 
-28.95111 -4.057975 7.174567 
-6.083944 30.32767 7.413727 
31.96456 7.042979 5.576443 
-43.52297 35.24783 7.886639 
-40.18553 -32.59153 6.075063 
-3.462796 -51.36632 4.09582 
27.09285 26.69642 5.616394 
-19.99443 -24.15336 5.095888 
-0.3788254 3.585464 6.113398 
-9.941706 -14.27803 5.297883 
45.81619 -31.70196 2.745257 
4.688119 -35.5617 4.912831 
-2.850201 36.96957 6.895844 
18.94149 -48.97808 3.248007 
-43.28527 33.1476 7.897771 
42.17627 43.18303 5.343713 
-25.65771 -32.3133 5.802495 
41.97131 15.3776 5.769141 
23.91783 5.045899 5.243537 
15.01743 -43.69434 3.902085 
34.09257 -40.07442 3.007585 
37.15881 43.57238 5.891879 
-29.92126 -17.36768 5.372833 
-0.5975158 22.68119 6.980565 
36.50792 -23.22243 4.052724 
11.16748 -39.80771 4.364508 
-20.40616 -0.003334995 7.354357 
43.07275 -38.13539 2.574576 
28.89512 -18.14942 4.808736 
36.88068 7.485742 5.726935 
-49.26052 17.39538 7.78782 
28.04374 22.91464 5.624388 
35.15203 -16.16935 4.648822 
-4.430406 25.64419 7.344603 
1.08099 31.34152 6.647428 
-28.11264 22.33116 8.103593 
31.39146 -12.88457 4.978435 
-51.11182 24.71822 7.85655 
46.05531 -14.22194 3.761234 
4.281884 25.54905 6.321013 
-22.8655 3.195226 7.605194 
-29.91236 12.71343 8.042603 
4.567298 -43.88511 4.384956 
2.909147 -39.72929 4.762357 
-18.41473 -52.32379 4.499469 
25.83212 19.90526 5.453091 
-5.759901 11.68503 7.219941 
-42.01293 1.44026 7.45421 
-44.60392 -6.215767 6.34563 
-14.18579 -8.775779 6.018952 
13.66086 -4.412133 5.119154 
-3.918317 -8.892609 5.433736 
9.968493 -2.100783 5.168428 
-28.18742 -12.11578 5.992909 
-21.32141 -26.12638 5.187587 
-13.17462 -47.25109 4.942378 
-14.63376 -45.20441 5.265831 
-42.97945 6.247674 7.656227 
-48.26673 -19.82927 5.081186 
5.726179 -6.227819 5.200314 
13.33775 -48.72718 3.569964 
13.57238 27.968 5.392118 
33.15969 -33.63744 3.539369 
-15.91434 -15.74379 5.374393 
3.872406 -29.44665 5.1512 
-40.76977 11.71441 7.86452 
4.265309 -6.035688 5.208533 
2.316617 -8.753919 5.162043 
-29.0842 8.557677 7.906091 
-0.8333155 20.01107 6.982203 
2.955013 -42.70944 4.548865 
42.69041 35.52692 5.647767 
-12.0626 -5.429981 6.308271 
0.9219736 -27.19665 5.231989 
-28.04937 -25.29434 5.187862 
31.92702 29.45167 6.053111 
24.13922 19.54621 5.375711 
16.3644 13.91899 5.269691 
6.347388 -7.404439 5.170489 
7.872196 -39.56174 4.526358 
9.591917 32.34286 5.593519 
1.977165 -8.537735 5.178659 
37.21758 -39.94733 2.819122 
-44.41184 7.407961 7.667515 
7.259417 -35.50459 4.783465 
-17.29672 -22.72613 5.057242 
47.9698 -37.77109 2.326671 
45.18166 -1.894649 4.623793 
-4.139688 -20.84632 5.127488 
41.72721 -49.64057 2.095353 
16.7633 -35.33155 4.39208 
-7.474409 -48.98771 4.493204 
-47.22499 25.46818 7.868738 
-33.40401 -22.55301 5.133963 
46.59939 5.98679 4.852421 
16.83034 19.89732 5.292524 
27.18181 -27.43067 4.396403 
42.48173 -47.64302 2.150016 
-42.59882 -46.44634 5.248937 
29.6549 -28.64091 4.171748 
16.97451 -9.758635 5.045093 
18.054 -23.77843 4.788779 
17.39148 39.78577 5.29962 
13.26407 11.58671 5.330675 
-1.355511 18.85818 7.021208 
44.99158 33.69906 5.382618 
7.430225 21.39807 5.910225 
-10.98956 -25.47104 5.227327 
-38.88807 -30.61272 5.804889 
34.31142 -4.974499 5.260901 
-2.835161 -19.66627 5.116756 
47.83147 11.91642 4.908401 
-39.66323 -38.9755 6.300938 
31.92775 32.17312 6.100409 
27.1223 -43.81357 3.178791 
1.597944 9.374987 6.273051 
41.97347 -41.8724 2.443039 
36.69949 2.15099 5.522488 
2.350644 25.40414 6.594695 
-21.8492 -1.104599 7.313551 
40.55234 -25.10577 3.561139 
-28.14229 -45.18841 5.725459 
-4.107768 30.29668 7.265914 
18.98339 -42.97279 3.742015 
-4.190386 -21.04112 5.12981 
-49.08393 -26.91054 5.594033 
-14.85007 33.96406 7.76838 
4.797197 27.28041 6.228974 
-3.103148 -47.0477 4.484437 
14.395 -34.85273 4.510604 
15.94311 -44.5613 3.782411 
-44.51578 -37.97729 6.190858 
-21.78629 -40.79469 6.070528 
-23.83105 7.476548 7.821424 
45.61785 -17.9683 3.568697 
38.37862 10.88028 5.830373 
-6.388281 27.11194 7.471841 
-1.127514 -20.98663 5.127226 
38.67175 23.78232 6.15298 
-26.87284 -32.94592 5.889663 
5.683905 18.89214 6.097157 
49.07775 -31.90009 2.529825 
3.197123 -20.73303 5.111305 
40.742 12.55905 5.778564 
-33.45124 11.54095 7.987607 
24.10465 -16.91425 4.897515 
-29.48001 -32.98249 5.928987 
13.73117 -2.447296 5.140744 
-23.94567 -43.71826 5.846394 
-46.93853 23.38718 7.866083 
-32.94691 -24.23233 5.15794 
-2.378005 -43.5276 4.761365 
27.00913 -3.728196 5.188721 
-2.921535 25.90404 7.217431 
-13.18117 -24.42556 5.181448 
39.38912 3.750553 5.498841 
-4.906073 -42.77295 4.972933 
-18.38725 39.96844 7.713325 
32.84998 14.94584 5.806942 
29.78964 -47.91666 2.736409 
9.083456 -0.3130371 5.182546 
31.66565 -24.19828 4.349961 
-34.02178 -31.19497 5.786508 
-11.20795 22.29451 7.749772 
-26.84236 -17.7053 5.351233 
35.24593 17.68443 6.001946 
-1.214849 34.02599 6.844066 
-49.22551 2.009934 7.115195 
29.49208 12.02261 5.544135 
-33.3812 3.241575 7.665603 
2.239827 -2.972723 5.459055 
-10.66521 -51.68289 4.334899 
17.47945 -46.02576 3.575342 
6.356862 -24.03093 5.097422 
45.07798 -7.388489 4.302444 
-31.41992 -6.98729 6.804145 
-44.87742 -19.46703 5.091775 
8.277899 -51.14371 3.609442 
-38.87922 -14.39728 5.509574 
42.49704 34.08397 5.72254 
-37.90161 -36.93137 6.369314 
-41.36172 7.774961 7.737639 
-34.67916 -17.42078 5.323051 
45.54876 32.39375 5.337166 
19.69855 -34.47546 4.318118 
43.92661 -33.32189 2.781836 
8.313832 15.59265 5.728961 
-31.21519 -43.60635 5.968084 
40.97504 -21.95144 3.744233 
20.10531 28.87527 5.314757 
36.17966 24.7792 6.186613 
-38.88643 18.78264 8.043952 
-48.84882 -11.68001 5.351985 
2.06054 -0.2437247 5.619409 
11.95046 40.46309 5.314216 
2.082888 29.14788 6.5724 
3.780512 -31.5508 5.116027 
-42.15891 1.185471 7.433763 
-30.74536 41.05806 7.843656 
-28.5814 37.18518 7.946605 
-17.52054 2.373849 7.414261 
48.55338 -32.2665 2.544584 
1.555875 33.31449 6.50561 
-28.96154 11.56968 8.009485 
-30.93877 -43.77969 5.944086 
-14.88277 -34.02773 5.80617 
-50.25173 10.83737 7.650231 
42.96548 -40.81586 2.444045 
-40.78539 1.355068 7.477716 
20.66643 -24.71606 4.723994 
44.38253 -2.050648 4.711772 
10.09524 10.64111 5.472987 
45.8936 11.18512 5.161802 
26.92203 16.28974 5.46667 
-46.59336 -17.96222 5.092019 
25.83433 -6.730434 5.114446 
25.1059 -17.32811 4.882063 
48.83182 -41.46524 2.132497 
-20.68019 -32.10718 5.733242 
25.26517 2.570047 5.24402 
12.22289 -24.58508 4.890764 
-38.27702 -31.66289 5.929251 
-48.12989 21.215 7.837059 
44.7888 -41.50467 2.31882 
32.41135 27.26083 6.045743 
-22.05182 -47.11576 5.311025 
35.78601 -40.05445 2.901472 
8.348803 41.44435 5.443707 
-46.88847 -30.27588 5.913455 
15.96026 -37.32766 4.309063 
26.80456 26.4653 5.593381 
42.05077 0.2298747 5.102277 
37.26465 39.43679 6.068311 
10.93605 -46.31886 3.897521 
-6.683938 -14.06081 5.229301 
48.84826 -22.20236 3.03259 
-29.95379 -5.008515 7.073565 
-34.54504 -51.12925 4.781033 
38.40485 -6.286318 5.033773 
14.94327 28.09045 5.339558 
37.98874 8.846807 5.765755 
26.48273 -25.79652 4.520672 
-49.13291 30.3854 7.894075 
16.94825 19.00323 5.287341 
-9.486848 -11.78417 5.476428 
-12.94658 29.67508 7.780187 
-40.71077 -26.89713 5.400464 
5.621739 -23.3143 5.10876 
-21.43278 -14.23194 5.62902 
-43.62222 -39.37494 6.128071 
35.8402 11.44356 5.847184 
-50.76786 18.10388 7.785876 
-18.24097 -19.4389 5.195866 
-42.19677 -16.81905 5.220529 
45.47513 6.462643 5.025208 
12.05168 -16.88658 5.009265 
-11.53155 7.360281 7.351714 
3.925803 -51.09725 3.812811 
-7.482853 -35.40074 5.583284 
-48.04941 -7.155529 5.906416 
-19.35113 -8.633425 6.309872 
-0.930593 34.4523 6.789282 
-42.82123 -14.58796 5.361745 
-9.187159 30.38838 7.593382 
31.91241 -44.8954 2.817344 
19.5988 -42.78465 3.721766 
4.360807 29.06783 6.255704 
27.27499 -15.64329 4.919623 
-26.30729 2.973041 7.642614 
2.387619 -7.792188 5.205848 
44.25081 0.6517063 4.882498 
-1.786446 -20.18215 5.119126 
-34.43482 19.98311 8.144327 
-16.00399 12.00009 7.708146 
-10.2976 32.22491 7.616666 
-39.39645 35.0685 7.924223 
14.05829 -46.14739 3.752048 
43.32119 7.358022 5.331331 
10.60521 -43.99066 4.098625 
-8.532267 -22.88079 5.154891 
2.41183 33.82775 6.365734 
-48.9633 16.43932 7.778352 
-41.68935 6.990393 7.705527 
-13.12191 -37.97374 5.811584 
-37.77605 6.306587 7.748443 
-2.494016 -52.49804 3.949038 
15.67408 5.944509 5.131586 
-18.36965 -49.05286 4.920937 
47.01749 14.46662 5.103565 
-35.2116 40.66549 7.857125 
24.12634 -32.14774 4.253761 
-24.24178 -30.38147 5.560752 
-32.29265 -29.70662 5.570777 
40.03879 -6.461079 4.893987 
24.96273 -28.75039 4.417954 
27.92145 31.75102 5.769024 
-33.92398 -16.2542 5.433205 
-22.35237 -35.408 6.070362 
29.76275 -16.8215 4.845784 
-48.91208 19.11658 7.809867 
45.19268 -26.94172 3.056088 
-18.72111 -45.6446 5.399566 
-20.13829 31.41361 7.99549 
-4.682113 -22.17359 5.146201 
20.70788 1.998575 5.170665 
4.400521 7.401246 5.838732 
24.10071 -30.18477 4.372388 
-9.114442 -37.26033 5.624825 
-38.09947 -23.57892 5.14837 
-8.54703 28.20739 7.587525 
2.955632 24.50914 6.514888 
-23.52868 1.693797 7.535117 
-31.20255 -7.568081 6.716451 
-49.35158 -32.25795 6.056093 
-29.87648 3.833015 7.703836 
10.03375 -26.18307 4.977415 
-38.57585 -12.3403 5.767391 
10.26077 -35.95863 4.622472 
22.18047 22.19998 5.330532 
39.40286 -16.91698 4.251894 
-17.60465 41.20694 7.659173 
-4.020429 -26.77321 5.283103 
15.12753 33.2378 5.309803 
-40.89224 -26.28724 5.344799 
23.92682 -28.9546 4.433839 
-7.870616 -32.38007 5.560531 
14.75019 -31.81494 4.63502 
-29.58477 28.08397 8.170378 
23.36146 39.96436 5.571313 
44.94539 26.90241 5.529378 
36.0916 38.80329 6.154914 
26.27898 16.9448 5.442223 
-4.325097 -23.44018 5.174334 
-6.68719 -35.86028 5.535108 
38.26778 40.48834 5.945099 
6.506081 -20.07616 5.074076 
-3.370168 -14.28584 5.182895 
-49.68912 -11.7393 5.305788 
19.4747 -49.98023 3.138232 
38.06905 -14.03893 4.571344 
-9.46655 -44.91047 5.022796 
-52.29893 5.803671 7.208405 
18.58877 -31.06944 4.489768 
34.99418 17.11065 5.977541 
24.47956 -18.88414 4.842934 
-23.1688 -2.122576 7.264767 
15.61943 -0.5080362 5.146167 
20.15181 -3.904562 5.105733 
-33.01629 -28.97266 5.49527 
-4.919346 38.71861 7.026659 
0.4442824 12.1076 6.571501 
5.040087 -3.301242 5.282275 
1.169207 37.24039 6.356812 
-7.640134 -49.48001 4.449858 
-33.81494 3.532564 7.676454 
14.66228 -13.2509 5.026432 
-45.19817 15.23881 7.82563 
35.53045 -34.52753 3.296737 
40.76482 22.64617 6.018476 
-27.06582 -2.319733 7.316955 
-47.24875 -51.25193 4.352837 
40.25418 -5.602094 4.928328 
41.69242 19.06473 5.883023 
-5.788907 14.27685 7.311872 
11.76972 -18.91025 4.94535 
11.52871 -23.13151 4.921581 
17.34626 28.85255 5.295312 
29.69867 22.97873 5.747427 
-12.57206 -10.03342 5.779961 
-48.0248 39.22631 7.971363 
-43.34104 -40.86797 5.993156 
-8.501744 -41.40409 5.3191 
16.03168 -31.35988 4.602513 
-14.58504 6.723817 7.441766 
37.62514 44.59711 5.792066 
-38.46836 -1.920281 7.288514 
-5.413225 -49.10471 4.393233 
-19.93412 -26.42353 5.210525 
20.71517 -26.65765 4.640011 
-32.09045 -44.96417 5.768877 
19.20605 -34.16986 4.357239 
44.69581 -30.3903 2.894192 
-37.86171 -44.17581 5.780821 
-39.89907 6.072018 7.705326 
48.47461 -12.03137 3.638896 
38.08417 17.2034 6.033665 
48.09879 19.50648 5.036892 
-1.750041 12.35996 6.855975 
17.82456 -25.66518 4.702193 
26.45258 9.84164 5.369215 
17.7373 24.13451 5.291232 
-26.00724 -27.58099 5.313959 
37.63333 13.29326 5.921799 
35.69256 -18.26046 4.473911 
-45.9738 -19.35192 5.084336 
26.35131 -22.93632 4.665238 
35.77317 -22.87668 4.139897 
19.5716 -19.54157 4.877668 
-21.40735 -33.5116 5.885749 
-48.40585 1.037526 7.076008 
-42.52286 -15.5498 5.294706 
30.67339 -6.821919 5.189944 
1.395595 17.05626 6.638818 
2.938914 -4.608436 5.336165 
-24.68831 -49.96457 4.951352 
28.29018 -23.51565 4.570202 
-7.994301 13.90981 7.452222 
-9.867158 -18.50526 5.158635 
8.825122 -51.31258 3.568337 
-14.67755 19.64112 7.889776 
44.75112 -32.62616 2.76588 
41.14389 -8.277459 4.674969 
-7.807836 -9.650703 5.571242 
-43.75417 -43.51902 5.625966 
-25.98698 -10.70863 6.190728 
-31.44576 33.67182 8.048998 
-31.1542 -8.85058 6.510334 
39.22438 -34.32784 3.042611 
-19.32876 9.753126 7.774741 
-3.296822 33.33878 7.109617 
-1.522786 -8.915073 5.261433 
-42.42424 -41.49804 5.9638 
22.74146 9.764008 5.26019 
-7.915562 -13.04294 5.300717 
23.20066 -28.46247 4.478789 
-17.00025 1.853198 7.362119 
-31.43038 18.39793 8.147875 
-38.49553 -23.83628 5.15965 
43.2881 40.38051 5.348012 
-35.70135 22.9994 8.141317 
-48.99209 39.8554 7.950038 
-3.890952 20.98446 7.292128 
3.387874 33.58967 6.242724 
13.28963 6.871375 5.264995 
43.92178 22.36871 5.676869 
-23.49673 -22.2886 5.149332 
-2.438954 36.32018 6.882189 
14.65652 -33.76264 4.553405 
-38.25584 40.09625 7.866538 
-25.97236 1.092739 7.536691 
19.38527 27.54275 5.299985 
36.98351 -24.82876 3.893265 
-1.099974 -6.345857 5.384184 
-33.65079 2.72695 7.639496 
47.53663 38.5153 4.814522 
-11.29324 -22.35535 5.143064 
-16.43117 -7.018394 6.390714 
-45.89589 -23.31291 5.200583 
26.77371 5.737503 5.328776 
29.7365 -11.35722 5.047456 
6.500425 -24.09089 5.094647 
24.95919 -41.00947 3.53583 
-19.99117 19.78401 8.06675 
13.86406 34.73878 5.329087 
3.618595 -24.41758 5.14916 
5.008959 -13.06422 5.014937 
-42.23323 -8.168751 6.204866 
-24.82783 12.14603 7.993979 
-31.53263 16.50737 8.123369 
-33.461 -31.0654 5.759633 
37.05741 -43.26296 2.630428 
29.458 8.955445 5.490242 
-49.11849 21.57172 7.830239 
2.765143 -25.67287 5.177302 
-35.00903 -5.226737 7.001975 
-45.51264 35.76016 7.898548 
-25.61149 -18.1868 5.314846 
6.953059 -32.92721 4.9161 
16.66563 15.00159 5.272436 
-44.82721 0.4530269 7.270748 
-31.04885 -14.40777 5.66871 
24.83567 30.97839 5.528701 
-46.38137 25.34068 7.880379 
13.53879 3.793628 5.151816 
13.00717 5.388401 5.244152 
-38.35107 3.661307 7.632853 
47.24193 -31.62027 2.656753 
37.40627 2.401676 5.51976 
-12.96986 -7.958797 6.048484 
26.96978 -47.76508 2.897953 
-29.0988 23.58628 8.149249 
-13.28689 -31.769 5.629752 
-38.54508 4.950659 7.683916 
19.90047 -20.19764 4.858777 
24.20491 39.14203 5.615984 
-45.95609 -18.20406 5.096287 
-10.05018 -24.03631 5.179812 
12.45455 10.28083 5.344672 
-24.50788 -4.719966 7.03829 
-43.3326 35.77043 7.886046 
-51.71588 41.44158 7.571304 
-10.14533 31.17642 7.628291 
42.35818 -16.61131 3.984209 
8.820398 14.06966 5.648774 
38.08173 41.57114 5.912098 
-51.21437 -3.366045 6.119349 
34.46481 3.634296 5.571585 
-33.69353 19.64798 8.149657 
37.51623 -22.20725 4.040326 
-10.77153 -37.71859 5.697181 
11.77531 -41.45325 4.228899 
-7.596988 -34.64043 5.591391 
11.70767 -22.03324 4.899157 
40.64019 -38.79401 2.680696 
31.12676 3.841376 5.467351 
-45.45251 -12.73189 5.422925 
-46.64063 -13.22327 5.328225 
-6.101109 40.56821 7.031097 
2.945161 27.57196 6.483763 
-14.60571 23.17213 7.90497 
44.59066 -23.03872 3.343825 
-42.15786 -44.33485 5.58783 
14.06109 -16.5355 5.002163 
36.81975 21.57467 6.137683 
44.40967 -49.72931 1.988896 
47.13478 -33.27425 2.581281 
-4.821467 -30.16064 5.415761 
-45.8779 18.77031 7.855227 
-22.46573 -1.14242 7.326298 
-43.07646 37.39928 7.88633 
-34.91702 -36.68238 6.340374 
-33.40193 -51.45889 4.748562 
17.95226 -4.798671 5.095201 
15.76851 31.0988 5.309249 
-25.5171 15.05105 8.030781 
-1.686452 14.97532 6.954348 
-48.87886 9.738427 7.648564 
-15.43572 -8.499662 6.126417 
5.754128 -20.24225 5.08719 
27.72703 32.69431 5.771128 
-3.240881 -41.08818 5.01826 
41.54426 -16.82097 4.051121 
-34.80804 -17.82318 5.292484 
-5.335974 26.13579 7.408645 
6.89363 -35.95274 4.778734 
-40.83053 14.85374 7.931787 
-27.98432 -23.18071 5.143933 
30.8616 -38.19646 3.359929 
-25.6291 -9.977228 6.301317 
43.70528 -41.469 2.374132 
16.73405 41.82988 5.292867 
-5.192436 -39.59117 5.257841 
29.41114 13.9672 5.571743 
26.27577 -1.349377 5.212132 
13.09506 31.3549 5.38763 
26.41987 -41.72314 3.384855 
-14.57082 -27.63701 5.331049 
1.776749 33.55336 6.464855 
18.21625 24.78725 5.289025 
-6.644842 -23.92641 5.184999 
-48.25189 -33.10988 6.111611 
1.069898 2.871682 5.906332 
46.01225 31.40476 5.292603 
47.67775 -36.15713 2.414227 
-41.93701 31.22322 7.938695 
28.16401 34.76804 5.847372 
-44.51739 22.0087 7.910743 
-2.959865 41.17659 6.617544 
-10.2858 -47.64052 4.762785 
-37.68031 -39.13533 6.333426 
-31.59443 26.17596 8.180454 
-3.354825 -34.65717 5.391683 
1.726756 -19.12613 5.103637 
-48.25904 -6.325428 6.004114 
-19.15971 12.5864 7.798307 
35.16008 -41.56159 2.84306 
-7.177855 15.55713 7.442072 
32.50826 16.36105 5.817264 
2.744774 31.07494 6.424715 
-26.09214 -40.9433 6.191083 
-16.63037 -24.5023 5.15962 
-15.27886 17.17573 7.880834 
-28.33756 31.78516 8.101769 
7.94474 30.4856 5.783283 
31.44883 16.53806 5.750309 
33.82993 25.57531 6.107396 
29.23378 30.73357 5.858895 
35.88046 -12.53261 4.827049 
43.23522 -30.38057 2.999788 
33.81225 -16.76841 4.694265 
-35.16177 40.59391 7.857825 
-15.06963 20.82025 7.915476 
-34.85828 32.40472 8.048811 
-37.50052 -15.35971 5.449756 
-17.25443 -0.6171904 7.190576 
8.74509 -28.39072 4.979617 
27.62295 -2.094824 5.232318 
13.95092 24.56288 5.384947 
-1.572431 -33.63287 5.325184 
-49.50062 -46.51973 4.857764 
31.23878 -41.51325 3.090103 
-28.74856 19.61877 8.09774 
7.711815 38.55046 5.579199 
-48.45767 -6.476541 5.964657 
-2.981842 23.3709 7.228111 
18.47253 -31.071 4.495175 
24.35032 -25.25835 4.620016 
10.93269 -51.43885 3.455175 
9.813437 -29.832 4.896845 
3.061141 -2.296805 5.447952 
19.64372 12.45416 5.232959 
-24.49417 -45.22347 5.654665 
-45.04919 26.81022 7.902581 
34.13211 -35.43977 3.332794 
40.54456 4.467668 5.456229 
43.23875 43.37429 5.187138 
-46.11905 -28.23619 5.673335 
47.92048 25.4895 5.083312 
-50.66918 21.16828 7.820809 
11.56391 27.7638 5.506881 
-1.861291 -37.43683 5.190392 
-6.208055 -17.68687 5.14274 
-17.35906 23.8271 8.007563 
-47.54202 -22.5445 5.178628 
2.372525 42.55581 5.87639 
28.71349 31.28218 5.826002 
-21.68079 -27.77772 5.303017 
-12.81309 -47.92589 4.845361 
1.182386 -24.46694 5.179359 
41.91891 38.8218 5.612908 
17.94346 41.67286 5.322432 
33.74306 -35.80085 3.334877 
20.12099 -8.712869 5.047116 
-36.69046 -5.089763 6.977588 
26.34534 16.66255 5.442326 
-34.55181 0.9211065 7.540455 
-32.45298 30.50405 8.116291 
7.157327 -39.97508 4.533517 
39.79441 -21.74426 3.868369 
48.54606 -39.44277 2.227115 
-5.718218 -11.65561 5.308494 
-48.6323 41.1838 7.908724 
35.72926 -14.19739 4.736134 
-18.52373 22.46776 8.044017 
-2.416057 9.10788 6.756902 
-38.21899 -35.33134 6.305713 
20.37922 -13.18882 4.983418 
-41.26866 39.79956 7.882922 
-41.44679 18.51368 7.968073 
11.38325 -52.38688 3.35023 
-37.7909 33.93593 7.970361 
5.438768 2.233849 5.50818 
10.0163 -28.35936 4.93125 
-2.094532 13.73433 6.955311 
39.4343 -10.42156 4.695158 
-33.95955 -50.46115 4.889521 
27.07101 -34.21382 3.931319 
37.01344 35.35413 6.194622 
6.180939 -38.87252 4.648588 
33.16255 42.32964 6.134782 
-40.63065 -14.06413 5.487379 
33.69616 -13.28439 4.895112 
8.654206 -21.26099 5.035229 
7.913209 -38.99779 4.558607 
39.20987 -48.03973 2.272393 
-30.01467 -45.65763 5.666921 
-37.47733 -27.99853 5.455742 
35.40261 -37.41702 3.102621 
41.42817 -48.08791 2.174415 
45.02652 11.61468 5.295043 
-29.50708 -45.66241 5.664677 
42.10458 -32.00875 2.983024 
46.79739 6.265985 4.837747 
29.02189 -3.138099 5.248113 
15.48116 -32.86666 4.564632 
17.40203 14.91075 5.262191 
4.223029 -47.6516 4.101672 
-44.66762 -47.55537 4.984512 
-30.08892 29.69994 8.144667 
44.28588 33.83067 5.482235 
27.57731 10.60666 5.425733 
-33.60248 -29.01123 5.507375 
33.05481 25.4367 6.05514 
4.080893 -2.837001 5.371724 
-2.328416 -26.86982 5.273251 
-29.66434 -34.17445 6.072456 
-39.88256 -6.044863 6.701423 
20.22258 12.85434 5.243182 
32.18226 33.65374 6.136861 
-17.56466 -5.411247 6.679066 
-43.13036 -38.52797 6.212915 
-46.39465 18.58259 7.842867 
10.09002 13.55418 5.534323 
-35.30316 -20.35855 5.159042 
-12.52554 -8.389292 5.966653 
-7.129874 5.182652 6.972988 
33.8982 -24.47485 4.172339 
1.465297 25.1472 6.718409 
9.63694 2.243883 5.292214 
-6.284052 12.61998 7.296267 
30.19091 -50.72651 2.540986 
-41.88388 24.6369 7.98499 
-17.82505 18.41058 7.989009 
28.41138 -30.57039 4.11438 
-34.61225 -34.55643 6.204655 
-0.04063677 13.99197 6.720607 
48.83393 -39.43652 2.213711 
-17.01306 3.963171 7.485833 
15.66243 -46.82331 3.608807 
-14.96328 -28.81952 5.412735 
-11.69517 32.99876 7.664626 
-7.568225 -50.781 4.314134 
-13.16324 -41.34711 5.606954 
27.50945 28.74719 5.681478 
11.22463 19.08869 5.528767 
-39.54554 5.578997 7.692756 
30.31773 -33.43872 3.765732 
-8.011217 12.0353 7.396005 
25.64517 -11.1335 5.028711 
-6.477485 -23.85079 5.183074 
41.63353 13.50732 5.740325 
22.80432 2.008831 5.192009 
15.24031 -41.38095 4.068907 
44.38577 -42.43158 2.295992 
-21.69334 -43.89737 5.748984 
43.01846 -24.89499 3.360654 
-24.74709 -8.395505 6.534015 
-40.28814 -28.74311 5.597554 
-19.51475 -4.098672 6.94301 
-9.289545 34.47124 7.519719 
-48.07001 -21.68867 5.140719 
-20.00218 30.12439 8.019334 
-20.05077 -28.2487 5.358127 
44.52239 -39.97297 2.403822 
-20.84372 -23.28501 5.112563 
28.06719 18.90011 5.565633 
-0.7453963 -48.24671 4.270453 
-31.98766 29.77864 8.133628 
38.75673 29.03386 6.177786 
4.368284 25.32055 6.310812 
-32.04401 19.34679 8.155881 
22.45343 20.76831 5.330008 
-14.62038 -10.55484 5.823768 
-42.93145 -46.061 5.291094 
3.450539 0.1546388 5.543543 
-19.66271 0.2223174 7.347508 
-3.798729 -11.11912 5.266555 
28.58535 -51.98735 2.539707 
17.12672 19.93424 5.287467 
-10.52497 -28.60996 5.395782 
-26.48476 16.41366 8.055424 
25.20944 -12.52566 4.996774 
-42.92972 -4.619517 6.736357 
-33.2929 37.97269 7.917859 
38.96133 -34.52464 3.048689 
38.2168 -36.35415 2.981597 
-8.857368 -52.09299 4.226968 
-21.25227 30.11944 8.049959 
4.038752 -11.35612 5.063599 
13.44431 -5.135988 5.112966 
