ply
format ascii 1.0
comment Noiseless Imaging Oy (Ltd) generated
element vertex 1522
property float x
property float y
property float z
end_header
-22.060474 31.050610 44.574341
-22.414133 30.625910 44.290043
-22.633465 30.362192 47.300163
-20.518530 33.048607 46.092960
-19.114729 34.463051 43.860367
-19.874588 33.739197 43.462215
-18.580685 35.042152 43.420658
-18.671631 35.283237 46.897064
-18.324608 35.277660 43.586784
-18.005062 35.701679 44.005211
-16.332319 38.397820 44.323639
-15.866705 39.488590 46.779190
-16.135597 38.906155 45.575352
-16.077898 39.017399 45.744320
-14.536552 40.815960 46.397816
-15.318350 39.761723 44.515594
-14.266405 41.143665 47.023788
-68.082184 -3.260180 100.859161
-60.257496 29.750877 63.523643
-59.935402 33.012955 75.566437
-62.602127 42.482399 96.870720
-18.073309 43.297329 62.097767
-55.540932 -13.790665 76.046738
-58.656815 30.229313 62.540428
-72.309624 17.662872 74.154327
-63.355640 27.778797 85.218712
-69.101898 39.003735 95.761322
-65.897079 32.392067 119.601143
-74.008186 36.517921 99.390808
-58.083588 30.360216 62.171257
-64.485619 26.347263 64.585526
-72.486343 29.922474 114.950111
-70.667618 32.291691 115.517113
-68.375992 29.219345 119.822334
-68.832710 29.993999 118.817261
-73.194946 33.508408 107.163399
-19.870918 36.996830 77.656616
-16.950359 43.931915 61.795013
-46.045712 -17.422018 72.013435
-64.879730 29.021122 70.958130
-69.088005 40.178085 107.105934
-71.664093 19.725126 77.953011
-54.886505 35.493950 71.554153
-63.726917 -29.147532 138.049255
-67.246994 28.886509 121.018089
-67.936897 23.903093 69.311935
-72.349495 36.063705 106.119118
-67.201355 41.764008 106.954964
-66.721870 31.181753 119.761871
-74.493568 34.541794 95.650146
-17.661787 45.322052 69.918182
-17.764544 44.895779 70.893936
-16.866791 45.799118 66.578865
-67.959160 25.346182 75.131844
-69.320473 23.058125 72.774933
-29.827999 -19.467375 71.466858
-61.492981 31.232119 68.482262
-68.656212 22.773993 69.771065
-42.851196 4.202342 131.818298
-71.334000 20.121073 79.447517
-71.631378 19.507523 79.866386
-44.480068 9.317451 46.071270
-42.078571 11.258656 45.488712
-41.622818 11.870449 45.136688
-61.755047 31.907587 73.446182
-41.642647 11.158445 44.327980
-41.310474 13.458204 44.351128
-42.311192 14.155700 45.853638
-41.936848 16.301027 44.390987
-43.328728 17.288317 46.776588
-42.027760 16.628338 44.523006
-42.731201 21.856508 46.349781
-42.697575 20.824133 45.451069
-42.329800 23.702744 44.454834
-42.565304 22.998320 46.390713
-42.257290 24.071402 46.363358
-41.645031 25.379929 46.142872
-41.077038 26.369261 46.552528
-41.752930 25.184519 44.378765
-40.698673 27.062119 45.848404
-40.868919 26.748333 45.996063
-40.363884 27.668581 45.282417
-39.353329 29.139996 47.131435
-39.195904 29.304922 47.171684
-37.631611 30.704962 46.439316
-36.722969 31.497221 47.191013
-37.260101 31.011953 47.124283
-36.696812 31.441294 46.879513
-70.710808 21.134506 79.376244
-73.876930 35.600979 95.479080
-66.027405 25.475433 85.392326
-69.806259 21.142132 71.031853
-22.587811 35.748940 61.554455
-20.704144 41.677971 71.867531
-17.056568 36.514790 79.703629
-73.442497 23.582596 116.832474
-55.568432 -6.593154 109.377357
-70.770836 20.772837 80.455978
-22.787764 30.052359 46.917625
-22.995478 29.982595 46.706253
-21.126574 32.415039 47.683559
-20.484921 33.116535 46.554321
-20.478121 33.092438 46.059456
-20.419222 33.219543 46.803360
-19.570126 34.215401 48.245766
-18.851227 34.890530 45.611542
-17.652206 36.657242 46.394577
-17.508430 37.195320 48.000736
-16.793966 37.897335 45.598270
-16.299366 38.775169 46.361710
-15.198468 40.139172 45.471073
-15.169341 40.250214 45.776848
-14.540224 40.662514 45.909492
-14.103613 41.215782 47.008476
-13.729460 41.014259 45.791729
-13.951644 40.900013 45.776066
-70.232780 22.022398 78.645515
-68.713943 24.093904 79.449898
-11.142947 42.563446 46.956139
-9.317174 42.873096 45.595692
-69.141739 23.115730 80.843231
-17.734215 43.327847 74.766060
-63.434223 -39.577034 143.782791
-73.264442 37.210445 100.264519
-70.772392 37.905178 94.664139
-60.526852 -6.595491 102.383995
-69.261787 39.927742 107.292191
-16.622726 46.309399 67.897972
-68.711899 39.248188 109.274429
-71.015808 25.784647 120.022369
-64.075798 33.541420 119.822266
-67.486534 30.906353 119.356972
-67.566643 32.181103 118.501411
-68.165268 24.981003 73.833038
-75.675537 17.636959 106.425919
-63.327316 30.522203 71.299278
-68.032570 24.888752 79.551460
-73.204742 35.121758 105.114922
-67.874840 24.755363 81.326309
-58.264599 33.344810 67.342873
-63.999619 27.289431 87.231743
-67.590057 25.375683 79.523750
-66.267288 26.724108 69.941803
-70.100105 39.949120 103.001877
-21.743711 40.230202 65.602173
-71.498192 30.139204 116.188637
-66.861610 25.994534 80.457809
-64.434967 -35.526833 140.113266
-74.747169 35.649822 97.783653
-66.418434 26.469709 69.874756
-63.551914 30.052441 73.438507
-65.958229 27.491205 73.591484
-68.541046 24.616585 74.401184
-67.907257 40.433384 108.621941
-71.333481 20.462360 77.519806
-68.937172 24.225325 76.019844
-66.757370 26.384676 78.344894
-65.085693 28.034876 78.220970
-69.588013 23.474041 75.500877
-56.019207 34.901684 70.019936
-21.421749 37.441719 74.757393
-58.962711 31.038980 64.035072
-65.803444 27.583649 75.327309
-64.440697 -34.631683 139.887207
-66.256882 26.528431 80.667557
-44.609600 16.212473 47.116627
-44.518909 17.108065 47.330322
-43.968651 17.313477 47.158028
-43.068970 18.308594 46.672173
-43.899685 18.058109 47.474842
-42.647297 20.425215 45.644993
-42.818420 21.604149 47.731834
-42.581196 23.091091 47.045784
-42.663391 23.985931 49.252884
-42.516426 24.223282 49.202065
-42.133392 24.679499 48.452240
-40.757374 27.004400 47.985706
-40.110966 28.148651 47.671543
-40.636986 27.272854 48.432030
-39.057240 29.432621 46.815266
-39.955437 28.367928 47.245003
-38.655281 29.804678 47.015820
-37.775944 30.699986 47.884071
-36.676430 31.434740 46.829533
-37.240192 31.012474 46.996025
-37.000893 31.683048 48.692146
-34.853146 32.693249 47.954914
-65.942772 26.908030 80.167679
-66.855965 24.538956 66.057861
-43.620087 3.316389 131.729874
-66.414497 41.226997 109.310432
-60.740761 -6.366667 98.490807
-67.533875 30.557049 119.549171
-71.342201 25.393820 119.894585
-72.314011 33.511021 110.273994
-62.037292 22.939720 58.856815
-65.950218 26.870552 80.328903
-21.875734 31.532207 48.339630
-22.851501 30.050743 47.157700
-21.036736 32.659565 49.801525
-20.527925 33.143719 47.871231
-20.234037 33.467445 47.555794
-19.909958 33.813076 47.120926
-18.742029 35.166157 46.720303
-18.316839 35.955822 48.089844
-18.927387 35.034477 47.987278
-18.200310 35.772392 46.083229
-16.096069 39.114460 46.605408
-17.170908 37.516872 46.979195
-16.539303 38.668587 47.827957
-15.443021 40.110054 46.558109
-15.167725 40.654282 47.493145
-14.981921 40.964359 47.937901
-14.925869 41.191257 48.736408
-65.640732 27.401045 79.110275
-63.252934 29.050184 80.646797
-64.311577 28.250481 80.451248
-10.872023 42.971794 47.888916
-11.052384 42.877571 47.854107
-8.858667 43.477825 47.033092
-62.423431 30.225248 78.352882
-62.616714 29.552691 80.668495
-63.906792 -29.715466 138.179291
-71.357216 37.368816 94.167107
-65.471092 25.249964 87.400795
-69.903542 38.787113 108.168060
-68.387161 24.381184 72.614502
-59.709194 -24.456585 121.286163
-67.808273 25.126657 72.542122
-61.378479 30.946636 79.099701
-20.027966 41.753674 63.277538
-71.972565 30.833794 115.074631
-58.850693 -31.836491 122.308914
-61.288818 30.759735 80.042351
-64.693039 38.767963 114.307259
-59.982761 31.435274 81.064163
-60.539318 31.404018 79.997520
-58.198109 32.968735 80.218025
-63.942608 -33.845459 140.846497
-63.702194 -33.562618 140.991318
-17.415569 44.345570 72.746475
-50.263035 -16.106438 71.131294
-65.572830 25.736202 86.015045
-57.660889 33.115849 66.129990
-62.969746 30.892656 71.835564
-61.902607 -10.481073 131.157974
-13.767927 35.999401 82.053978
-69.543549 21.856476 82.587837
-62.068062 31.643902 73.124512
-67.474037 24.305290 68.058792
-60.855396 30.270864 65.032135
-50.015533 -16.050884 72.819672
6.258527 -15.939904 90.720322
-25.949997 -12.997656 136.779465
-54.913013 -43.928177 128.301285
-53.932247 -47.502003 132.766510
-16.992712 -18.259531 86.354111
-37.485996 -6.576161 131.667938
-19.895412 -18.680201 85.233620
-27.163647 -19.197140 78.304543
-55.665844 32.472843 89.892075
-43.702797 38.113522 30.065607
-13.959568 -16.217196 136.155212
-47.547447 17.983429 48.726051
-45.440121 18.607107 48.289280
-43.208557 18.257114 46.825924
-45.655998 17.813356 48.014675
-45.358452 18.314659 48.123196
-43.773964 20.953363 48.880676
-43.301399 21.784893 49.115585
-42.746307 22.430332 47.706142
-42.159027 25.455778 50.150352
-42.690125 23.539488 48.947548
-42.563961 24.333338 49.445770
-41.207684 26.288071 48.655991
-41.337868 26.019505 48.236008
-40.810642 26.991840 48.697525
-40.762829 27.356125 49.568813
-40.530701 27.441730 47.990917
-39.307510 29.261616 48.138237
-39.512665 29.669468 50.783085
-38.159397 30.629810 49.076328
-37.943054 30.586624 48.103458
-36.467484 32.083988 48.618763
-36.893723 31.821520 48.880344
-35.906254 32.547195 49.013706
-36.454659 32.083481 48.497055
-58.305706 33.609596 78.899956
-73.057289 23.250410 118.809097
-73.489624 36.225166 95.501106
-20.105782 39.723579 61.024212
-68.208687 30.894249 118.762367
-58.898514 33.345715 68.898613
-73.479919 20.295740 121.706429
-71.296204 34.243458 111.500168
-63.630688 28.628292 81.170784
-20.848623 38.208344 60.782177
-22.992250 30.386288 48.227886
-21.817940 31.745245 48.869091
-21.111979 32.483486 48.875332
-20.076452 33.649567 49.430637
-20.466955 33.229496 49.073822
-20.287729 33.412971 48.819527
-18.613050 35.343616 46.821007
-17.842026 37.022663 49.546967
-18.198656 36.308430 48.925133
-16.651716 39.138638 50.558624
-16.834892 38.536743 49.327732
-16.470421 39.196655 49.718807
-15.199221 40.738415 48.112133
-15.670385 40.364120 49.758274
-14.718705 41.357609 48.647552
-14.505205 41.369122 48.135071
-65.133148 28.188847 76.117538
-63.008724 -14.067444 130.082520
-20.615782 39.111832 61.354794
-11.023968 43.507580 50.059830
-11.679198 43.072727 49.347458
-62.803406 -12.711072 130.178329
-24.479387 -19.543131 78.534187
-70.179901 21.589258 72.818787
-75.022095 34.360897 100.270729
-67.615463 25.474184 78.612572
-72.210907 36.778965 94.254463
-37.922039 -0.990636 137.434891
-62.476028 31.221941 73.202690
-56.484444 34.585278 74.714256
-55.466198 35.212959 72.002785
-26.503593 -18.969893 79.234421
-58.979069 -13.126038 72.186035
-72.365425 29.949377 115.296646
-63.360981 -21.008883 135.266739
-37.889099 2.238812 135.859467
-66.475708 37.077850 115.278183
-65.336380 28.255592 68.949036
-71.835579 33.522190 111.367477
-70.087021 39.275955 100.176819
-63.533085 -31.938747 140.265717
-59.217705 31.902868 81.131393
-63.621750 -33.600899 141.124969
-71.538467 37.282413 94.193184
-67.149506 26.196198 75.767921
-62.926792 -12.884168 129.498337
-17.894106 -18.767513 85.274811
-70.972771 21.924738 122.605873
-64.865868 28.963928 72.022629
-62.843510 -13.839678 130.686127
-61.052494 29.995335 83.584167
-67.688377 42.009712 103.420937
-10.738062 35.827152 82.968086
-68.711525 23.636837 71.843750
-18.040052 43.505352 62.610130
-42.059486 -2.887164 123.259293
-62.801476 29.726679 87.831291
-60.660168 22.394930 56.798668
-67.250366 -3.839139 103.079338
-54.375397 -7.259754 95.937332
-22.678928 -19.270079 81.261757
-61.050446 -5.394923 93.147354
-19.017061 -18.593945 85.472534
-24.359556 -19.623869 78.375069
-53.477623 -7.061618 105.813484
-52.460178 -6.907000 104.586876
-38.451157 32.701714 57.184250
-29.968061 -11.125808 135.914948
-61.274284 -5.401990 111.474998
-42.197544 -1.565346 120.454727
-61.688152 -6.997478 128.092316
-45.989799 20.449165 49.374191
-44.398624 20.723089 48.969891
-43.543823 21.912842 49.288757
-42.888474 23.252794 49.241646
-44.777199 23.898300 50.568848
-44.986027 23.506985 50.453007
-42.626709 25.819784 50.856171
-41.842442 25.709843 49.976913
-42.116962 25.136158 49.649532
-41.702209 26.327332 50.376156
-40.421574 28.526985 50.336723
-40.154209 29.177780 51.176395
-39.880539 29.370724 50.979038
-39.007496 30.091911 50.510185
-39.057915 29.687561 49.046246
-37.120735 31.531334 48.520615
-39.206646 30.100714 51.398247
-36.249271 32.484512 50.001518
-35.608734 32.934055 51.344967
-35.973591 31.928984 47.036919
-68.359673 24.882256 75.954056
-64.218864 28.418848 66.758972
-58.826725 33.325779 68.562729
-18.998983 40.431816 59.658642
-67.759529 29.982613 119.750496
-59.379429 33.143307 69.592545
-70.183853 38.820049 107.519157
-74.651909 20.127499 118.616478
-70.515198 35.592949 111.109039
-69.948486 26.426228 120.785744
-58.739868 15.226652 52.595757
-22.153240 31.570145 50.270851
-20.724817 32.949581 48.921715
-20.300011 33.533012 50.725964
-19.868305 33.958427 50.222446
-19.994270 33.858295 50.555019
-19.938652 33.873260 50.318657
-18.008482 36.945976 50.354500
-17.334799 37.871597 49.790737
-17.452509 37.709667 49.918087
-16.103186 39.716469 49.629471
-16.756207 38.788651 49.819263
-16.378128 39.341499 49.760674
-14.605623 41.813267 50.489601
-15.294425 41.289371 51.342106
-15.377133 41.292480 51.655323
-14.500677 42.045631 51.091709
-14.010057 42.233227 50.654484
-20.349854 42.174419 71.814034
-11.339189 43.318272 49.789379
-10.585995 43.541763 49.339661
-66.993057 -3.806612 101.288666
-62.780785 -40.495514 145.545670
-64.724586 41.819805 99.613678
-68.573067 26.775795 121.771027
-45.848507 -5.321006 104.093361
-66.210007 26.861948 78.960655
-73.335358 36.854015 95.895569
-73.544144 36.167870 95.525871
-62.557575 42.685951 98.201958
-69.801559 39.741810 106.222366
-58.960812 -33.313080 123.667915
-69.111618 40.054050 101.168861
-62.953857 -17.568073 132.552734
-68.336258 28.754263 120.246071
-35.945591 1.787136 137.188141
-64.304535 -29.095530 136.885651
-9.048746 36.408527 82.836060
-67.675323 24.146734 68.615746
-19.018913 44.475269 68.624931
-63.894646 -30.810585 139.118881
-67.366722 25.958303 75.721542
-65.854759 25.480824 85.863625
-61.737812 31.679169 70.589233
-59.276356 30.529415 85.857300
-64.469627 41.064411 95.826149
-69.198463 39.978260 107.324150
-18.074905 42.197456 60.194630
-70.283684 21.721882 123.047234
-41.872124 28.254660 40.967861
-21.298664 39.865116 72.865601
-72.063232 38.014889 99.828644
-72.824997 37.567608 100.888268
-54.795860 34.805206 66.278709
-64.891075 28.574856 74.109787
-65.411949 28.095129 73.514435
-33.192493 -8.957051 128.865051
-61.639935 -8.557997 83.736938
-65.382454 -3.254179 109.804070
-33.096569 -9.527633 135.449997
-25.020948 -13.288194 141.576553
-55.971550 -6.447851 110.406746
-43.478260 -2.400207 125.656181
-50.577541 -49.251404 135.805252
-62.843643 -4.585882 94.188095
-55.173424 -7.315093 103.391350
-54.660694 -9.064234 92.752449
3.172280 -16.964676 86.814056
-21.392176 -14.769638 137.542023
-32.558414 -9.787017 131.316483
-48.914753 -13.831900 88.534126
-35.066761 -6.248652 125.102280
-47.280994 -17.089027 74.122498
2.648800 -16.735790 88.512405
-66.166679 26.777960 69.439354
-59.325329 33.338524 74.800880
-70.363579 37.295967 109.353722
-65.094147 26.112064 86.241333
-42.186646 25.652395 50.454113
-19.398535 37.467312 77.833939
-41.547745 27.072737 50.833065
-41.663536 28.144470 51.928432
-19.258747 36.996792 78.168045
-39.495693 29.864723 51.576866
-39.840267 29.483843 51.246750
-39.732727 29.695101 51.724831
-38.969131 30.312574 51.382259
-36.999638 31.780155 49.145599
-37.691082 31.412361 51.734093
-38.489830 30.683481 51.023754
-37.793571 31.363415 52.039345
-36.014908 32.639851 52.016701
-73.487488 34.649448 104.977394
-68.607971 24.035713 72.503914
-64.139565 28.306263 66.440407
-65.556984 25.759291 85.894531
-17.533472 42.748066 59.959042
-68.185287 30.142096 119.281776
-22.007830 40.389446 67.791954
-73.100327 37.332207 96.177948
-73.880920 21.575880 119.250481
-71.774277 38.170673 99.771057
-43.200325 2.635513 132.479355
-20.916327 32.946854 51.120506
-21.039160 32.807583 51.109318
-20.007006 33.812023 50.431515
-20.062126 33.797512 50.638142
-19.603996 34.315388 50.218712
-19.518625 34.433838 50.109238
-17.334204 38.198750 50.998196
-17.699787 37.488026 50.524837
-18.235361 36.770760 50.975697
-16.940218 39.103451 51.797310
-16.265427 39.991787 51.432652
-16.578051 39.453194 51.223286
-14.428399 42.104187 51.193722
-15.239666 41.418495 51.496635
-15.054897 41.527122 51.166283
-14.841466 42.036797 52.097816
-14.282630 42.222595 51.243706
-21.845173 40.166073 65.842178
-25.766006 -19.165548 78.934212
-11.402037 43.679996 51.754604
-10.443459 43.953220 51.544086
-51.089306 -6.724541 101.796318
-63.065125 -4.190267 93.356621
-52.945217 -14.276479 79.027542
-69.187729 34.713860 114.756561
-50.774307 -7.704301 97.243340
-55.704712 -6.665641 108.919174
-71.025902 39.007389 102.989189
-71.271950 38.781872 102.764977
-54.964817 35.030392 67.214188
-71.953285 34.622421 109.675766
-72.499084 20.021416 122.610130
-61.503483 29.947598 82.519592
-67.371513 41.835732 106.378624
-66.252182 37.567730 114.822136
-63.629101 -28.591375 137.925659
-68.945496 38.533245 109.938072
-70.439926 19.584406 70.931938
-67.533966 23.210480 65.998039
-64.516441 41.149658 96.112122
-70.187607 27.258404 119.767212
-65.242088 27.924625 67.881920
-66.841042 27.300285 122.484497
-45.360054 31.574535 39.306599
-20.566580 42.595306 69.033638
-61.790016 42.042564 95.099129
-65.105003 26.717939 83.641830
-14.965122 44.137558 75.656433
-69.760414 25.977987 121.419022
-15.515509 43.997620 75.493553
-21.032005 41.864525 69.316124
-66.713356 25.465664 67.673576
-70.809776 21.349304 77.452919
-54.727661 35.501648 73.379868
-61.673424 31.959789 73.663406
-24.175804 35.549068 65.599327
-61.539799 -6.125799 100.603767
-52.800865 -13.507788 83.683067
-61.623314 -5.084513 93.433899
-44.176067 -14.473131 89.855003
1.909360 -16.873156 88.399017
-33.594563 -9.215289 130.528137
-8.972202 -22.864399 142.743240
8.607631 -16.357626 87.710846
-73.124153 21.127861 93.076538
-48.815666 -6.249792 103.286385
-12.698634 -21.477480 150.146088
-42.621677 -2.981202 128.139206
-26.257257 -10.740704 130.159790
3.999115 -16.348455 89.765846
-21.441332 -15.390409 139.784714
-23.718277 -11.138031 130.460342
4.600765 -16.330336 89.354797
-46.553947 -17.407236 75.052826
-50.870621 -14.591429 83.928787
10.023521 -15.469952 89.345695
-46.726799 36.610657 28.917692
-20.259186 36.220181 78.782326
-19.267097 36.576828 78.369095
-62.478363 -7.912306 127.341316
-17.240351 37.580502 78.639748
-15.393301 37.376255 79.676743
-15.360460 36.736122 80.169296
-15.457206 37.192764 79.746658
-18.523121 40.283031 76.791779
-18.058228 42.179626 75.995720
-39.732292 29.834103 52.315987
-39.782040 29.735905 52.093536
-39.184956 30.468443 53.070053
-36.953369 31.996449 52.879002
-38.214428 31.096960 52.641544
-36.903397 32.049366 52.988640
-36.322880 32.459248 52.900494
-14.382371 37.766224 80.123276
-66.215317 40.001846 111.427399
-68.403313 -2.059055 96.675568
-47.940414 4.775127 128.053299
-17.731165 42.688251 60.295929
-68.491608 29.210108 119.727127
-65.710350 40.258064 95.434135
-62.795025 -17.037197 132.685623
-62.247826 -12.552047 132.030212
-62.732571 -3.944369 124.568291
-14.608873 39.131966 79.164871
-21.300745 32.933884 52.389179
-21.303497 32.707062 51.941708
-20.511534 33.520767 51.411469
-20.533623 33.942795 52.229877
-20.250818 33.677773 50.965675
-19.711786 34.644020 51.308605
-18.752569 36.110252 51.311573
-18.415102 37.263493 52.640968
-17.163786 38.652672 51.543003
-16.330862 40.039501 51.812763
-16.625490 39.755692 52.195686
-15.700946 40.984386 52.002979
-15.331553 41.475353 51.921021
-15.915261 40.536270 51.561901
-15.464030 41.215233 51.789761
-14.886896 41.968788 52.000729
-13.949171 42.646973 52.236504
-13.472437 38.804527 79.897858
-66.316566 24.411327 86.630768
-16.170256 36.275097 81.303604
-10.650306 43.973640 52.543472
-13.274618 36.487061 81.586945
-61.665829 31.820873 74.475410
-72.346840 34.040077 109.541466
-73.331978 37.158733 100.095787
-44.992882 -1.477698 126.068779
-18.387348 41.825943 75.978462
-59.789616 31.566216 81.043999
-72.414375 37.464840 102.747101
-64.365242 41.635258 97.714928
-74.272247 36.166271 99.241806
-64.146362 27.050505 85.510757
-59.796432 30.969383 82.855011
-69.044586 37.401207 111.212654
-67.337799 40.447517 99.434853
-67.516907 36.839565 114.131882
-66.876709 26.353872 72.985153
-71.145203 21.127968 76.018257
-63.020649 -22.227966 136.216080
-13.408443 36.124393 81.908974
-40.003525 4.720669 132.744385
-72.699646 21.964363 120.876244
-66.918793 23.497581 64.702026
-67.853058 41.257275 107.071419
-54.755379 35.154060 75.271339
-21.308632 41.441380 69.528580
-61.064148 31.650732 68.669884
-20.381710 37.825771 59.051556
-66.442444 22.999521 88.467377
-72.344116 30.873186 113.774078
-59.310474 31.793953 81.253586
-15.054708 43.897953 75.946327
-14.675917 43.049294 76.890770
-43.297531 3.734900 131.760483
-21.073442 41.646000 70.456573
-21.012018 41.607697 70.921211
-58.900089 33.257706 68.495926
-61.992855 -8.931969 128.924744
-46.366421 3.592325 129.419662
-49.343494 -16.143801 75.067535
-53.511105 -7.109606 98.921112
-37.881714 -5.159629 124.883232
-58.991226 19.274757 54.566105
4.834618 -16.115282 90.493881
8.442802 -16.140257 89.049858
-54.469662 -12.195616 84.847244
9.471984 -15.924044 88.752495
-53.323372 -48.737839 146.920135
-58.331257 -10.565402 83.880585
-49.203957 -5.673548 109.442497
-61.607597 37.207844 90.632027
-59.105179 -6.729721 105.377174
-38.946823 -17.703739 73.543213
-39.346519 -17.751736 74.741623
-44.292774 -18.120428 74.787811
-43.152405 -18.202700 75.631264
-46.447208 -17.390659 72.846375
-60.471882 20.813999 56.011036
10.744025 -14.835102 90.149933
-52.064754 -15.472563 72.361732
-71.831253 38.131401 99.399384
-48.432697 -16.605738 72.598564
-66.795959 25.890747 81.268181
-59.129269 -31.388693 122.409134
-50.825180 -6.962296 99.674492
-65.987831 43.101875 104.791367
-72.162430 33.432732 110.708885
-68.761139 41.020756 105.181519
-68.972145 35.955894 113.299324
-18.904911 39.587727 76.937271
-40.313480 29.766237 53.401142
-39.606621 30.320986 53.533119
-39.052067 30.763868 53.655544
-37.257927 31.854427 53.182831
-36.056091 32.651863 52.868469
-35.993912 32.658218 52.156013
-36.351440 -18.125212 80.075516
-69.948128 39.574787 106.179825
-20.208887 -18.689562 85.227188
-72.910973 24.968885 117.997917
-71.414101 34.335037 111.102226
-70.579224 25.194563 121.116135
-62.112419 29.667109 65.782753
-62.641636 -16.677832 132.846130
-62.727562 31.061731 71.357178
-15.710577 42.314930 76.911720
-69.066315 36.642807 112.160866
-23.016582 31.441181 52.156200
-22.671640 32.525940 55.210648
-20.589275 33.750717 52.042198
-21.550928 32.820999 52.847408
-20.231030 34.710415 52.837456
-18.580687 36.903259 52.421490
-18.744289 36.287830 51.676491
-19.000906 36.741039 53.263836
-18.461021 38.058636 54.266930
-16.995029 39.471893 52.738758
-16.752651 40.520012 54.127907
-16.126717 40.605396 52.474018
-15.433015 41.548008 52.397854
-15.402414 42.271927 54.157295
-14.597062 42.295628 52.368664
-14.801382 42.129303 52.307178
-12.999572 43.321690 53.066319
-65.975487 39.514118 112.401047
-70.390411 19.810801 83.837090
-21.925457 39.339970 72.155411
-11.576717 43.836517 53.309769
-70.144493 22.608046 76.329987
-71.948997 19.390530 76.652534
-53.466129 -15.051157 71.522263
-55.570393 26.496166 55.852760
-65.606262 26.897188 67.027031
-36.544445 -1.432747 139.013580
-7.281709 -17.600779 89.341820
-62.801811 -13.446058 130.685318
-72.461288 37.754749 96.081604
-20.691263 40.345226 62.986504
-72.177887 34.112900 109.880661
-75.623970 32.338642 98.046173
-21.554337 37.923214 74.106445
-66.435638 42.413662 106.354294
-67.416969 36.740864 114.440071
-66.258179 24.450260 64.667290
-62.889732 -12.008488 128.687439
-20.923313 40.307465 63.469009
-17.630709 -17.148605 144.662750
-4.955331 -18.452648 88.076790
-71.499977 29.485497 116.590019
-20.744801 39.491634 62.081947
-39.608257 2.505385 135.063675
-61.359734 32.244854 73.458885
-58.885826 33.588642 72.513580
-66.257584 23.868044 64.009628
-24.155880 33.797504 62.449684
-63.445423 -40.312469 143.879227
-62.805790 -12.760743 130.252655
-59.455891 -12.950123 71.816147
-63.377007 -27.458220 137.953812
-21.224474 37.249329 75.178474
-19.892887 37.869488 77.031578
-64.626869 28.798237 74.474533
-21.740009 40.698574 70.300072
-17.753197 45.587719 68.743614
-19.865917 43.736057 66.144501
-20.863903 42.142128 69.087952
-65.497643 33.604595 119.073776
-73.209480 33.565411 107.049622
-45.890953 -17.724539 74.639137
-48.749992 -16.401728 74.729927
-50.732517 -15.713641 74.209885
-51.490505 -15.560695 73.145485
-50.889362 -15.678067 74.125137
-52.738743 -15.281071 72.067467
-54.383499 -14.663028 72.795692
-42.255322 -17.907602 73.335564
-41.252068 -18.016060 76.229469
-40.873238 -17.961756 75.668892
-38.376465 -17.654768 73.613083
-37.021267 -17.726212 75.594116
-37.816761 -17.650396 74.036736
-71.241150 35.975105 92.386398
-49.009563 -5.403613 110.760460
-43.953060 -2.101536 126.206856
-45.776447 -14.693436 88.527245
-55.014107 29.975729 59.153343
-51.804733 -14.239552 83.193123
-53.329342 -7.105325 99.819916
-55.134949 -14.370789 73.044182
-14.701467 43.311954 76.690002
-66.482819 24.958462 85.415833
-59.635696 29.581528 62.622211
-62.137840 31.607248 71.667969
-21.550442 42.882530 29.202906
-67.933762 41.926727 103.896492
-49.847233 3.021330 126.303055
-73.106674 24.150280 118.018990
16.517117 -18.624716 77.975273
-14.144884 -30.213442 73.582359
-2.337221 -18.633215 83.718567
-39.885368 30.915228 55.295643
-38.345913 31.198580 53.459129
-37.164989 31.897469 53.129505
-25.049160 42.441120 29.845295
-37.608860 32.517151 55.373817
-13.962347 42.605080 77.477669
-62.851093 30.557951 69.854973
-69.719398 21.453634 71.199066
-67.816566 39.855801 97.512413
-71.556580 28.519547 117.131767
-71.368866 34.766666 110.628006
-71.102234 24.837440 120.718559
-72.184425 18.852255 75.546341
-62.859413 -15.924364 131.072693
-68.283310 24.986607 75.650719
-32.624363 -9.762050 131.708954
-71.504951 35.483761 109.457283
-21.677658 32.628769 52.768860
-21.113426 34.478687 54.782227
-21.428926 33.413002 53.589573
-20.598564 35.824337 55.900200
-19.538176 36.135338 53.610130
-18.752127 38.085701 55.081188
-18.510977 37.967491 54.228806
-18.453571 37.884686 53.896729
-17.054668 40.046070 54.092571
-17.193052 39.331814 53.076042
-16.871040 40.191582 53.833244
-16.083294 41.242332 53.600315
-15.759377 41.940441 54.227196
-15.318746 42.735386 55.279243
-14.645776 42.997749 54.779072
-14.681811 43.072327 55.059372
-13.223666 43.686943 54.743237
-60.822369 -8.151598 129.980194
-70.814705 38.694405 105.405159
-75.153969 34.395073 97.567741
-8.611893 44.989956 55.496021
-43.720131 -14.638360 89.565201
-64.263054 41.310673 96.157928
-55.215084 -7.300630 103.872398
-24.034811 42.912941 29.320135
-68.631439 22.264828 84.820061
-67.816521 39.444202 95.543884
-68.204086 39.275154 95.467369
-63.512867 29.422537 77.789734
-52.291782 -15.491009 70.767311
-66.548874 39.678238 94.807480
-74.465897 35.969112 97.049599
-62.250526 -16.171740 133.495071
-69.683571 39.053490 96.939827
-66.624222 37.579063 114.350128
-13.463842 43.573776 76.985550
-22.079464 39.399132 71.840752
-19.587236 44.040791 67.671478
-20.326538 39.437225 61.134647
-68.548264 21.531799 86.123734
-60.281685 -25.295061 122.674690
-57.495903 -33.331276 122.510910
-62.411194 -2.870125 126.073288
-17.520800 44.267933 63.677128
-70.847900 17.719177 70.292000
-13.318463 -20.692099 144.040604
-62.655628 -21.568613 136.325989
-59.871254 32.624741 78.054810
-63.364079 27.918552 84.515038
-74.589546 33.617725 102.897385
-73.541740 36.828388 100.606689
-65.815788 27.572451 75.322525
-70.557259 36.627628 109.810028
-62.613358 -5.009679 125.023140
-21.892605 40.498257 69.945274
-57.293896 34.289364 70.000641
-18.409571 45.254116 67.487892
-54.173019 -7.002666 107.557068
-68.417747 34.483021 116.159744
-68.845779 23.000984 70.962334
-62.717583 30.325975 68.793465
-63.099827 35.486397 89.792564
-52.391308 -6.371076 112.476143
-47.241665 -15.241625 85.072327
-46.453903 -15.353991 85.276382
-45.694622 -15.626448 84.955948
-43.907902 -16.202412 84.719452
-44.001492 -15.979005 85.269623
2.307901 -26.674765 75.312737
-45.715199 -15.492571 85.396271
-63.528225 -4.456431 113.080109
-63.365479 -5.127240 97.978340
-25.897902 -12.925525 140.811478
8.810458 -16.050722 89.167679
12.648895 -14.321248 88.850777
-59.731113 -6.564430 105.675400
-21.435339 42.988403 29.284639
-44.568214 -1.308756 116.597267
-53.925484 -6.776856 108.871140
-56.245083 -6.986727 97.379883
-61.255753 -7.180576 87.743935
-58.956398 -13.066778 72.713341
-73.992111 19.518730 121.492645
-63.476585 -34.040379 141.476334
-23.734680 34.098034 61.950993
-69.489464 40.196262 105.621338
-68.954018 41.013142 104.235191
-69.303673 40.652260 104.346054
-19.191376 43.671875 71.294044
-22.748743 38.195255 65.482674
-16.040449 44.759026 73.126884
-63.278046 30.145412 74.547615
-69.292458 23.264067 73.159966
8.062058 -16.907206 84.879921
7.343227 -17.124794 84.056923
-55.049503 -9.352983 91.408630
-19.227539 43.509651 71.709381
-67.107956 25.058483 68.455719
-62.222469 -20.012844 135.868851
-35.507011 -17.964403 74.098938
-69.745193 23.083363 74.617188
-71.390839 33.891472 111.815750
-61.389126 29.629549 84.061722
-70.715355 34.730633 111.959778
-72.081116 23.804220 120.071358
-63.298073 30.586096 71.609047
-62.018364 -10.241911 130.514008
-67.828743 25.460056 75.624352
-68.710526 33.943638 116.348221
-59.103848 31.757475 65.362175
-13.157974 43.526505 77.103241
-21.708176 33.590107 54.684433
-20.129524 34.975193 53.057674
-20.245106 36.203152 55.644600
-18.972610 37.554516 54.688362
-19.139421 37.733734 55.456345
-19.351925 38.026627 56.546841
-18.110413 38.822758 54.703293
-18.509834 38.361809 54.934437
-16.619207 41.792469 56.267982
-16.598122 41.472019 55.549824
-17.022316 40.678478 55.189110
-15.753492 42.026306 54.394497
-15.758826 42.360973 55.177486
-15.736788 43.182125 57.061436
-14.203646 43.616070 55.874870
-72.078316 31.182465 114.347359
-18.336994 42.956814 61.885174
-23.203135 36.954136 64.985252
-18.371332 45.144913 66.765274
-64.981400 28.241789 67.843575
-18.584206 42.057667 60.909260
-15.545857 44.592300 74.196968
-43.713634 -2.254969 125.875923
-48.130413 -16.748751 72.228722
-66.874252 23.980936 86.150917
-68.420197 39.356480 96.159096
-69.566757 21.925560 82.376999
-70.239578 38.443623 108.080727
-71.132408 23.285849 121.935921
-71.929253 31.799623 113.682877
-72.085945 18.207684 74.003220
-59.418213 -12.552142 74.382965
-68.492111 21.815531 85.879402
-70.602104 24.528273 121.735657
-62.620342 -9.005657 126.170258
-62.494717 -7.304704 126.724510
-18.115784 42.546947 60.800526
-28.701977 -11.419253 132.973343
-62.463753 -7.910062 127.353226
-18.630411 42.152313 61.114025
-62.431244 30.674618 69.100281
-66.847084 42.194645 106.361870
-69.004677 25.383934 122.452538
-72.546539 37.502922 95.684578
-22.154848 35.834747 60.564117
-69.834366 40.234905 103.550133
-62.063038 -14.178915 132.881882
-23.917549 36.616478 70.522087
-54.797779 -14.548919 72.342232
-66.215981 40.892818 99.110405
-69.946609 22.803829 76.954338
-71.480171 20.518158 75.837509
-52.504738 -9.830883 93.373077
-22.184332 39.946877 70.313553
-11.602282 -16.867788 136.096832
-43.135807 -4.313700 103.687576
-59.612064 31.782591 66.096413
-60.161911 31.541393 66.489708
-60.268379 31.375576 66.311829
-61.319580 30.529560 66.230003
-65.692398 25.527489 65.190811
-74.703621 14.036980 92.785629
-48.177837 27.892448 53.956310
-58.569653 -6.209223 94.513962
-65.493378 -3.407238 109.062874
-63.769272 -4.419725 109.100166
-63.985638 -3.743383 93.654121
-50.256004 -8.389630 96.149574
-38.417912 -16.503531 85.333389
-18.357458 -15.155573 137.471985
11.126706 -15.513849 87.647812
-38.578388 -4.399550 123.427872
-18.770506 -12.945868 133.687057
-35.808407 -5.903333 124.884315
-53.400837 -7.097735 99.121208
-57.407383 -13.576648 72.707848
-56.621414 -13.780551 73.252441
-56.594452 -13.780698 73.289635
-58.441029 -13.347485 71.945862
-58.777409 -13.253875 71.725922
-60.107166 -12.466719 72.885078
-59.890011 -12.732580 71.642731
-40.372684 -4.465032 126.055168
-67.729584 39.865116 97.337227
-66.744568 40.660271 99.195229
-65.967888 40.442738 96.546867
-64.778648 41.260643 97.090965
-65.116730 26.771807 83.426819
-63.604397 27.658886 84.760750
-55.018745 35.429939 71.663788
-72.167381 34.049908 109.968376
-70.316727 19.983351 83.819099
-71.833115 18.734694 81.006287
-51.750408 -48.742981 134.158554
-64.588219 30.784986 88.954964
-60.415840 -6.620662 101.401421
-71.755440 19.139799 80.437904
-18.162598 44.876350 70.294579
-49.153034 -6.813426 100.449615
-33.843182 -15.536543 88.573570
-71.886230 34.424541 110.082893
-72.815605 32.368835 109.342209
-69.063484 23.962212 77.133904
-67.853661 37.740425 112.475372
-74.020195 33.619949 104.646461
-64.662231 29.205338 71.859367
-70.858337 19.778900 82.567665
-22.207813 39.979969 69.779480
-65.737579 27.584904 76.391838
-70.927605 20.481930 80.687965
-69.417084 22.728909 80.755051
-21.391964 34.970913 56.457157
-22.152031 34.533791 57.859108
-21.298988 35.493542 57.204021
-20.650284 36.277088 56.861736
-20.436045 36.527569 56.756546
-19.133728 38.387146 56.658199
-19.218544 38.507042 57.089214
-18.684269 38.994644 56.555874
-18.682501 39.060013 56.686749
-17.391388 40.747379 56.320618
-17.135557 42.409847 58.344791
-16.143353 42.755836 56.909645
-16.635235 42.289242 57.098297
-15.599214 43.219887 56.945271
-15.018175 43.493336 56.716492
-70.653397 20.896288 80.711624
-60.165634 -5.835806 114.958694
-65.556015 39.679054 112.551880
-47.701187 -16.893875 73.667732
-65.764534 25.691612 85.489296
-66.225700 25.300585 85.287201
-60.688965 -12.042539 70.805099
-67.985092 -3.459885 104.300209
-72.375473 18.114546 77.049324
-23.589369 36.065327 64.708443
-70.257927 38.749027 96.440445
-61.548077 29.919676 65.426170
-70.282158 20.198902 83.627724
-49.511143 -6.362948 104.129333
-65.235657 28.069410 76.445534
-65.762177 25.898706 84.735153
-59.109447 33.338585 69.725853
-14.285001 44.991341 74.273369
-73.701698 36.570026 96.207298
-62.428902 -12.031978 131.310776
-68.455414 23.764336 71.186600
-69.216164 23.123465 80.493202
-69.081062 21.940866 84.055168
-69.179100 22.480963 82.411934
-62.308094 -6.957343 127.368294
-70.876411 38.333923 106.378494
-59.550804 33.278713 72.691841
-69.627243 23.215078 122.903252
-58.912212 -33.609612 123.915398
-66.461594 40.730213 110.167023
-67.292145 40.300861 109.703308
-63.569736 30.157146 72.808678
-47.494957 3.682667 128.367065
-68.919991 22.601633 83.114044
-58.619991 33.612804 76.593025
-67.897614 24.144796 83.093018
-68.210411 20.386574 88.017136
-24.036770 36.649639 67.189445
-72.987152 25.392576 117.678894
-58.464176 33.639954 69.097450
-48.968792 -5.851030 107.738190
-19.679640 43.753891 68.798111
-58.011467 33.390839 67.102318
-63.229404 29.048632 80.735649
-62.092739 30.593523 77.922325
-62.900318 -20.145197 135.251617
-18.471397 43.323715 62.877735
-22.156305 38.279316 63.923397
-23.409601 37.578724 66.713501
-63.627560 27.790743 84.123627
-41.324162 -17.849844 72.265602
-41.552559 -18.051453 75.728294
-39.244801 -17.737919 73.481262
-38.391289 -17.670918 74.394295
-40.789948 -17.879183 73.483315
-41.249886 -17.889606 73.244095
-60.741436 -12.035570 72.826866
-35.071556 -16.589317 85.825706
-63.263634 -5.384077 100.704399
-69.023720 -2.865947 101.334648
-61.840740 -6.061406 102.664757
-32.676098 -15.324035 89.612862
-59.868725 -7.527928 89.367165
-27.101259 -18.022694 83.857124
-29.968657 -17.278700 84.639153
-31.642288 -17.100126 84.652969
-51.820766 -6.873814 101.085823
-28.605328 -17.567318 84.374489
-32.248272 -16.621708 85.949547
-69.093452 23.308287 80.487953
-61.390709 -2.128721 126.900818
-74.809135 33.316929 95.753418
-61.679707 29.806950 65.418762
-62.747047 28.437595 64.866112
-18.015762 -19.026133 84.638008
-16.485037 46.341431 67.745125
-55.356976 35.019775 67.786278
-59.017910 29.616920 62.048595
-71.275963 31.096041 115.779808
-73.117218 33.990185 106.904968
-68.538483 24.119173 80.466049
-67.763687 24.779875 81.728271
-67.393692 25.103018 82.067039
-67.085060 25.651869 81.144402
-66.946259 25.740021 81.290123
-19.944426 43.251106 65.264633
-21.610401 36.271324 59.789997
-61.360683 29.478973 85.053993
-64.392029 27.388199 65.590775
-69.917870 19.184168 85.424194
-70.938896 24.325853 121.494911
-67.940857 38.859253 110.837837
-60.632671 30.135115 84.137306
-62.313065 -12.859803 132.010605
-57.956551 -35.247948 123.507339
-65.843941 27.133415 79.593513
-61.257351 -2.647633 127.159203
-23.038952 32.949665 57.080185
-22.787035 33.479847 57.554035
-21.688046 34.596478 56.577229
-21.099859 35.632511 56.895123
-19.947144 37.704144 57.638538
-19.559038 38.453186 57.970325
-18.541067 39.912262 57.787037
-19.993174 38.585434 59.309834
-18.897381 39.995941 58.785870
-17.402731 41.682289 57.837879
-17.555389 40.594604 56.500839
-16.657124 42.134319 56.930500
-16.601887 42.939621 58.034889
-15.913769 42.891613 56.740456
-15.907548 43.645508 58.936375
-14.933613 44.001381 58.571926
-13.437842 44.846931 59.979195
-66.243492 26.661285 80.116409
-69.302208 36.653957 111.771156
-64.872620 27.724451 80.724289
-68.678856 39.595772 98.011803
-19.052963 44.631145 66.231232
-65.133797 26.029057 86.445992
-74.329025 33.623997 103.696762
-65.068344 28.717859 70.049942
-35.688457 -16.392170 86.200577
-71.647545 38.060261 95.854973
-53.688591 -14.986679 71.053520
-16.390404 43.507259 59.416817
-66.076225 32.950420 119.156555
-19.679131 43.945339 67.512978
-39.418877 2.430632 135.180588
-22.381296 35.920044 61.284126
-62.057934 31.711731 72.474487
-58.307140 32.373463 65.497574
-67.240974 25.118795 69.458199
-67.763412 24.715185 81.941574
-56.797634 34.530605 70.306969
-64.339470 28.147945 80.805519
-15.265942 -18.817648 143.070450
-17.957630 45.372345 69.055084
-63.476799 28.929646 80.394531
-70.241798 38.906609 107.154549
-62.055824 29.721125 81.779884
-58.448029 -35.029385 123.916603
-55.911442 33.919529 65.634865
-61.528690 29.891409 82.713219
-18.409369 -12.304291 150.636856
-67.822754 24.573092 82.151260
-67.104507 24.873671 83.802414
-24.166462 34.797817 64.283043
-74.870674 34.543198 100.649239
-75.191063 33.722847 100.570435
-20.179102 38.304691 59.354126
-71.549911 36.263603 108.235039
-23.145050 37.796890 71.292770
-20.379627 42.947437 68.252701
-70.433456 39.247086 105.107498
-54.274860 34.577297 65.572243
-63.436348 -40.124866 143.901474
-20.877604 40.399139 63.468861
-20.343298 42.490894 65.055893
-21.255732 39.550373 63.320660
-21.712248 39.057552 63.802288
-22.211962 39.953384 67.340034
-57.921799 30.696407 62.500256
-71.223305 24.014921 121.370247
-32.629570 -18.706751 72.164833
-34.422676 -18.088692 73.565674
-34.815655 -18.094975 74.498085
-52.096676 -6.880610 101.586884
-43.865376 -14.336397 90.261986
0.265516 -16.351421 91.509346
-60.200268 -7.338648 89.327003
-68.691330 -3.010242 101.156456
-26.901855 -17.476738 85.717262
-26.842762 -17.789146 84.938057
-45.857143 -14.538714 88.953529
-20.938562 -18.874634 84.861397
-22.475023 -18.722380 84.984581
-46.181358 7.169570 46.543747
-18.247931 -18.857029 85.029533
-60.821838 -5.587495 92.943352
-59.710205 -5.912100 95.353951
-36.392883 -15.721231 87.641411
-0.056878 -27.804134 74.628654
1.038286 -27.798758 73.065948
-61.487621 30.317163 81.171715
-15.859486 44.545849 62.252872
-69.169479 23.692070 78.115150
-18.311396 44.046368 72.255074
-18.891670 44.780441 66.383972
-23.896132 36.331005 66.026550
-60.406891 -12.336894 71.876266
-64.386711 28.885038 76.239937
-23.327606 37.710217 70.744324
-67.900833 23.709520 68.527168
-67.908585 33.601780 117.384544
-71.962288 33.141586 111.542427
-57.799721 32.673702 65.460007
-66.769890 25.164637 84.013672
-17.812565 45.698978 67.670441
-15.399342 44.039276 75.514549
-72.140221 18.959455 76.243347
-69.441887 40.618084 103.255676
-13.586467 36.356087 81.579147
-49.925659 -5.135950 113.772728
-63.800831 27.553112 65.092415
-70.275169 38.032932 108.599174
-66.845383 39.179035 111.830864
-21.036837 38.929218 74.164101
-22.934084 38.148735 66.081001
-62.019440 -10.854102 75.073647
-60.877235 30.983093 80.430031
-22.730673 34.192749 59.075752
-21.934944 35.078445 58.381306
-21.608232 35.937435 59.191082
-21.528362 35.786755 58.587303
-20.888121 36.790966 58.676670
-20.056297 38.360416 59.070015
-19.858160 38.478565 58.802242
-18.710878 39.717506 57.880116
-18.342113 41.165321 59.230057
-19.286709 39.805298 59.431419
-17.814777 41.691174 58.779854
-17.886755 42.433907 60.194988
-17.006426 42.681015 58.456268
-16.526516 43.000813 58.022522
-16.015512 43.738010 59.482677
-14.863101 44.105301 58.897633
-60.202129 31.002607 82.045998
-58.857204 32.827919 79.800888
-48.703411 -12.640997 91.074356
-35.051888 -21.327187 28.387009
-35.736912 -20.131227 28.467304
-35.608337 -20.321806 28.643837
-35.937878 -19.624138 29.006308
-36.954395 -17.424486 28.604645
-37.189831 -17.048380 28.747915
-37.231884 -16.787636 28.576143
-36.917542 -15.902416 28.175463
-37.259678 -15.969983 28.458715
-37.886765 -13.270112 29.320696
-37.869415 -13.329550 29.297573
-37.996227 -13.505912 29.746988
-38.074062 -13.102377 29.428524
-39.882244 -10.541661 28.600899
-68.969566 -2.912899 103.888039
-69.476646 -2.437207 103.885239
-71.740509 1.201321 105.141708
-75.906731 11.037186 104.646179
-75.645370 21.123018 104.180016
-75.187202 24.138422 103.581879
2.410500 -16.879412 87.930168
24.917315 -1.843336 94.782005
-7.805702 -20.481642 28.814959
-10.867776 -25.326273 78.374855
23.514620 -3.700569 94.974724
4.402426 -17.680281 83.052589
-57.882866 0.129126 30.386953
-75.562683 19.156754 105.866455
-75.669441 20.555983 104.539642
-75.564278 31.276787 101.491501
-34.165810 -22.009445 30.265240
-34.871277 -21.266472 29.822367
-35.077435 -21.265707 29.047411
-36.135162 -19.095594 28.497824
-35.630608 -19.741053 30.052765
-36.476562 -18.217089 29.906677
-37.457638 -16.410877 28.716549
-37.104053 -17.079838 28.780056
-37.427765 -16.256187 29.784048
-37.895390 -14.545529 29.611666
-37.959385 -13.174883 30.196739
-38.915939 -11.437638 28.741274
-37.994572 -12.868374 30.185770
-39.569351 -10.601815 30.287895
-39.917496 -10.506686 28.836296
-65.193855 22.108519 61.986385
-74.370949 16.335018 92.806236
-74.920258 9.712661 93.407516
-72.984566 6.017450 93.043243
-72.761810 3.760434 94.600700
-69.734924 2.614650 91.302330
40.625233 5.594969 59.366943
1.123505 -16.602364 90.453316
-5.388067 -10.253265 98.295456
-8.666780 -27.825571 76.727173
24.540356 -17.050438 64.329903
-56.976013 -0.145847 32.750351
-57.489983 -0.170290 31.574997
-57.427422 1.629275 33.447273
-74.883301 21.138258 106.621353
-64.539154 -28.340467 136.102539
-63.162231 -25.396738 137.504578
-63.577938 -25.141092 136.613205
-44.261410 1.966126 131.758499
22.682577 -6.607932 93.430923
-35.342766 -17.677839 72.268623
-36.008869 -5.677124 138.380005
-39.103287 -2.357036 136.211044
-75.296608 21.407354 105.105026
-74.499962 22.922153 106.813667
-13.657400 -6.250854 99.797546
-53.286842 -48.849407 136.820938
-55.825363 -44.953732 137.320175
-56.047451 -44.436264 137.918625
-57.101742 -41.600075 139.556931
-57.308182 -40.957188 136.489899
-59.147240 -39.370193 138.642761
-74.836548 23.422506 105.470612
-50.045601 16.854130 31.317766
-50.586353 16.478628 30.404243
-50.692997 18.725836 31.961588
-51.676426 19.529800 31.203957
-52.825645 22.244503 31.714809
-74.779945 24.619143 105.001450
-74.696953 25.134203 105.048088
-74.908401 24.531111 104.524284
-74.924065 26.075937 103.608170
-73.939301 27.464823 106.457603
-64.419617 -27.336985 136.171021
-52.988338 -49.184788 139.808838
-55.930626 -44.450855 136.542694
-56.799385 -41.864574 138.808853
-59.738033 -38.836906 138.653198
-64.369652 -34.749470 140.136810
-70.496071 4.531950 113.587097
-32.809753 -7.747264 140.258423
-62.867992 -15.941343 131.010742
-62.750706 -39.530045 141.638962
-36.022793 -5.968755 138.054672
-56.148148 -44.597214 140.111069
-32.074482 -6.325940 141.827728
-74.501945 28.035229 104.435150
-74.214638 29.018774 105.103455
-63.274754 -39.797451 144.149063
-62.946163 -41.734035 145.022568
-63.038723 -40.664017 145.158447
-73.647766 12.419660 114.443054
-75.699219 25.191208 100.578743
-75.596771 26.765257 100.435623
-75.804085 9.983824 94.913139
-31.855045 -23.387323 30.612820
-34.471489 -22.055973 29.392963
-34.654797 -21.397388 30.137459
-35.078648 -21.144655 29.312405
-35.687885 -19.125727 30.914661
-36.415661 -17.917139 30.701645
-36.064678 -18.136082 31.326780
-36.549191 -17.529287 30.849722
-37.928535 -14.742519 30.432245
-38.010303 -13.798738 30.128674
-37.961086 -14.341214 30.625555
-37.870022 -11.658240 31.993370
-38.025543 -12.871765 30.079378
-38.572659 -10.821557 31.858953
-39.453129 -10.378532 31.003305
-39.587387 -10.319803 30.919308
-70.148918 -2.294990 102.563049
-74.676888 14.887439 92.884987
-52.766834 -14.422709 78.629471
-7.918660 -17.303617 89.698128
-75.896637 10.591990 104.190132
-25.371906 -14.693068 91.026024
-53.757328 -4.399004 32.714703
-56.072910 -1.188319 33.129185
-55.781330 -1.051571 33.722351
9.030923 -17.296526 29.019873
-56.446239 -0.364766 33.326992
-56.613152 0.155051 33.580647
-56.659016 -0.539639 32.802994
-73.795456 29.222813 106.504433
-74.123215 29.289881 105.406364
-74.025734 29.951967 105.540878
-73.303871 32.589390 107.345383
-63.483540 -22.039438 132.826630
-61.546669 -25.311806 131.036179
-60.877567 -25.627172 130.188782
-60.035915 -28.772635 131.686172
-59.407925 -29.148998 130.024124
-59.371292 -30.000711 130.673721
-59.201355 -32.029751 131.740662
-58.978096 -33.085716 131.128464
-58.884975 -33.626015 131.201736
-58.202587 -35.993675 131.067688
-58.010452 -37.043102 131.836288
-58.096043 -36.884029 132.260406
-57.557495 -38.489899 132.501068
-73.687813 34.632915 104.314018
-74.842361 30.814501 103.260872
-49.806229 16.810047 31.679657
-49.939831 16.315353 31.269888
-50.079548 17.497477 31.737732
-50.062790 18.469984 33.177925
-52.040627 20.587778 31.605145
-51.890770 22.003847 33.283344
-53.135239 22.884153 31.749355
-52.537251 21.807701 31.899563
-52.796570 23.420616 33.119629
-58.216621 -34.966087 123.471107
-73.096764 26.808527 111.644440
-62.670135 -29.783928 135.024872
-63.668552 -36.662918 141.595627
-27.631611 -18.888330 79.197029
-74.404884 30.803755 104.349358
-63.190063 -16.529518 130.091553
-63.454258 -20.561512 131.586548
-60.438198 -25.698027 129.602051
-57.885601 -37.436893 131.601196
-18.397013 -10.043595 96.516945
-8.654567 -9.473672 98.638603
-41.687202 0.299334 134.231964
-76.569778 15.560044 104.884872
-62.217258 -29.864630 134.658325
-55.726421 -44.095451 133.954956
-55.879932 -44.157825 135.489227
-63.563358 -40.211231 143.527084
-62.624725 -41.929207 145.242279
-59.534813 -31.194225 132.780396
-57.960487 -37.588673 132.569550
-55.863613 -44.851147 137.130920
-11.157022 -7.481273 99.615219
-58.313644 -22.623253 120.143257
-59.554302 -28.747278 123.509163
-75.660011 25.152143 100.800682
-75.804848 12.545972 93.889282
-75.859497 11.364873 94.181114
-34.069317 -21.515341 31.217070
-34.479733 -20.660030 31.624529
-34.318680 -21.663200 30.500462
-34.330688 -20.545658 32.013962
-36.160030 -18.290968 30.825724
-36.158226 -18.299170 30.841665
-35.495045 -18.701483 32.060940
-36.050114 -16.570517 33.348881
-37.249050 -16.624056 29.767509
-36.864388 -13.803561 33.181435
-37.100983 -13.139834 32.898624
-37.306488 -11.717746 33.393059
-37.852261 -12.536154 30.953186
-37.608135 -11.427369 33.056629
-37.961674 -11.808645 31.559925
-39.038845 -9.559690 33.764481
-73.236870 3.551363 103.897484
-25.556263 -17.838875 86.160637
-59.071785 -6.034192 94.417610
-65.861382 -0.327815 119.156784
-73.108398 22.864998 111.241898
-73.657387 22.936974 109.294609
-53.393860 -3.902710 33.692017
-54.217129 -2.071353 34.876339
-55.364346 -0.738096 34.662018
-54.893978 -1.107422 34.915718
-56.373116 -0.027215 33.725204
-54.355721 -2.833984 33.959217
-56.218365 0.093663 34.076565
-55.833225 1.572744 35.456684
-55.979408 1.694597 35.363514
-57.090946 3.169920 34.149712
-63.476498 -0.076937 124.957840
-58.419102 -34.826363 129.442276
-73.808365 33.557411 105.299118
-68.322464 1.727279 115.228798
-75.565674 8.622897 101.716774
-55.187733 -46.121758 138.071304
