ply
format ascii 1.0
comment VCGLIB generated
element vertex 1613
property float x
property float y
property float z
element face 0
property list uchar int vertex_indices
end_header
3.434704 5.55144 -1.896994 
-3.330758 7.0298 -1.134236 
1.971597 7.037158 -1.896994 
-1.95178 3.027281 -1.896994 
3.355229 9.365366 -1.896994 
0.8788449 -0.449224 -1.304435 
1.463951 4.469287 -0.07978462 
-3.208974 1.521208 -1.896994 
-2.887226 7.306952 -1.896994 
-4.815686 3.880953 -1.896994 
-4.58575 6.413831 -0.4901096 
-1.143607 2.433539 -1.896994 
-0.6860999 2.055735 -1.896994 
0.7837963 -0.4366596 0.01776067 
5.755569 5.520833 0.157243 
-3.686368 8.847975 -1.896994 
6.763335 3.037547 -1.896994 
1.321627 9.986529 0.01880871 
7.011815 1.642057 -0.06005752 
0.8685157 1.84363 0.157243 
5.734716 -0.4488637 -1.730197 
-3.222832 5.224811 0.157243 
8.324943 5.382269 -1.156154 
7.011815 0.005461328 -1.227282 
-4.76029 9.831251 0.157243 
7.011815 4.888542 -0.07330095 
1.151031 8.620942 -0.947446 
-3.667997 2.911391 0.157243 
3.550115 2.285039 0.157243 
0.6390808 0.755956 -1.896994 
-0.2339069 0.04686323 0.157243 
-3.445788 7.56658 -1.896994 
7.011815 7.765869 -0.2377849 
0.3175199 7.033478 0.157243 
-3.726394 3.283932 0.157243 
-0.8550308 1.79171 0.157243 
0.06145837 6.059239 -0.07978401 
1.449909 9.566167 -1.896994 
7.24466 6.425203 -0.5182872 
-3.322485 4.75084 -1.896994 
2.358304 9.999561 -1.397188 
4.132971 9.6821 -1.896994 
0.6250576 0.3732781 0.1525327 
6.956042 8.164378 0.1144714 
-1.795416 7.32595 -1.896994 
-0.4139766 5.394542 -0.07978411 
-2.161435 1.300414 -1.896994 
-1.729136 6.33409 0.157243 
-2.958728 3.398304 0.157243 
1.489513 9.789927 0.157243 
-4.28186 1.505525 0.157243 
-1.664295 -0.449224 -0.4715303 
-5.201968 8.350439 -0.03845774 
2.40309 8.949259 -1.896994 
-4.494562 1.178994 0.157243 
7.585569 4.873355 -1.521093 
1.369396 0.4689478 0.157243 
0.06915236 9.999561 -0.9565096 
2.437189 4.374854 -0.02623626 
0.2887361 8.544621 0.157243 
5.372244 7.375621 0.157243 
0.5882516 7.70892 0.157243 
2.16818 2.824252 0.157243 
5.714334 4.085877 -1.896994 
-4.391479 2.535184 -1.896994 
-0.01381421 9.084546 -1.896994 
-2.596622 3.782704 0.157243 
-0.2483478 6.089873 0.157243 
6.979722 1.366818 -1.801223 
1.028293 9.999561 -0.918863 
-0.09110512 7.977336 0.157243 
-3.232482 1.563651 0.157243 
6.697486 8.885674 -1.896994 
5.099558 0.62246 -0.9316766 
-5.147916 3.469041 0.1106213 
7.011815 7.934655 -1.584264 
-1.984576 8.896227 -1.896994 
3.712271 9.591897 -1.896994 
1.661814 -0.4087873 -1.819896 
-4.911359 4.517852 0.157243 
5.87158 4.478164 0.157243 
-2.869215 5.396779 0.157243 
3.962871 2.819209 0.157243 
5.268471 6.816423 0.157243 
0.4004408 6.484993 -1.896994 
4.32027 9.999561 -0.7044584 
-3.000869 4.21167 0.157243 
-0.518225 -0.449224 -0.625169 
-0.1853826 2.351271 -1.896994 
3.084872 -0.449224 -0.8355306 
2.986432 4.923548 0.157243 
-3.103833 8.317007 0.157243 
0.5767326 8.703027 -0.02196369 
0.04121637 2.230229 0.157243 
-2.715725 0.9819969 -0.9284329 
2.792843 1.952996 -1.896994 
7.011815 5.228586 -0.3472598 
5.394338 0.657191 -1.896994 
6.078107 9.716551 -1.896994 
4.604665 0.9300045 -1.027894 
-3.151783 4.990515 -1.896994 
-0.2004068 1.548567 0.157243 
7.011815 5.132814 -0.4884337 
3.084707 7.833163 0.157243 
4.408453 5.665378 0.157243 
2.553134 5.840385 -1.896994 
-2.100709 -0.3983969 0.1033987 
-5.195981 1.199328 0.00304051 
-5.150652 5.909362 -1.844247 
-0.2972403 1.44225 -1.896994 
-2.432041 5.135476 0.157243 
2.651058 1.010164 0.157243 
3.986308 9.999561 -1.098315 
-1.761594 7.340689 -1.896994 
-4.480185 -0.1110327 0.157243 
-5.201968 2.444155 -1.229837 
-2.964111 -0.449224 -0.8154007 
-3.103351 9.999561 -1.407444 
7.011815 7.110384 -1.420239 
1.898971 1.359267 0.157243 
3.859762 0.5128341 0.157243 
2.004825 3.339114 -1.896994 
-5.145228 7.880202 -1.856388 
2.99139 9.999561 -1.719731 
-0.1857634 5.047046 -0.07978436 
0.8530438 2.943068 0.157243 
-1.42551 8.791771 -1.896994 
-3.17707 0.4676466 -1.027894 
2.353122 9.716429 -1.896994 
-5.155914 8.46502 0.09271744 
-2.763036 5.972812 -1.896994 
5.783836 9.922874 -1.896994 
-2.135946 1.974231 -1.896994 
4.539117 1.792839 0.157243 
-5.001477 7.369215 0.157243 
4.194767 1.451544 0.157243 
-0.7309132 3.171593 0.157243 
-1.985762 5.917863 0.157243 
7.011815 -0.3014465 -0.5466812 
4.286206 7.757494 0.157243 
3.093066 2.268893 -1.896994 
2.982892 8.167728 -1.896994 
-1.393535 4.691717 0.157243 
1.344479 0.308877 -1.896994 
-5.201969 2.714536 -0.4942947 
-4.044519 6.020318 -0.8861098 
-3.625484 8.580082 -1.896994 
-2.91437 7.16101 -1.896994 
4.044165 4.445705 0.157243 
4.778159 1.017072 -0.3853585 
5.246208 3.807656 0.157243 
5.702139 9.999561 -0.6328192 
6.415731 6.010257 -1.896994 
-3.014866 9.141237 -1.238924 
-4.040067 0.1506286 0.157243 
-2.446404 3.337095 0.157243 
-0.3720913 4.644471 -0.07978451 
0.9778124 2.721501 -1.896994 
-3.9421 9.999561 -0.9745054 
2.582569 3.96876 -1.896994 
1.079563 8.556876 0.1331419 
4.480791 -0.449224 -1.598541 
-2.539105 8.680495 -1.896994 
-1.830055 9.395756 0.157243 
6.084853 4.790684 0.157243 
-3.315902 4.723741 -1.896994 
-2.836621 7.654367 0.157243 
7.232421 4.907757 -1.597827 
4.921971 9.624614 -1.896994 
-1.969414 -0.449224 -1.537215 
-4.62604 9.189775 -1.896994 
-2.764165 -0.449224 -0.1165327 
1.865923 4.860128 -0.07978451 
1.873277 6.22144 0.157243 
6.113385 9.999561 -0.3073415 
-3.761716 9.920595 0.157243 
5.139719 3.357146 -1.896994 
0.4532354 7.95209 0.157243 
0.6372584 0.6123048 -1.883668 
-3.990348 4.867013 0.157243 
4.260961 9.999561 -1.185107 
-3.174341 3.169234 0.157243 
2.334307 4.668768 -1.896994 
-1.846647 9.5214 -1.896994 
1.845491 3.757146 -1.896994 
-5.201968 2.798549 -0.01981856 
-5.079163 3.387053 0.157243 
-1.514872 9.999561 -0.3137105 
6.993831 6.636061 -1.769643 
-4.557696 6.197949 -0.2380471 
0.6945677 9.999561 -0.8294015 
6.257333 9.328018 0.157243 
6.721888 6.669831 0.157243 
-5.201968 2.621235 -0.06285034 
7.007074 9.081958 -1.740002 
7.12783 6.196886 -0.3942639 
2.236169 -0.07518779 0.157243 
-0.3253872 5.627748 -0.07978406 
5.612616 5.991116 0.157243 
7.011815 1.458759 -1.711754 
0.9449031 -0.449224 -0.2481772 
1.57773 4.211668 -0.07978471 
5.170909 -0.1691264 -1.896994 
0.5672384 9.480826 0.157243 
4.988054 -0.449224 -0.3702221 
-2.380795 9.999561 -1.186818 
1.607246 9.999561 -0.2455037 
0.5210211 8.921673 0.03192777 
4.209981 4.398532 0.157243 
1.562484 4.673862 -0.07978456 
7.011815 9.355001 -1.070114 
0.1952273 1.562248 0.157243 
-5.201968 9.397745 -0.5342492 
2.161138 -0.449224 -1.329019 
4.368912 6.579541 0.157243 
-3.138265 6.22458 -0.8357881 
6.451965 4.333536 -1.896994 
2.402517 4.114718 0.157243 
-1.882554 6.929851 0.157243 
-5.201968 0.9689165 -1.581811 
-3.871061 5.92025 -0.8010827 
-4.538113 9.999561 -0.6175629 
-4.466634 7.323589 0.0746922 
-4.758966 1.932787 -1.896994 
-4.568711 0.9539953 -1.896994 
-5.126431 -0.449224 -0.2376491 
-5.201968 1.037813 -0.1789847 
-0.2796974 9.999561 -0.5201941 
3.870924 -0.04436648 0.157243 
3.621628 1.093851 0.157243 
4.259614 6.841995 -1.896994 
6.707571 4.767759 0.157243 
2.662909 -0.377848 -1.889144 
7.011815 2.117371 -0.06507146 
-3.027406 0.2889113 -0.1462983 
-1.49812 9.999561 -0.02933395 
1.968153 1.339956 0.157243 
6.539907 2.377517 0.157243 
5.082347 1.489389 -1.896994 
3.43108 9.93302 0.1385747 
8.211908 5.915194 -0.7803783 
4.285011 1.20187 -1.896994 
0.8291125 8.537277 -0.4340631 
-0.756281 4.174192 -1.896994 
4.755226 3.161802 0.157243 
3.998674 5.753768 -1.896994 
-3.134333 3.888194 -1.896994 
-5.201968 7.630391 -0.9678757 
-2.397882 1.455259 -1.896994 
4.959301 0.93352 -0.2568053 
-3.26102 0.774767 -0.1541209 
-5.119162 1.350431 0.157243 
5.669663 -0.01902133 0.157243 
-2.589027 9.463976 0.157243 
0.7685969 -0.449224 -1.502629 
4.051706 5.396378 0.157243 
-0.5247049 6.494832 0.157243 
3.814961 7.57646 0.157243 
-4.743347 0.1847603 -1.896994 
5.366321 3.510183 0.157243 
-2.446014 2.169242 -1.896994 
1.539118 -0.2463313 0.157243 
1.078782 0.2888666 0.1501784 
7.46837 4.530067 -0.451524 
-3.321362 7.434951 -0.4998391 
2.056864 7.361392 -1.896994 
7.682906 4.168819 -0.8078192 
4.035704 9.793497 0.157243 
-4.836775 5.125776 -1.896994 
7.011815 9.208662 -1.705677 
-3.734726 3.552959 0.157243 
-3.566161 0.1148338 0.157243 
7.011815 3.104781 -0.4070365 
-1.946575 0.9739077 -1.896994 
1.535793 6.288129 0.157243 
-1.830758 5.795902 -1.896994 
0.5704107 8.709349 -0.1649351 
5.508615 0.8406484 0.157243 
-0.2172677 4.795918 -0.07978448 
-2.096817 2.386895 -1.896994 
-3.242841 0.8401325 -0.8624544 
-0.4169214 -0.449224 -1.278932 
-2.429545 6.9129 0.157243 
3.324798 2.144058 -1.896994 
6.886294 7.762691 0.157243 
-1.614962 -0.449224 -0.6730037 
-3.022007 3.798275 -1.896994 
-4.231182 1.192131 -1.896994 
-1.220292 0.09565336 0.157243 
-2.159167 4.088446 0.157243 
-2.178656 3.650879 -1.896994 
4.094435 1.328978 0.157243 
5.014256 5.925002 0.157243 
7.318268 5.150162 -0.2914861 
0.1806483 4.544711 -1.896994 
7.011815 5.687198 -1.388055 
4.950081 8.785883 -1.415623 
2.399856 7.312299 -1.896994 
5.961585 4.105192 -1.896994 
-2.253861 0.6798307 -1.896994 
-3.107052 0.3142284 -0.7105594 
1.586965 5.072846 -1.896994 
-0.7180979 2.07469 -1.896994 
4.284737 6.542579 0.157243 
2.789208 2.782365 -1.896994 
1.112265 -0.2979995 0.157243 
-2.853596 0.03477542 -1.896994 
5.082409 8.818644 -0.1250139 
-5.188024 4.067924 0.02085072 
-1.680616 3.381205 0.157243 
-3.122085 3.748406 -1.896994 
3.480869 4.62007 -1.896994 
-3.714618 -0.449224 -1.679024 
1.956138 0.8793317 0.157243 
7.011815 1.729086 -1.415952 
2.329485 0.2483192 0.157243 
-2.787154 9.241799 -1.896994 
-3.496357 7.805645 -1.896994 
6.330835 0.6703087 -1.896994 
4.977061 8.886579 -1.354782 
-1.020654 7.049729 -1.896994 
7.011815 7.52242 -1.607073 
-1.737337 1.908358 0.157243 
3.456361 1.520673 -1.896994 
-2.876059 6.65608 -1.896994 
7.011815 1.881941 -0.44161 
-1.206375 7.697389 0.157243 
-0.1966214 6.581608 0.157243 
3.01392 1.142594 0.157243 
0.6646645 0.5536734 -1.229321 
0.6751767 0.7757086 -1.389832 
6.021725 3.171213 -1.896994 
1.004622 2.034218 -1.896994 
7.869719 6.419194 -0.9004498 
-0.9640673 3.551284 0.157243 
1.533087 7.806093 -1.896994 
1.480961 0.005719423 -1.896994 
-3.291461 8.921346 -0.9147555 
2.492592 9.809401 0.157243 
2.601308 8.081861 -1.896994 
0.6435921 8.91802 -1.296483 
5.068471 9.653525 -1.896994 
0.00976491 0.848881 -1.896994 
1.831149 -0.449224 -1.551356 
1.169149 5.243649 -0.07978413 
5.264971 3.987354 0.157243 
4.434984 4.997695 -1.896994 
4.002556 7.650214 0.157243 
7.011816 9.679011 -0.1332831 
-1.770743 -0.449224 -1.717621 
-3.605808 9.813879 -1.896994 
6.430659 -0.2244346 -1.896994 
3.096942 3.219297 0.157243 
2.438894 7.340628 -1.896994 
-1.658697 7.549542 -1.896994 
-1.309016 0.1753949 -1.896994 
-0.06135171 5.805048 -0.07978407 
-0.06965148 6.412281 0.157243 
0.4353905 -0.4445674 6.134296e-05 
-4.300748 8.500428 0.157243 
0.8813478 9.287245 -0.8940812 
-0.447015 -0.1775129 0.157243 
4.215066 5.05794 -1.896994 
-4.522002 6.056209 -1.896994 
-1.388233 1.013677 -1.896994 
-5.201968 2.934166 -1.190759 
5.628491 7.024022 -1.896994 
1.057897 8.696583 -1.398233 
-3.473285 7.714258 0.157243 
6.890938 8.782962 -1.896994 
-3.799223 9.999561 -0.5924299 
8.314765 5.328306 -0.7344537 
5.598845 0.6093504 0.157243 
5.556335 3.21684 0.157243 
1.204687 0.875737 -0.803407 
6.937365 4.04712 0.1562771 
-5.201968 0.3318826 -0.9785833 
1.124102 -0.1440923 -1.896994 
3.655207 9.403869 0.157243 
-1.251021 2.03244 0.157243 
-1.293246 0.2715822 0.157243 
3.859325 1.982623 -1.896994 
5.016761 6.119076 -1.896994 
-5.201968 4.787126 -1.30802 
0.2928405 5.309448 -0.0797843 
-3.405086 -0.3625624 0.157243 
5.331705 8.361348 -1.896994 
1.100569 1.564079 0.157243 
4.414699 8.723831 -1.896994 
-4.401898 8.615769 -1.896994 
3.992837 2.545345 0.157243 
0.8005117 9.558389 0.157243 
6.694753 0.5173447 -1.896994 
-3.817255 9.999561 -0.8645959 
0.5176032 0.6414203 -0.1008414 
3.710197 0.6744896 0.157243 
-5.201968 2.801941 -1.148854 
-1.082341 0.02281316 -1.896994 
7.011815 9.764514 -0.2070421 
7.011815 9.908317 -0.9528198 
-2.018398 5.350536 0.157243 
4.923573 -0.449224 -0.8101816 
3.804349 6.876032 0.157243 
-0.8299347 3.105388 -1.896994 
-1.638425 1.257055 0.157243 
4.07068 2.50582 0.157243 
6.361034 4.54197 0.157243 
-4.038499 9.999561 -0.9725766 
1.956054 6.018018 0.157243 
4.867002 0.176759 0.157243 
0.3673873 8.661597 -1.896994 
4.207356 8.484293 -1.896994 
-3.141653 9.201509 -0.3439118 
-2.904518 0.9090325 -1.447354 
-3.068175 1.350078 0.157243 
-2.547896 2.738582 0.157243 
7.011816 8.697522 -1.35833 
-4.329215 9.999561 -1.613771 
-5.201968 8.351985 -1.659111 
5.046162 8.655949 0.157243 
-1.243812 -0.449224 -1.443454 
0.4604638 3.967458 -0.07978475 
7.00042 8.081932 0.01514562 
-3.091907 -0.449224 -1.497813 
2.234509 1.512456 0.157243 
0.5743394 9.935329 -1.873156 
4.298712 7.751601 -1.896994 
4.523839 7.512738 -1.896994 
6.998219 8.351537 -1.759822 
3.09956 7.034845 -1.896994 
6.952304 9.382574 -1.862587 
5.508477 1.818093 0.157243 
4.154153 9.11342 -1.896994 
-3.679462 8.839909 0.157243 
6.424991 2.538087 -1.896994 
-2.225442 4.742937 0.157243 
1.036961 1.88799 -1.896994 
0.8481513 9.63056 -1.896994 
-5.173725 5.522845 -1.792604 
3.856208 3.153327 0.157243 
7.011815 4.702399 -1.343268 
6.722476 6.614586 -1.896994 
0.3795005 6.771611 0.157243 
1.53611 9.975532 -1.783173 
-2.430007 9.999561 -1.564458 
6.211096 -0.449224 -0.9756486 
4.552497 1.192914 -1.896994 
4.576056 9.999561 -0.7109268 
4.303572 6.279671 0.157243 
3.692378 2.183724 0.157243 
7.548814 5.774409 -0.3699962 
1.006434 1.006175 -0.5418558 
6.18155 0.8378071 0.157243 
6.964874 3.900445 -1.834456 
2.446944 4.298184 -1.896994 
3.306942 5.182907 0.157243 
2.850382 3.078222 -1.896994 
-0.9855784 1.6564 -1.896994 
-4.794497 9.999561 -1.120267 
-2.997016 4.090256 0.157243 
-5.201968 1.189285 -0.6593144 
0.09300017 -0.1454676 0.157243 
-2.943296 0.3899238 -1.345746 
-2.058837 3.359378 0.157243 
-4.349891 3.094382 0.157243 
3.494987 -0.449224 -0.2576613 
1.056987 6.729871 0.157243 
-3.934938 9.164874 -1.896994 
4.169399 9.102338 0.157243 
3.781654 0.3416021 0.157243 
7.011815 4.050892 -0.7111779 
-5.201968 7.831418 -0.2507192 
5.030528 -0.3839953 -1.875385 
-1.566338 6.011558 -1.896994 
-1.383382 6.742383 0.157243 
-4.897364 -0.449224 -0.9852843 
0.5760347 8.703724 -0.3095089 
-0.3019281 8.922691 -1.896994 
4.796721 1.075103 0.157243 
1.284211 8.32515 0.157243 
5.129895 9.999561 -1.028226 
1.134024 9.999561 -0.8015686 
0.8064711 9.999561 -1.645841 
-4.799228 1.199233 -1.896994 
4.086467 9.999561 -0.9830072 
2.180006 9.999561 -0.9484282 
4.683965 8.525901 -0.8109283 
-0.6471649 4.042278 -1.896994 
3.978234 4.007799 -1.896994 
-5.201968 1.306512 -0.6672376 
-5.201469 2.864414 -0.009244984 
-5.201968 8.960438 -0.7729825 
1.27557 2.648136 -1.896994 
7.006852 7.413024 0.000747276 
-1.906152 -0.1438591 0.157243 
2.230931 1.077581 0.157243 
0.8993444 4.21395 -0.07978432 
6.86599 5.305246 -1.896994 
-3.341018 9.42009 0.157243 
-0.01936812 5.730932 -0.07978411 
2.173989 6.108303 0.157243 
-2.893328 6.552217 -0.5911759 
6.543322 6.050514 -1.896994 
-3.038183 3.479103 0.157243 
1.991604 9.138189 -1.896994 
5.961538 6.964705 -1.896994 
7.011815 3.815703 -0.5636206 
6.631919 7.302749 -1.896994 
-5.199404 1.75687 -1.735129 
-3.579578 3.550439 0.157243 
-4.829318 1.911516 0.157243 
-4.038375 4.503279 -1.896994 
-2.44347 5.981703 0.157243 
-1.927931 8.494917 0.157243 
-5.201968 3.26371 -1.068282 
-3.515847 3.211435 -1.896994 
0.5466328 1.267496 -1.896994 
-3.908814 1.272287 -1.896994 
-5.125012 4.976851 0.157243 
7.011815 2.791336 -1.280727 
1.167623 8.912914 -1.084826 
-4.146355 9.999561 -1.303836 
6.028625 0.4793414 -1.896994 
4.281279 8.502399 -1.896994 
-0.6276473 4.377173 0.005976345 
-0.9452391 2.429678 -1.896994 
2.426086 4.341292 0.01452609 
3.792501 4.438982 0.157243 
-5.201968 2.301547 -0.7286036 
-5.201968 0.1220719 -0.3563479 
-1.039001 9.706379 -1.896994 
6.87731 2.296027 -1.896994 
5.330434 4.502263 -1.896994 
2.887711 9.156265 -1.896994 
5.073802 8.944148 -1.896994 
-3.355103 0.02804649 -1.896994 
-0.6694868 9.999561 -1.330996 
-2.495962 5.735033 -1.896994 
-0.5631042 4.213014 0.02412036 
6.970415 -0.4157418 -1.217358 
-0.6230814 2.528291 0.157243 
3.09959 6.909979 -1.896994 
-4.276312 4.614575 -1.896994 
-2.50463 3.582021 -1.896994 
6.002926 1.135928 -1.896994 
-2.262424 6.213621 0.157243 
5.676825 1.492054 -1.896994 
0.4474869 2.96479 0.157243 
4.493334 9.211706 -0.1826981 
4.511951 9.468309 0.157243 
3.603271 7.640022 0.157243 
0.8528431 8.530918 0.0797058 
-2.836755 9.288886 0.1496827 
-5.201968 8.134699 -0.6139594 
1.6606 6.369125 -1.896994 
6.158755 3.608621 -1.896994 
-3.771619 6.807857 -1.896994 
1.896901 3.658432 -1.896994 
3.078477 5.595901 -1.896994 
-1.724191 -0.07425231 -1.896994 
-2.154268 4.150989 0.157243 
-5.201968 4.489163 -0.5392556 
-0.08493042 -0.449224 -1.335955 
5.987494 8.814839 0.157243 
-5.201968 3.465233 -0.4375916 
-3.755402 3.182842 -1.896994 
-5.201968 5.396128 -1.571995 
-0.57144 5.767805 0.157243 
-4.415188 9.432319 -1.896994 
-3.044883 -0.2681724 0.157243 
7.011815 3.627314 -0.2093849 
7.011815 2.061422 -0.3115798 
-5.181445 0.5923719 -1.775326 
-1.465158 9.091326 0.157243 
2.965691 -0.03934173 0.157243 
6.387582 0.4864631 -1.896994 
-2.238738 -0.449224 -0.6965864 
2.219931 2.608836 -1.896994 
2.328986 9.999561 -1.108809 
-2.990833 9.510321 0.157243 
-5.201968 0.5461721 -0.8481035 
4.920611 -0.449224 -1.134365 
3.39464 4.523146 0.157243 
-0.1043079 -0.2234877 0.157243 
5.596939 1.860717 -1.896994 
-2.698166 -0.449224 -1.17779 
4.315787 5.979561 0.157243 
3.44071 3.749211 0.157243 
-5.201968 6.196658 -0.6723772 
3.533077 -0.449224 -0.2959107 
1.246206 -0.449224 -0.2189716 
5.017678 0.8751419 -0.2156196 
7.011815 5.990032 -1.715743 
4.876275 9.107962 -1.692786 
-0.6518858 6.416876 0.157243 
-5.007711 9.999561 -0.7440714 
2.725214 6.346071 -1.896994 
-3.9313 8.130013 -1.896994 
4.968174 8.62569 -0.06802842 
0.0126234 1.954388 -1.896994 
5.194141 2.992861 -1.896994 
-1.376748 7.268561 -1.896994 
5.766435 0.4130951 0.157243 
3.423862 1.35286 0.157243 
-2.91132 -0.4470898 -0.005584163 
-1.380812 0.1346376 -1.896994 
-1.0924 7.577821 0.157243 
0.8020898 0.05927494 -1.896994 
4.446975 9.165347 -0.3359184 
2.384018 2.861132 0.157243 
4.307993 1.37033 -1.896994 
1.147217 9.411699 -1.896994 
1.335417 5.739455 -1.896994 
-2.328954 8.522081 0.157243 
4.538877 8.72205 -1.308799 
7.011815 1.466084 -0.2350126 
6.993228 7.167028 -1.770993 
7.201343 6.695166 -0.7400854 
7.308391 3.994985 -1.120875 
5.069694 2.131034 -1.896994 
4.024391 8.673841 0.157243 
3.242189 9.896423 -1.896994 
-0.7970678 4.302431 -1.896994 
6.616529 4.39117 0.157243 
-2.471511 5.568239 -1.896994 
5.423026 7.406648 0.157243 
5.96641 0.5177537 0.157243 
4.45962 0.671392 -1.461169 
4.944049 9.040188 -1.383413 
5.300384 6.430208 -1.896994 
-2.166477 4.51699 -1.896994 
0.9846379 9.148653 -1.255376 
5.962624 6.372033 -1.896994 
5.50697 2.187267 -1.896994 
2.66698 7.247392 -1.896994 
2.479245 6.278955 -1.896994 
-2.019393 5.633595 0.157243 
5.99989 7.288475 0.157243 
6.171225 -0.449224 -0.773842 
-4.780362 6.707536 -1.896994 
-4.95211 -0.449224 -0.5775984 
-1.785223 2.504265 -1.896994 
4.633637 6.91865 -1.896994 
6.934196 -0.449224 -1.654908 
-2.283226 -0.06835251 -1.896994 
-4.091929 2.882459 0.157243 
-5.080755 5.32179 0.157243 
-3.798103 6.063381 -1.050004 
0.6405974 0.6434947 -1.379644 
2.904204 5.033035 0.157243 
5.137558 7.366333 -1.896994 
-5.201968 2.627803 -0.2282832 
3.759216 -0.449224 -0.04965737 
-1.723064 3.036482 0.157243 
7.001985 0.4047201 -1.751393 
-5.201968 2.39511 -1.381313 
2.399199 4.008117 0.157243 
0.3501163 3.376671 -1.896994 
-5.201968 5.294156 -0.8302079 
-3.794952 1.103893 -1.896994 
-0.522638 4.115319 0.1024289 
0.1699395 -0.1887365 -1.896994 
-1.203849 9.383152 -1.896994 
1.424482 5.958964 -1.896994 
-5.103355 9.94698 -1.84708 
5.580486 1.575139 0.157243 
-5.201968 0.03572743 -1.360695 
-2.800653 0.9400963 -1.896994 
-3.403697 9.999561 -0.5209044 
-5.201968 7.392692 -0.5388172 
1.232006 9.655949 0.157243 
-0.6703093 -0.4438644 -1.741387 
7.027516 4.196727 -0.5144366 
7.011815 9.113786 -0.6971888 
3.781983 4.148198 0.157243 
3.092716 -0.3071696 -1.896994 
-3.636877 7.543362 -0.4638464 
-4.709279 6.819335 0.02546427 
3.39172 4.05396 -1.896994 
1.541356 3.10684 0.157243 
-5.201968 1.940883 -0.4821991 
-0.3342297 7.909395 -1.896994 
-3.167657 8.635021 -0.1016006 
2.143635 1.35598 0.157243 
2.412882 8.132259 0.157243 
2.807772 -0.4387475 0.01308771 
6.62168 -0.449224 -1.031043 
5.371084 5.012603 -1.896994 
7.011815 -0.2865583 -0.8214831 
-3.243247 9.039293 -1.896994 
1.625539 7.948049 0.157243 
0.765659 7.924688 0.157243 
6.445756 -0.004314095 0.157243 
4.172115 7.721056 -1.896994 
-0.6161924 6.582783 -1.896994 
0.3148775 0.4276788 0.157243 
1.291473 8.898732 -0.01553657 
6.092847 7.642184 0.157243 
-5.113001 7.942745 -1.896994 
-3.252275 7.126032 -1.896994 
-0.3202071 -0.449224 -1.356629 
-1.229953 2.833751 0.157243 
-2.977695 9.999561 -0.5228113 
7.694458 4.187057 -0.7925196 
-3.230881 0.8520916 0.117553 
-5.015013 7.696036 -1.896994 
6.0453 5.018157 0.157243 
1.113031 1.478721 -1.896994 
4.707719 0.3590922 -1.027894 
-5.201968 6.83377 -1.187243 
-3.284586 3.097909 -1.896994 
2.109104 7.014468 -1.896994 
-2.077307 2.064885 0.157243 
0.3576895 7.019124 0.157243 
4.714523 -0.449224 -1.180915 
4.332317 0.6573825 -0.1014761 
2.061817 5.455164 -1.896994 
-4.512704 6.824133 -0.7495342 
0.125206 0.9885004 0.157243 
6.952567 1.7662 0.1222475 
-1.005952 -0.449224 -0.7438598 
-5.201969 0.1522122 -1.536104 
3.590916 6.61683 0.157243 
3.70071 2.622911 0.157243 
-0.9208478 4.578489 -1.896994 
-2.778469 9.982965 -1.766537 
-0.5914317 7.723056 -1.896994 
3.432154 9.999561 -0.2346815 
2.087126 -0.449224 -1.28913 
-2.595279 9.123497 -0.1074443 
3.677711 9.999561 -1.416135 
-2.736496 -0.449224 -1.102785 
6.089499 -0.449224 -1.501615 
-5.201968 0.55029 -0.2421199 
-3.272175 1.004677 -1.896994 
5.049596 9.795704 0.157243 
-4.386136 6.238717 -0.7772652 
0.7021179 0.4862248 -1.482255 
0.9933808 6.569322 -1.896994 
-0.9965326 7.413991 -1.896994 
3.773192 7.743013 -1.896994 
-3.96297 5.00132 -1.896994 
0.07427567 -0.4200231 -1.794749 
0.7362795 8.562151 -0.17262 
-5.132424 1.963124 -1.885046 
3.389839 6.330116 0.157243 
-0.2810392 9.041442 0.157243 
7.011815 4.973283 -1.721839 
0.6325026 0.2494276 0.157243 
5.840785 9.999561 -0.3707498 
-0.1034874 8.599614 0.157243 
2.462937 8.030448 0.157243 
-5.201968 6.57158 -0.3257125 
0.787562 2.648362 -1.896994 
4.506491 8.156012 -1.896994 
-2.412388 1.798113 0.157243 
-0.6392847 4.465567 0.04527504 
5.570035 1.519295 0.157243 
3.484332 9.999561 -1.010308 
4.535165 9.234663 -1.896994 
6.44563 2.339945 0.157243 
-3.162629 0.6808735 -1.237083 
-0.6169584 -0.449224 -0.4308293 
-0.8959808 6.013582 -1.896994 
4.74708 6.736509 0.157243 
-2.56878 0.4599357 -0.5186279 
-3.077815 9.096574 -1.313539 
0.7621829 4.289885 -0.07978464 
1.174675 0.7658249 -1.027894 
-2.981841 -0.449224 -0.06388802 
4.13419 8.396674 -1.896994 
4.648825 9.255033 -1.027894 
3.444014 2.522774 0.157243 
4.011954 3.887884 0.157243 
-5.201968 7.74941 -0.06022118 
6.041013 9.999561 -1.425174 
1.101339 9.239275 -0.1977021 
6.550583 3.220331 0.157243 
-1.625566 6.48322 -1.896994 
1.156943 9.999561 -0.08595137 
7.973167 6.308292 -0.8567033 
2.382901 9.999561 -1.175179 
6.142645 2.295107 0.157243 
-2.418447 -0.4238458 0.04643999 
-1.148502 3.971212 0.157243 
2.22296 8.511982 -1.896994 
-5.201968 1.577987 -1.382123 
-1.854329 9.999561 -1.068767 
-4.1918 4.870728 -1.896994 
-4.785691 9.999561 -0.5406757 
-3.115757 8.751894 -1.475152 
4.816456 4.888485 -1.896994 
-5.201968 8.677624 -1.318223 
-3.186979 2.952921 -1.896994 
-4.396448 0.3437486 -1.896994 
-4.801999 3.302138 -1.896994 
-0.5235322 6.85881 -1.896994 
-5.051016 3.324143 -1.896994 
0.5024248 6.472672 0.157243 
2.989443 -0.23928 -1.896994 
2.084762 3.501233 -1.896994 
-2.594722 7.189175 -1.896994 
-4.479476 4.749947 -1.896994 
3.664138 7.771883 -1.896994 
8.301147 5.605991 -0.751492 
-5.040632 0.1502412 -1.896994 
0.6525813 8.951569 -1.122154 
-1.008967 8.49791 0.157243 
4.418586 0.8567619 -1.896994 
6.858574 7.309452 -1.896994 
1.264625 3.237556 0.09505203 
6.156407 4.379667 -1.896994 
4.875889 0.2992638 -0.0889227 
2.55603 0.4835078 -1.896994 
-0.04072919 6.885437 0.157243 
5.666348 -0.449224 -1.345861 
1.831273 9.999561 -0.5959131 
4.924096 9.060141 -1.703824 
0.6071687 9.928792 -1.887789 
2.810788 7.165543 -1.896994 
3.760906 1.756995 0.157243 
4.054401 5.632534 0.157243 
-0.771474 9.999561 -0.4213878 
-4.826228 9.999561 -0.3768677 
-2.404715 0.7015567 0.157243 
0.9166448 0.9066833 -1.280021 
-1.402646 3.589251 -1.896994 
7.265479 4.955693 -0.3051606 
1.78239 2.227967 0.157243 
7.000503 4.886991 0.01495946 
-4.765579 1.025777 -1.896994 
7.479088 5.078963 -0.3299106 
-1.341621 8.440843 0.157243 
-0.9186512 6.91219 0.157243 
4.3229 5.652772 -1.896994 
1.377158 -0.1729012 -1.896994 
-4.337919 6.113919 -0.6932456 
1.401689 2.775391 -1.896994 
2.207895 8.162909 -1.896994 
-0.06235975 3.021804 -1.896994 
-1.239959 2.254732 -1.896994 
-1.770039 2.190081 -1.896994 
5.849506 0.4493786 -1.896994 
3.835732 2.149794 -1.896994 
1.675826 3.627501 -0.07978492 
4.667298 2.192619 0.157243 
2.438269 7.125121 -1.896994 
1.56315 -0.05089816 -1.896994 
5.679717 8.234209 -1.896994 
2.987642 3.4773 0.157243 
-3.385066 7.062367 -1.155227 
2.778003 3.02025 -1.896994 
0.3373746 3.261335 -1.896994 
-0.2524422 7.460513 0.157243 
6.836996 3.126281 -1.896994 
4.367968 4.570783 -1.896994 
1.53819 9.089076 0.157243 
4.218183 9.999561 -1.046247 
2.214198 0.142601 -1.896994 
3.234116 0.3757381 -1.896994 
-0.9710654 8.034283 -1.896994 
0.22537 0.570031 0.157243 
-3.042445 7.306717 -0.2244973 
1.837896 7.84262 -1.896994 
-3.167358 2.372197 0.157243 
6.830695 -0.449224 -0.3581492 
6.367763 1.933295 -1.896994 
-3.792955 9.999561 -0.9994584 
-1.341551 -0.449224 -0.5442314 
-0.667444 5.604724 0.157243 
-4.879596 -0.449224 -1.650903 
6.728436 5.581637 0.157243 
-0.9595816 8.554141 0.157243 
4.967511 0.5907464 -1.698859 
-5.201968 7.976222 -0.4207251 
-3.305564 4.809313 0.157243 
2.604191 9.999561 -1.094586 
-0.9584814 1.740986 0.157243 
-4.246049 9.999561 -0.5848131 
1.418112 8.695004 -1.896994 
4.972388 8.869137 -1.807289 
0.4211356 3.218107 -1.896994 
2.560047 -0.449224 -1.031608 
4.58572 -0.449224 -0.2556425 
4.241134 2.191714 0.157243 
4.951802 9.439816 -1.896994 
0.9279913 9.28738 -0.881999 
-3.722709 4.000332 0.157243 
7.011815 3.270133 -0.5034746 
3.044392 4.634552 -1.896994 
2.186755 -0.1823457 0.157243 
5.093929 7.668295 0.157243 
2.47438 8.17807 -1.896994 
-1.866347 1.042003 -1.896994 
-5.201968 4.043483 -0.9322532 
0.8799579 9.562846 0.157243 
-1.076508 -0.449224 -1.061256 
4.134884 -0.2387771 0.157243 
0.1105233 7.353804 -1.896994 
-0.3761026 9.555968 -1.896994 
6.859081 1.117042 0.157243 
-5.189859 9.645536 -1.756492 
-1.87865 5.440914 0.157243 
6.953254 -0.4329029 -0.5149919 
-3.068839 9.105551 -1.797517 
2.141415 0.3597948 -1.896994 
-1.200493 6.437999 0.157243 
5.512243 9.900226 0.157243 
2.094008 3.743494 -0.05752426 
0.7956158 0.8805359 -1.579605 
5.243915 4.739327 0.157243 
-5.201968 8.871822 -0.100527 
6.522154 0.1035168 0.157243 
4.546111 5.905675 -1.896994 
2.546336 9.999561 -0.5039414 
6.69462 6.5702 0.157243 
3.140012 8.818127 -1.896994 
0.7494766 9.111471 -1.672369 
1.791659 5.341633 -1.896994 
5.269726 0.02814676 -1.896994 
-3.567532 -0.2136285 0.157243 
-3.641044 6.674344 -1.403995 
6.256163 3.920684 0.157243 
2.62166 1.889842 0.157243 
5.192802 9.999561 -1.527237 
-2.672682 7.860802 -1.896994 
4.326646 -0.3156474 0.157243 
-4.740109 9.950348 0.09978807 
-3.174972 4.081254 0.157243 
-3.047236 5.277685 -1.896994 
5.274648 -0.01353441 -1.896994 
0.3606879 5.612472 -0.0797842 
1.29031 -0.2901688 0.157243 
-3.012934 0.8815658 -1.461239 
4.10216 8.622835 0.157243 
-4.204771 3.231225 -1.896994 
1.437882 7.597165 -1.896994 
-5.182851 4.778417 -1.772179 
-5.201968 7.513419 -0.2344393 
5.001367 3.320343 -1.896994 
7.011815 -0.1864177 -0.2137133 
-0.2893614 5.472436 -0.07978414 
-5.201968 9.729467 -1.134083 
-2.737039 2.05221 0.157243 
-0.06219468 2.679656 0.157243 
-5.201968 3.944858 -0.3728544 
-3.479414 7.137624 -1.896994 
-0.02134886 1.269321 -1.896994 
4.535878 8.72253 -1.063272 
5.846643 2.551039 0.157243 
6.093633 0.3271404 -1.896994 
-4.338492 0.7056055 0.157243 
0.9700454 1.015925 -0.8332866 
3.63959 3.851215 0.157243 
4.357258 7.960503 -1.896994 
-3.707472 9.340824 0.157243 
-5.048875 5.531863 -1.896994 
0.6758044 6.106912 -0.07978401 
-5.072053 0.266898 -1.896994 
-5.201968 9.141503 -0.1413336 
-2.601448 3.735293 -1.896994 
3.355941 3.154644 -1.896994 
0.8294322 -0.449224 -1.137815 
-2.947405 1.439963 -1.896994 
4.709457 -0.2698633 0.157243 
-0.2977929 9.999561 -1.535216 
-3.961481 8.955141 0.157243 
5.566358 9.999561 -0.4016054 
5.044388 1.563396 0.157243 
-5.201968 3.163496 -0.4661091 
7.299068 3.942774 -0.950172 
-0.6131628 6.925419 -1.896994 
5.039876 6.538835 0.157243 
-3.319588 3.876123 0.157243 
-0.5993375 5.925758 0.157243 
0.03475094 7.994125 -1.896994 
-3.486174 7.395422 -1.896994 
-2.959505 6.907935 -0.6908068 
-1.662714 6.287939 -1.896994 
-0.9441352 -0.449224 -0.599428 
-4.769171 0.6859842 -1.896994 
3.254922 9.036862 0.157243 
6.84491 7.35911 0.157243 
-0.1446567 7.38779 -1.896994 
4.441004 0.3909618 -0.1962646 
-2.526934 8.659291 0.157243 
-4.458833 7.236522 -0.3550681 
7.011815 0.4346285 -0.2270858 
5.473262 -0.397087 0.1063325 
2.041008 -0.449224 -0.8084805 
-3.750143 9.034652 0.157243 
6.274923 6.393126 -1.896994 
4.901734 4.206941 0.157243 
-5.201968 9.058788 -1.471872 
5.424359 5.007199 0.157243 
-3.473235 9.684413 -1.896994 
6.081262 2.177874 -1.896994 
3.881325 9.874947 -1.896994 
4.605286 -0.350417 -1.896994 
4.336534 0.8290079 -1.896994 
4.643583 0.2765321 -0.6961828 
-3.73266 6.692769 -1.416067 
8.234251 5.505013 -1.248648 
2.320544 7.714223 -1.896994 
-3.300116 7.04262 -1.0992 
7.011815 0.3886775 -1.53412 
7.011816 8.845041 -0.4684387 
4.943575 9.999561 -0.04783021 
-3.886862 2.683442 -1.896994 
7.072025 6.712234 -1.19461 
-2.400428 0.6118128 -1.896994 
3.762307 9.999561 -0.3303909 
-5.201968 -0.2895141 -0.8978634 
4.523651 0.03453904 -1.896994 
7.011815 6.126369 -0.4496896 
-3.45101 4.180478 -1.896994 
6.843596 8.68328 -1.896994 
-2.727022 3.517242 0.157243 
4.129172 -0.3841267 0.1353399 
2.876036 6.518872 -1.896994 
-3.943601 3.754819 -1.896994 
2.690092 1.096438 -1.896994 
2.740958 -0.3775834 0.1499855 
0.7501335 5.136544 -1.896994 
-5.201968 4.339222 -0.8087384 
0.2713192 -0.08291202 0.157243 
0.2771829 1.930251 0.157243 
-2.855105 6.226511 0.1489171 
4.690068 1.025804 -1.896994 
6.780901 5.397031 -1.896994 
2.198418 1.807391 -1.896994 
-0.2598959 1.051749 -1.896994 
-2.295571 8.70041 -1.896994 
-5.201969 8.147341 -1.526487 
-2.942241 0.2660914 -0.5321066 
-4.359328 0.6904311 0.157243 
3.273408 6.119664 -1.896994 
1.932782 9.999561 -1.008678 
-1.429495 7.176815 0.157243 
5.751475 1.187408 0.157243 
-2.987867 -0.449224 -1.10102 
6.869753 9.759275 0.157243 
-2.362968 5.277022 -1.896994 
4.447717 9.999561 -0.436794 
-5.201968 5.611408 -1.524481 
-3.490434 8.679132 0.157243 
-1.838629 5.312092 -1.896994 
-1.486708 5.367181 -1.896994 
5.869294 -0.005314507 -1.896994 
-1.767624 3.581065 0.157243 
0.7827746 1.189553 0.157243 
-2.563824 4.882392 0.157243 
-5.201968 0.863073 -0.888835 
5.608343 -0.449224 -1.244412 
0.09163737 9.519989 0.157243 
6.669568 7.268115 0.157243 
2.111036 7.440793 0.157243 
0.6963196 0.9668984 -1.021754 
-2.774893 6.987104 -1.896994 
1.988009 9.963665 -1.809733 
-5.201969 5.418363 -1.644118 
-2.319937 1.285954 -1.896994 
1.234249 9.4699 -1.896994 
-2.095112 1.305245 0.157243 
-3.882524 5.20803 -1.896994 
-2.659843 2.331081 0.157243 
4.519127 -0.1447147 -1.896994 
1.09356 3.778473 -1.896994 
6.479416 7.797461 -1.896994 
-1.397469 9.12005 0.157243 
6.378111 0.7382934 0.157243 
3.853906 -0.449224 -1.510662 
0.1363573 8.073112 0.157243 
-5.201968 2.138503 -1.313775 
6.32997 6.06938 0.157243 
0.787431 0.2882568 -0.06654632 
8.382439 5.151696 -0.9724597 
-4.238795 2.383366 -1.896994 
-5.201968 4.856996 -0.161487 
-0.7565914 6.271798 -1.896994 
2.353106 9.999561 -0.3030773 
6.962015 1.140736 0.1011008 
5.093391 8.950894 -0.8224384 
1.32793 8.629987 -1.896994 
6.787012 8.907514 -1.896994 
6.351611 6.096871 -1.896994 
-1.003888 6.684986 0.157243 
-3.186902 5.923853 -0.3124428 
6.015905 5.120354 0.157243 
-3.104757 4.441779 0.157243 
-3.854688 2.486005 0.157243 
7.011815 0.5321268 -0.6794182 
0.09561488 4.339495 -0.07978465 
7.011816 7.16365 -1.230452 
1.320581 6.303877 -0.0382983 
-5.127824 0.9742975 0.1555902 
-0.3576013 7.224269 -1.896994 
-3.139436 0.5227164 -1.385434 
5.29901 9.999561 -1.594035 
-1.770809 9.883614 0.157243 
4.31909 9.393011 -1.896994 
1.177514 7.857326 0.157243 
2.38123 1.119369 0.157243 
-3.773862 7.368108 -0.9104325 
-5.198877 0.435707 -0.003441154 
2.083612 3.063914 -1.896994 
1.908123 -0.449224 -1.684811 
-2.506775 -0.449224 -0.7251217 
1.538759 5.899703 -0.07978411 
1.238032 9.649384 -1.896994 
-2.715405 8.420561 0.157243 
-3.136238 6.084052 -1.896994 
-3.901466 3.146254 0.157243 
0.7010356 9.43775 0.157243 
2.892722 5.822596 0.157243 
6.167699 4.240085 -1.896994 
7.011815 5.288875 -1.279986 
-0.9816604 5.764461 -1.896994 
3.877585 5.236752 0.157243 
-5.201968 8.157335 -0.2088904 
-5.147995 -0.4283146 -1.69349 
5.544699 8.209608 0.157243 
1.176252 9.999561 -1.670836 
6.98893 4.121716 0.04086102 
1.78344 3.691514 -0.07978491 
-5.201968 5.493479 -0.1767658 
5.368568 2.633621 -1.896994 
0.6350418 0.3845293 -0.4555583 
4.557436 9.250723 -0.9334008 
2.382015 9.890861 -1.896994 
0.9887302 9.339808 -1.896994 
2.962928 9.999561 -0.6080487 
1.233311 0.8700895 -1.896994 
-3.718848 0.4399956 -1.896994 
7.011815 3.156028 -1.082533 
0.8846813 2.943327 -1.896994 
4.179451 4.625163 -1.896994 
7.011815 3.496532 -1.701913 
8.237725 4.712403 -0.9617842 
7.011816 1.008784 -1.355079 
0.8870017 0.261577 -0.5180635 
-1.373238 4.158838 -1.896994 
-5.201968 9.796496 -0.582682 
-0.3785613 7.389612 0.157243 
6.448693 9.999561 -0.2155525 
4.513112 0.3188533 -0.7979976 
7.011815 6.826983 -0.06641161 
-5.201968 8.34974 -1.157827 
2.181303 8.83372 -1.896994 
-5.047877 7.250922 -1.896994 
-2.936835 8.524832 -0.7284353 
7.636889 6.243373 -1.369315 
-1.080469 0.3919932 0.157243 
-1.814095 0.5726809 0.157243 
1.213005 1.716606 -1.896994 
1.117405 8.03248 0.157243 
5.132843 -0.449224 -0.5984809 
2.69416 2.751102 -1.896994 
-2.129275 -0.04767418 -1.896994 
-5.201968 2.339296 -0.9789496 
-2.183175 7.991344 0.157243 
4.43456 9.999561 -0.01136761 
-2.625389 1.912058 0.157243 
1.45778 7.106201 0.157243 
-2.497453 9.78358 -1.896994 
5.301122 1.834656 -1.896994 
0.5859374 -0.01592862 -1.896994 
-2.904884 3.27386 0.157243 
4.951703 8.791936 -1.28891 
8.08512 4.66307 -0.6988848 
-5.150587 3.67144 -1.844395 
7.011815 5.243104 -1.113344 
0.733835 1.445343 -1.896994 
2.126529 0.1038931 -1.896994 
-1.163456 5.746833 0.157243 
6.448195 2.058886 -1.896994 
-2.696626 0.4942653 -1.532217 
4.605205 5.877554 -1.896994 
-5.128969 5.680156 0.1530282 
3.308598 -0.1056829 -1.896994 
-2.618489 5.244941 0.157243 
1.523829 6.043336 -1.896994 
5.845938 1.18143 0.157243 
8.246235 5.80543 -0.7554924 
0.7626276 -0.2833295 -1.896994 
4.067388 7.715152 -1.896994 
4.985118 8.743457 -1.027894 
4.03714 1.569107 -1.896994 
-2.022731 3.802949 0.157243 
-4.68183 5.613733 -1.896994 
8.305962 5.312654 -1.182526 
-2.720626 5.628407 -1.896994 
5.591365 1.60466 0.157243 
6.490972 9.999561 -1.258785 
-3.977357 5.881122 -0.6580697 
-4.029771 8.449737 0.157243 
0.5910372 -0.449224 -1.422019 
-1.018364 9.999561 -1.659912 
-2.244143 9.608391 -1.896994 
-4.049151 1.177516 0.157243 
1.537515 1.553597 0.157243 
1.895245 5.985406 -0.07978401 
3.240349 8.550385 -1.896994 
5.786495 1.80181 -1.896994 
-1.076803 7.87148 0.157243 
1.133037 0.3427613 0.08696589 
-5.201968 1.768051 -1.381949 
-3.872462 -0.449224 -0.3276942 
-2.831138 2.305276 0.157243 
-1.606948 4.984859 0.157243 
-4.738327 3.597078 -1.896994 
-3.248261 9.082572 -0.6424928 
5.339386 3.566836 0.157243 
-4.616269 1.769693 0.157243 
2.51612 0.5333244 -1.896994 
-1.355314 4.44787 0.157243 
2.061424 2.745697 0.157243 
0.1914708 5.080211 -0.07978437 
-0.839869 -0.2860196 0.157243 
-3.15397 0.9290035 -0.5459379 
-0.9724975 0.8697479 0.157243 
-1.120568 9.024118 -1.896994 
6.207455 2.702879 -1.896994 
-2.842143 6.913865 -0.3269644 
-2.892594 6.251695 -0.2598687 
4.471209 2.569365 0.157243 
2.833163 3.257011 -1.896994 
2.688283 6.259705 -1.896994 
-2.000539 0.9984785 0.157243 
7.011815 2.238689 -0.6760212 
-2.543343 4.448617 -1.896994 
4.335857 0.6195557 -0.6966394 
6.255142 9.755178 -1.896994 
-5.201968 8.814871 -0.4857374 
3.569112 2.658827 0.157243 
-3.975523 0.01135243 0.157243 
5.03135 -0.449224 -1.575383 
-4.260437 8.757959 -1.896994 
-2.225449 4.596461 -1.896994 
5.629077 9.404903 -1.896994 
2.782948 2.955124 0.157243 
4.4194 0.8775833 -0.5622723 
3.106663 0.02883752 0.157243 
6.70575 8.503939 0.157243 
5.686356 2.043928 0.157243 
-1.310921 4.182608 -1.896994 
1.198137 4.015395 -0.07978457 
6.667351 9.50917 -1.896994 
4.332922 8.890698 -0.4113853 
-4.794534 9.999561 -1.160836 
0.8751249 9.999561 -0.4992343 
2.556124 5.766852 0.157243 
-0.4011385 1.893144 -1.896994 
4.585666 -0.449224 -0.186566 
4.360255 0.5284994 -0.4053818 
-0.1680894 6.12823 0.157243 
-0.5523036 5.543799 0.157243 
6.706676 8.704905 -1.896994 
-1.508167 6.389401 -1.896994 
-3.93598 8.489552 -1.896994 
3.246525 7.869671 -1.896994 
-1.385719 6.916824 0.157243 
2.179345 5.479857 -1.896994 
7.011815 5.391442 -1.454064 
6.83285 3.361085 0.157243 
-0.6026788 4.413393 -1.896994 
6.153098 9.999561 -0.9287111 
-1.285676 -0.449224 -0.2292394 
5.60936 8.247616 0.157243 
-2.41648 2.765498 -1.896994 
-4.152406 4.985848 -1.896994 
0.6783097 9.269377 0.157243 
-4.038395 6.459661 -1.294348 
4.27875 0.9943381 -1.896994 
7.011815 7.216248 -0.2637998 
4.69975 5.698244 -1.896994 
3.272944 5.656708 0.157243 
6.988176 3.729995 0.04254878 
5.009592 5.246805 0.157243 
4.861145 -0.449224 -0.1248075 
-0.474012 9.999561 -1.722756 
-2.293829 1.645731 -1.896994 
-1.010635 -0.4420088 0.005788087 
6.369422 0.6053833 -1.896994 
6.950433 1.543778 -1.866777 
-3.237695 0.4448717 0.0332806 
0.1413981 3.390551 0.0123698 
6.576594 4.432695 0.157243 
1.519531 -0.449224 -1.426651 
2.734609 -0.449224 -0.09170654 
-5.201968 3.329307 -0.8162771 
-3.870997 1.068882 0.157243 
0.05994761 9.999562 -0.3458691 
2.096452 7.451784 0.157243 
6.660592 0.4024321 0.157243 
-1.962298 7.027559 -1.896994 
1.806738 6.879081 -1.896994 
4.005143 5.401579 -1.896994 
4.757432 1.791404 -1.896994 
5.282424 6.735139 -1.896994 
-4.951888 2.000976 0.157243 
1.225466 6.317936 0.04898009 
-5.201968 6.020775 -0.9094365 
-1.299802 3.183603 0.157243 
-2.639054 7.631278 -1.896994 
-0.1235586 4.34009 -1.896994 
6.564322 -0.449224 -1.260965 
3.066714 1.804784 0.157243 
-0.1785319 4.50758 -0.07978461 
4.978039 4.715759 -1.896994 
-2.665526 8.4104 0.157243 
5.154415 9.99956 -1.691065 
-1.973186 1.181013 0.157243 
-3.312905 9.999561 -1.612169 
-1.803313 -0.449224 -0.9925437 
0.9378684 8.520441 -1.896994 
7.011815 8.537379 -1.304227 
-0.7497668 -0.40508 0.08844119 
-0.05290028 6.52592 -1.896994 
6.175672 7.955271 0.157243 
-2.572895 8.424992 -1.896994 
6.060964 4.689272 -1.896994 
-3.670094 9.851672 0.157243 
4.876389 -0.3851785 0.1329862 
4.852315 2.856263 0.157243 
-1.190749 3.384968 0.157243 
4.610459 7.594646 0.157243 
-3.889461 4.187286 -1.896994 
-4.310747 9.035452 -1.896994 
6.364736 3.891058 -1.896994 
1.08857 8.072355 0.157243 
-4.143891 1.693681 -1.896994 
0.2541714 2.990069 0.157243 
0.6772716 9.208038 -0.8968544 
4.572192 0.9944886 -0.9734114 
4.591677 -0.449224 -0.2183808 
4.763647 0.2691887 -0.6571949 
-5.122558 2.381374 0.157243 
5.770878 5.677471 0.157243 
0.170325 6.539285 0.157243 
-1.454121 6.664265 -1.896994 
-1.138425 -0.449224 -1.136806 
-3.348905 1.570868 0.157243 
-5.201968 8.750298 -0.5636587 
6.793636 6.337812 0.157243 
-3.149524 8.820555 -1.624592 
0.6201129 4.17263 -0.07978469 
-1.914013 5.569384 0.157243 
4.949405 7.57339 -1.896994 
-3.476475 3.91233 0.157243 
-2.180456 1.825092 0.157243 
-5.201968 8.295829 -0.1490044 
-5.201968 3.350236 -0.3068759 
7.009367 8.005529 -1.734871 
-3.987856 9.231619 -1.896994 
6.205032 6.105649 0.157243 
4.962251 8.979224 -1.793431 
-5.142978 2.37364 0.1216737 
5.959752 2.206636 -1.896994 
2.08843 6.811515 -1.896994 
-2.144832 2.346459 0.157243 
3.976187 0.2504836 0.157243 
4.868582 2.063944 0.157243 
-2.519383 6.124938 -1.896994 
-0.900443 2.654269 -1.896994 
-3.511286 -0.1873875 -1.896994 
0.892584 0.9065179 -1.609358 
5.905508 2.230781 -1.896994 
-4.585328 6.891969 -0.5201401 
-0.2913674 5.322511 -0.07978421 
-4.955457 0.9381686 0.157243 
7.011815 1.634538 -0.9736752 
3.84857 4.999022 -1.896994 
-4.921381 3.29047 0.157243 
6.040425 3.374089 -1.896994 
-1.955932 0.564396 0.157243 
4.767217 9.999561 -1.727656 
7.011815 0.587523 -0.09350076 
-2.57271 4.875803 0.157243 
-5.141861 4.562656 0.1241724 
-5.201968 8.575226 -1.724028 
-1.728138 9.999561 -1.111762 
5.060397 5.60421 0.157243 
-2.422132 8.622028 0.157243 
0.8873105 9.89917 0.157243 
-2.489818 6.834399 0.157243 
-4.404546 7.91443 -1.896994 
1.036001 6.270076 -0.079784 
7.011815 7.694111 -0.8593835 
-5.073619 7.029728 -1.896994 
-0.09829986 2.697276 -1.896994 
-1.16898 2.964355 0.157243 
2.938176 7.892639 -1.896994 
7.671167 5.566863 -1.531127 
-2.038804 7.113258 -1.896994 
5.720947 8.820893 0.157243 
6.769194 0.8998483 0.157243 
7.208828 5.296183 -1.634875 
3.005444 9.693775 0.157243 
-2.551918 9.027473 -0.5716205 
-1.042358 3.95406 0.157243 
4.024075 0.04500449 0.157243 
-5.201968 6.149021 -1.298169 
1.537572 9.99956 -0.6446922 
2.060007 8.736824 -1.896994 
6.847898 -0.449224 -0.7630122 
1.897419 4.835282 -0.07978452 
0.1867703 0.1987161 0.157243 
0.3590049 -0.449224 -0.9984537 
0.2610577 6.71789 0.157243 
-2.794945 7.631297 -1.896994 
0.971332 0.8920302 -1.224063 
0.8893365 8.030923 -1.896994 
-4.440395 4.342171 -1.896994 
-5.201968 3.3903 -0.3668089 
1.800295 0.5585355 -1.896994 
4.15406 6.963909 -1.896994 
3.620118 6.937926 0.157243 
-2.023861 -0.449224 -1.130139 
0.5788105 8.700949 -0.4565709 
6.608691 0.2283782 -1.896994 
-5.201969 0.329898 -1.534692 
-0.4676168 4.218364 -0.07978485 
3.662692 5.48736 0.157243 
-3.396032 4.842235 -1.896994 
5.648563 -0.449224 -1.070946 
5.065527 7.241294 -1.896994 
-2.562685 -0.449224 -0.7689581 
-5.17466 8.176466 0.05076207 
2.821164 1.904956 0.157243 
2.110697 4.761147 -1.896994 
4.07432 5.757885 -1.896994 
0.02505685 8.07685 0.157243 
2.848795 7.540238 -1.896994 
0.09286445 -0.449224 -0.1228478 
1.556995 7.550349 0.157243 
4.072429 6.885388 -1.896994 
4.764606 8.529634 0.007960178 
3.478189 0.3662457 -1.896994 
-0.03497285 5.701315 -1.896994 
-5.201968 -0.2923698 -0.472301 
5.004573 8.113654 -1.896994 
-3.233702 0.7980624 -1.027894 
7.011815 7.753563 -0.4251246 
-2.377825 4.16716 0.157243 
1.645371 4.171399 -1.896994 
-0.7587867 5.798866 -1.896994 
6.999802 -0.3863541 -1.256546 
-5.201968 6.306804 -0.5173653 
6.625138 7.314599 -1.896994 
8.039679 4.431596 -0.9616249 
4.838835 9.336654 -1.896994 
1.250041 0.48392 -0.811388 
-1.288803 4.923136 -1.896994 
1.384681 9.353636 0.157243 
-3.558504 7.409158 -0.7827258 
-0.2832429 9.999561 -0.9507744 
3.393382 4.477798 -1.896994 
2.681442 -0.449224 -0.4454661 
-5.158255 0.7401003 -1.827232 
-0.2236309 1.723575 -1.896994 
-2.02434 1.472373 -1.896994 
6.776394 8.414976 -1.896994 
4.527483 7.217754 -1.896994 
4.100194 9.999561 -0.9177156 
-0.2732035 4.885608 -0.07978442 
-3.490631 7.827506 -1.896994 
6.570882 6.343479 0.157243 
7.011815 6.51616 -1.410869 
-0.8365437 6.534687 -1.896994 
1.595424 4.951234 -0.07978445 
-3.252908 7.221573 -0.8543379 
-0.9042286 0.964552 0.157243 
5.614462 0.1296515 0.157243 
-2.827827 6.291757 0.01933038 
6.014766 9.999561 -0.9841416 
3.346459 1.185312 0.157243 
-0.2976964 9.670151 0.157243 
4.043337 -0.449224 -0.142587 
-0.7813708 0.5094679 0.157243 
4.530828 9.243593 -0.728308 
1.545738 9.999562 -1.621095 
1.230345 2.263644 -1.896994 
-0.3792588 9.294782 0.157243 
7.011815 1.806998 -1.03892 
-5.016734 5.364122 0.157243 
-4.579072 0.4312254 -1.896994 
0.7566698 3.209719 0.006029489 
-1.568664 2.348702 -1.896994 
7.8989 6.23205 -1.233711 
-5.201968 2.669775 -0.06442486 
-2.992929 2.73727 -1.896994 
6.859845 1.31006 0.157243 
4.383336 9.101707 -0.6155697 
-3.045312 9.577524 -1.896994 
-4.287452 1.909826 0.157243 
-5.201968 9.62894 -0.4772999 
-2.750493 9.999561 -1.232751 
5.077771 -0.449224 -0.1843518 
5.765208 7.642961 -1.896994 
-5.201968 5.616427 -0.4536883 
5.19385 9.598008 -1.896994 
-2.319825 7.639899 -1.896994 
1.54825 0.1697671 -1.896994 
-3.117466 7.837579 0.157243 
-3.416896 7.352385 -0.8080306 
0.6427158 0.9132943 -0.8669875 
5.578578 8.314758 0.157243 
5.089971 -0.449224 -0.3734556 
4.915088 9.237922 -0.6387145 
1.216554 0.4262793 -0.3147927 
6.887248 2.05254 0.157243 
-0.2497977 0.3669604 0.157243 
2.2805 0.4540558 0.157243 
2.955274 4.567118 0.157243 
5.126729 6.85095 -1.896994 
6.510643 2.567137 -1.896994 
6.869144 6.524622 -1.896994 
5.181908 5.495731 0.157243 
2.522214 4.635629 -1.896994 
7.506755 6.645435 -1.010396 
-4.151789 9.090403 -1.896994 
2.096178 9.099939 0.157243 
3.771664 0.1047777 -1.896994 
-5.201968 7.462463 -0.9032821 
-5.132679 3.334073 -1.884476 
2.596151 5.915759 -1.896994 
-4.70003 6.598147 -1.896994 
1.921559 6.342247 0.157243 
8.351051 5.010303 -1.004297 
4.76301 0.1707586 0.157243 
1.217867 2.898786 -1.896994 
-2.037895 -0.449224 -0.5879238 
-3.177983 3.23182 0.157243 
1.008372 3.665092 -1.896994 
-4.447625 1.425321 -1.896994 
6.132123 4.573534 0.157243 
6.506427 0.05422491 0.157243 
-5.201968 4.188527 -0.683676 
-1.595625 9.091241 0.157243 
-4.889811 8.397147 -1.896994 
-2.997179 9.699561 -1.896994 
-1.276397 8.575694 -1.896994 
3.458642 4.840164 -1.896994 
2.907972 0.862894 0.157243 
-0.007922292 -0.449224 -0.5244107 
-5.201968 4.940905 -0.702597 
-3.402032 7.643554 -1.896994 
0.7354826 5.332807 -0.07978401 
-5.201968 8.991689 -0.9098306 
0.3562506 9.596794 -1.896994 
-5.201968 -0.04798898 -0.06402163 
2.957671 0.3796796 0.157243 
0.7174969 5.547043 -0.079784 
2.703543 1.420266 0.157243 
-5.201968 6.037685 -0.4275866 
4.700027 6.867583 0.157243 
-1.259702 9.12863 -1.896994 
-2.526154 4.714106 0.157243 
-5.201968 3.368889 -1.083812 
-2.003729 2.009165 0.157243 
-5.201968 5.277048 -1.089319 
2.704554 9.999561 -1.585664 
-5.201969 8.204288 -1.568932 
1.677814 6.833428 0.157243 
1.896329 9.404648 0.157243 
-2.382977 4.230186 0.157243 
0.2580258 0.4285874 -1.896994 
0.7200443 0.9546111 -1.896994 
-5.201968 9.345153 -1.402232 
-3.226159 4.697739 -1.896994 
0.5873722 -0.1985977 -1.896994 
0.2112057 9.971975 0.05138408 
-1.010711 -0.398336 -1.843288 
4.837211 -0.449224 -0.8849897 
-2.070422 9.999561 -1.622076 
2.431137 1.532259 0.157243 
0.1923592 6.180895 0.01090733 
-1.162456 9.960139 0.07787473 
-3.424442 7.486433 -0.501197 
-1.620987 5.744164 0.157243 
-3.03519 0.9991528 -0.5767211 
5.097615 0.6749444 -0.6788797 
-3.019426 -0.449224 -1.260568 
0.3999463 0.8934269 -1.896994 
-2.550827 9.023402 -0.7780964 
-0.4000431 5.928825 0.157243 
6.71527 2.053066 -1.896994 
-2.857157 3.889603 0.157243 
-1.327229 1.971502 0.157243 
5.441083 9.999561 -1.717507 
-4.017734 5.043103 0.157243 
-4.846808 5.728609 -1.896994 
0.9313321 2.877945 -1.896994 
-5.152375 0.9546403 0.1006398 
7.011815 0.5037323 -1.045828 
-3.681104 0.5679061 -1.896994 
-2.641313 9.335308 -1.896994 
3.141327 6.016279 0.157243 
7.011815 0.8601355 -0.7499244 
-1.414445 5.21137 -1.896994 
3.562864 3.688951 -1.896994 
0.1327271 4.629545 -0.07978454 
-3.157766 0.2658435 0.157243 
-3.867577 -0.07345869 -1.896994 
0.640205 8.639554 -0.2498258 
-5.201968 2.589404 -0.2736894 
-5.201968 6.431653 -1.479944 
-1.813797 3.180087 -1.896994 
-2.827534 8.554555 -1.896994 
-4.741777 3.411408 0.157243 
-2.288881 2.533381 -1.896994 
6.775515 2.27675 0.157243 
