ply
format ascii 1.0
comment VCGLIB generated
element vertex 1490
property float x
property float y
property float z
element face 0
property list uchar int vertex_indices
end_header
-0.1643629 0.09045105 0.01894812 
0.07463709 0.1775982 -0.003816 
0.1229886 0.1838619 0.019129 
0.135912 0.1021854 0.019129 
0.0355609 0.2000631 -0.003816 
-0.01705096 0.0488511 -0.003816 
-0.1152109 0.1323168 -0.003816 
0.1152148 0.2153825 -0.003816 
0.02461532 0.03553345 0.019129 
0.03893679 0.2392576 0.019129 
-0.1129103 0.29302 -0.0006357977 
-0.1054015 0.08284748 0.019129 
-0.09036247 0.03374462 -0.003816 
0.1111395 0.1400003 -0.003816 
-0.1385952 0.2012347 0.004108921 
-0.09919725 0.29302 0.00248866 
-0.1374543 0.2460226 -0.003816 
0.120943 0.2475344 -0.003816 
-0.1385908 0.06691197 0.019129 
-0.132036 0.103455 0.019129 
-0.04872873 0.1350852 0.019129 
-0.007440731 0.1149477 0.019129 
0.02395238 0.0318 0.006158451 
-0.0847335 0.1708131 0.019129 
-0.1188734 0.1033021 0.019129 
-0.1212599 0.1982663 -0.003816 
0.0004678229 0.2919976 0.01827938 
0.1339221 0.04885968 0.019129 
0.03906393 0.03749565 0.019129 
0.02041781 0.05213463 -0.003816 
0.139291 0.2016135 0.005129974 
-0.1653493 0.2276794 -0.002648687 
-0.03590306 0.2017404 0.019129 
0.01409429 0.1352883 -0.003816 
0.1206457 0.2765373 0.019129 
0.1310219 0.2713039 -0.003816 
-0.04521111 0.1770885 0.016481 
0.06355535 0.08819587 -0.003816 
0.04459051 0.292952 0.01732501 
-0.1003874 0.05522713 0.005891 
0.01394905 0.1760971 -0.003816 
-0.08706821 0.1002401 -0.003816 
-0.1380115 0.1909821 -0.003816 
0.05999997 0.1967961 0.019129 
-0.06628157 0.214868 0.019129 
-0.03482769 0.164359 0.016481 
0.001572235 0.08925384 -0.003816 
-0.0833696 0.2544856 0.019129 
-0.006309051 0.1683569 0.016481 
0.139291 0.2361729 0.005162793 
-0.03229712 0.1801785 -0.003816 
-0.0005395147 0.06259274 -0.003816 
0.0497135 0.08112102 -0.003816 
-0.05859566 0.1421179 -0.003816 
-0.1143757 0.1827443 0.019129 
-0.1025312 0.1367718 -0.003816 
-0.1280827 0.09752657 -0.003816 
0.09931121 0.2536804 -0.003816 
-0.07253623 0.2210253 0.019129 
-0.01198645 0.288387 -0.003816 
-0.01204377 0.2238947 -0.003816 
0.02846529 0.04626366 -0.003816 
-0.01977935 0.2797439 0.019129 
-0.02086159 0.06074256 -0.003816 
0.01601361 0.2316902 0.019129 
0.1060193 0.29302 -0.0002442003 
-0.04891228 0.1455324 0.0167575 
0.04534101 0.2208891 -0.003816 
-0.1596163 0.144517 -0.003816 
-0.003858509 0.1883723 0.016481 
0.008005423 0.1866518 -0.003816 
-0.150525 0.109924 -0.003816 
-0.03949561 0.1136056 0.019129 
0.1163831 0.1220245 -0.003816 
-0.1508143 0.167432 0.019129 
0.07447039 0.09086681 -0.003816 
0.0393459 0.1526223 -0.003816 
-0.1583365 0.2146447 -0.003816 
0.1236926 0.2792207 -0.003816 
0.01280997 0.2755071 -0.003816 
0.1141208 0.06472689 -0.003816 
0.1362287 0.1024161 -0.003816 
-0.09691333 0.1516918 0.019129 
-0.04487099 0.09218561 -0.003816 
0.113293 0.0318 -0.0008610456 
-0.1556604 0.2229695 0.019129 
0.06140433 0.2197227 -0.003816 
-0.07886828 0.05039912 0.019129 
0.09244885 0.2832043 0.019129 
0.01413415 0.1908142 0.01780355 
-0.09988103 0.1255142 -0.003816 
-0.166054 0.2686385 0.000528138 
-0.05481563 0.2598264 0.019129 
0.07345136 0.08658393 -0.003816 
-0.06416114 0.2606749 -0.003816 
-0.08803498 0.2720103 0.019129 
-0.1235194 0.2701858 -0.003816 
-0.1095861 0.04235614 -0.003816 
0.1420454 0.1698709 -0.0008936019 
-0.149655 0.1769282 0.019129 
0.139291 0.0500663 0.008812726 
-0.1344722 0.2798106 0.019129 
-0.03011704 0.1093283 -0.003816 
-0.08970882 0.1018502 0.019129 
0.05960383 0.09710798 -0.003816 
0.03967011 0.2824215 0.019129 
-0.1037524 0.1340522 -0.003816 
-0.0944983 0.07372177 0.019129 
-0.1442526 0.2299323 -0.003816 
-0.02305633 0.2366465 0.019129 
0.1376636 0.153521 0.01888439 
0.09185471 0.2807392 0.019129 
0.07538286 0.209503 -0.003816 
-0.06998351 0.1602596 0.019129 
0.04821092 0.03734265 0.019129 
0.1317523 0.2336724 0.019129 
0.139291 0.08014885 0.008582669 
0.09096792 0.05666362 0.008354368 
-0.09828416 0.05564206 0.019129 
-0.1250889 0.2018172 -0.003816 
0.159796 0.1636914 0.0119731 
0.02217472 0.154615 0.016481 
-0.1393374 0.05733265 -0.003816 
0.1307675 0.1057632 0.019129 
0.09139372 0.2889454 0.019129 
0.07652454 0.1643332 -0.003816 
-0.008560598 0.2593819 0.005891 
-0.06869307 0.1078079 -0.003816 
0.003589009 0.2434492 -0.003816 
-0.05511323 0.29302 0.01502181 
-0.01550674 0.0702529 0.019129 
-0.1454401 0.2681798 0.019129 
-0.006200606 0.05834941 0.005891 
0.05528826 0.2199347 -0.003816 
0.1625121 0.2015964 0.005630773 
-0.02744048 0.1435664 -0.003816 
0.04893601 0.2086232 0.019129 
-0.1224103 0.2561008 0.019129 
-0.01236944 0.2019008 0.01656138 
0.02063426 0.246501 -0.003816 
0.1379067 0.208263 0.01864126 
0.01522025 0.07290721 0.019129 
-0.07373721 0.05504716 -0.003816 
0.1142911 0.1138781 -0.003816 
-0.04849418 0.1575814 0.016481 
0.1219373 0.1334578 0.019129 
-0.08576529 0.03445292 0.019129 
-0.1117467 0.2115651 0.007253034 
0.0540362 0.2127597 0.019129 
0.05199742 0.09499739 0.019129 
-0.1313035 0.0616235 -0.003816 
-0.1489936 0.29302 0.003625026 
-0.166054 0.06414668 0.003152256 
-0.04811259 0.08138826 -0.003816 
0.1258532 0.09564231 -0.003816 
-0.01342536 0.08293246 -0.003816 
0.1043642 0.2676732 0.019129 
-0.03834227 0.2214959 -0.003816 
0.005345935 0.1043664 0.019129 
0.1109832 0.1033837 0.019129 
-0.1037695 0.06327656 0.002925254 
0.02770314 0.1107258 -0.003816 
0.04781395 0.05780997 -0.003816 
-0.1420316 0.1913722 0.01227489 
-0.05282896 0.2682334 -0.003816 
0.1288531 0.2801007 0.019129 
-0.1583662 0.29302 0.0006680391 
0.01743395 0.07852642 0.019129 
-0.1185164 0.0318 0.001711083 
0.09827362 0.1477425 -0.003816 
-0.01462476 0.29302 0.0004812762 
0.1071787 0.07762808 0.019129 
-0.07379727 0.09893195 0.019129 
-0.1244048 0.2477529 0.019129 
-0.01387618 0.120984 -0.003816 
0.1010299 0.2141349 0.019129 
0.07942742 0.2406557 0.019129 
0.07548399 0.06144011 0.005887118 
-0.1370903 0.2313071 0.01368808 
0.01757759 0.1403119 0.016481 
-0.1642835 0.2058812 0.0190275 
-0.03870302 0.2289533 -0.003816 
-0.1273061 0.2831453 0.019129 
-0.1071189 0.1147482 -0.003816 
0.03850961 0.1657566 -0.003816 
-0.06170202 0.08271207 0.019129 
0.07193324 0.0318 0.005809484 
0.139291 0.1236525 0.01392298 
-0.166054 0.08050708 0.003369347 
-0.1101964 0.29302 0.0006034757 
-0.1124315 0.07369323 -0.003816 
0.05540017 0.1916929 0.019129 
0.139291 0.1581001 0.008384186 
0.02589708 0.2633234 -0.003816 
-0.1486928 0.09793796 0.019129 
-0.01041835 0.2598369 -0.003356284 
0.1129208 0.2782145 -0.003816 
-0.07685447 0.1949957 0.019129 
0.06190523 0.09417745 -0.003816 
-0.1457998 0.07253694 -0.003816 
-0.02906721 0.04110401 0.019129 
0.05540173 0.2027344 0.019129 
-0.04355895 0.205605 -0.003816 
0.05624686 0.0435011 0.019129 
-0.110317 0.1355179 -0.003816 
0.1498255 0.1868133 -0.0001167379 
-0.1065604 0.1381954 -0.003816 
-0.166054 0.204127 0.007353857 
0.0788043 0.1310329 0.019129 
-0.1532979 0.1047621 0.019129 
-0.1492198 0.168689 -0.003816 
0.08035415 0.06535453 0.0009178923 
0.07730767 0.2433632 -0.003816 
-0.166054 0.2017633 0.01178351 
0.006343088 0.2658145 -0.003816 
-0.09669092 0.09517467 -0.003816 
0.1121457 0.03358117 0.01903817 
-0.06653471 0.09645223 0.019129 
-0.1220035 0.1943482 -0.003816 
-0.1077236 0.2209685 0.01767037 
-0.0756188 0.29302 0.00135437 
0.01655615 0.06717519 0.019129 
-0.166054 0.07174549 0.01703198 
0.04901887 0.273794 -0.003816 
0.01125992 0.2023115 0.019129 
0.02992048 0.1948615 0.019129 
-0.1051313 0.1463971 -0.003816 
-0.0571111 0.2705382 0.019129 
-0.0587228 0.06562359 0.019129 
-0.0258676 0.05509557 -0.003816 
-0.1136022 0.05315934 0.005891 
0.139291 0.2783134 0.00640632 
0.05191256 0.08073082 -0.003816 
0.003613294 0.2030568 0.019129 
0.1016353 0.1698859 0.019129 
-0.002980508 0.04709233 0.019129 
0.02236823 0.1781351 -0.003816 
0.04905694 0.1583788 0.019129 
0.1300679 0.1359692 0.019129 
0.1055878 0.1839891 0.019129 
-0.02829091 0.1824891 0.016481 
-0.009458545 0.1006823 -0.003816 
0.07820743 0.2603416 -0.002860661 
-0.08379096 0.0318 0.01336891 
0.06752138 0.29302 0.004106595 
0.01548979 0.09508252 0.019129 
-0.009619008 0.1987086 0.016481 
0.04615682 0.09665247 0.019129 
-0.004537659 0.1441097 -0.003816 
-0.1146572 0.08918309 0.019129 
-0.008787949 0.27011 0.001410214 
0.000307181 0.2880287 0.019129 
0.09846377 0.1060878 0.019129 
0.1435381 0.1705737 0.01428381 
-0.1538575 0.2676585 0.019129 
-0.1541442 0.29302 0.01047306 
-0.07922421 0.1103797 0.019129 
0.07475059 0.29302 0.01222078 
0.02272042 0.1649192 -0.003816 
0.1694718 0.1841843 0.009883426 
-0.166054 0.2837379 0.004885974 
0.05854164 0.1218938 0.019129 
-0.01113454 0.1312393 -0.003816 
0.00569846 0.08066861 -0.003816 
-0.1476533 0.1517918 -0.003816 
-0.166054 0.05208793 0.004335741 
-0.0597161 0.1120559 0.019129 
-0.02247087 0.1763777 0.016481 
-0.1425852 0.215341 0.0049835 
-0.07020447 0.0803267 0.019129 
-0.08020484 0.1675669 0.019129 
-0.008136176 0.0956966 -0.003816 
0.1323255 0.1504173 -0.003816 
-0.05351095 0.1404309 0.019129 
0.03289357 0.2389759 -0.003816 
-0.08338998 0.2260352 -0.003816 
-0.1174433 0.161826 0.019129 
-0.09710762 0.1862326 -0.003816 
0.1487915 0.1564333 0.01260044 
-0.1245363 0.1434972 -0.003816 
0.1066143 0.1960393 -0.003816 
-0.08879472 0.1805842 -0.003816 
-0.0246961 0.07180548 -0.003816 
-0.008688929 0.0318 0.01116969 
-0.03599209 0.1729246 0.016481 
-0.1220274 0.2372462 -0.003816 
0.04243506 0.2739461 0.019129 
-0.0994539 0.1542516 -0.003816 
-0.03472096 0.264682 -0.003816 
-0.01659306 0.1699065 0.016481 
0.07493155 0.09242895 0.019129 
-0.02076157 0.03370119 -0.003816 
-0.1267985 0.1115696 0.019129 
-0.1577844 0.05066933 0.019129 
0.0033659 0.2457095 0.019129 
-0.03608708 0.205899 0.019129 
-0.07127228 0.2391495 -0.003816 
-0.01145965 0.0349536 -0.003816 
-0.08230756 0.2860263 -0.003816 
-0.0369674 0.08539521 0.019129 
-0.02394175 0.1428413 0.016481 
-0.077801 0.2372523 0.019129 
-0.04358521 0.2039508 -0.003816 
-0.1315014 0.05704353 -0.003816 
0.05900264 0.1505957 -0.003816 
0.05087646 0.07510294 0.019129 
-0.08642259 0.2258221 -0.003816 
-0.1454065 0.2527933 0.019129 
0.1245223 0.05928661 0.019129 
0.06819251 0.1741988 0.019129 
0.1014462 0.07972631 0.019129 
0.07178064 0.09247757 -0.003816 
-0.01503911 0.1964134 0.016481 
-0.1272125 0.141842 -0.003816 
0.1269235 0.13175 0.019129 
0.05159442 0.1237588 -0.003816 
-0.05813567 0.0480801 -0.003816 
0.1358539 0.109807 0.019129 
-0.004272801 0.2541784 -0.003816 
-0.05487765 0.1257151 -0.003816 
-0.08383264 0.2455688 -0.003816 
-0.0428166 0.09647179 -0.003816 
0.139291 0.08386845 0.01524028 
0.04679849 0.06417477 -0.003816 
0.1063531 0.2801735 -0.003816 
-0.1142108 0.08473691 -0.003816 
0.139291 0.2471635 0.000863999 
-0.04848104 0.1313472 0.019129 
0.1233973 0.1703557 -0.003816 
0.09931444 0.2118694 0.019129 
0.009634077 0.07783803 -0.003816 
-0.001198792 0.1329235 0.016481 
0.04688917 0.2903919 -0.003816 
0.1293253 0.105478 0.019129 
-0.1461801 0.1739347 0.019129 
0.1307075 0.0318 0.01594876 
0.1366578 0.1708755 0.019129 
0.09424244 0.2738439 0.019129 
0.139291 0.1990204 0.01064598 
0.03340014 0.08742502 0.019129 
0.06924219 0.1792518 -0.003816 
-0.088539 0.09822888 0.019129 
-0.01421801 0.29302 0.003713528 
-0.04910664 0.2190082 0.019129 
0.03646719 0.2909856 0.019129 
0.09941498 0.1623282 -0.003816 
0.0821978 0.2560267 0.009264315 
-0.1488858 0.049353 -0.003816 
0.0533079 0.26069 0.019129 
-0.1443359 0.08137173 -0.003816 
-0.07806243 0.04264718 0.019129 
-0.1485059 0.2775373 0.019129 
0.1311354 0.29302 0.003764895 
0.05073626 0.05926587 0.019129 
-0.1359075 0.2720568 -0.003816 
0.01757758 0.180528 -0.003816 
-0.03837556 0.2254329 0.019129 
0.08515259 0.05031394 0.01409788 
-0.08021684 0.07693686 -0.003816 
-0.1219213 0.1601395 0.019129 
-0.04802161 0.08178479 -0.003816 
-0.06556124 0.2293434 -0.003816 
-0.09635499 0.2865847 0.019129 
-0.06473938 0.06644633 0.019129 
0.139291 0.0797806 0.01304328 
-0.1053547 0.1477895 0.019129 
-0.03402939 0.2689287 0.019129 
0.05499201 0.150628 0.019129 
0.06049702 0.1135214 0.019129 
0.1129756 0.1931022 -0.003816 
0.04341777 0.17158 -0.003816 
0.07442084 0.08771428 -0.003816 
-0.02596544 0.09102888 -0.003816 
-0.04010205 0.1297237 -0.003816 
0.08539497 0.2153156 0.019129 
-0.1373925 0.07071807 -0.003816 
0.1336771 0.07420623 0.019129 
-0.08800785 0.163584 0.019129 
0.06685709 0.2065884 0.019129 
-0.02964422 0.0318 0.007878242 
0.09647603 0.1453869 0.019129 
-0.006185326 0.05309267 0.01014706 
0.04431326 0.2164471 -0.003816 
-0.07473816 0.1110081 0.019129 
0.01130733 0.2844775 0.019129 
-0.1035105 0.1370102 -0.003816 
-0.1429681 0.1913877 0.01310975 
0.07763182 0.1659753 0.019129 
0.09363545 0.03680313 0.019129 
0.1244929 0.2880769 0.019129 
-0.166054 0.2821624 0.01198346 
0.1204761 0.1911369 -0.003816 
-0.08591896 0.2596156 -0.003816 
0.04516153 0.2698586 0.019129 
-0.01587637 0.2727054 -0.003816 
-0.09971384 0.05643336 0.01832382 
0.03071009 0.2745264 -0.003816 
-0.09327061 0.2768736 0.019129 
-0.1603554 0.191235 0.019129 
0.1379753 0.1040023 0.01857275 
0.03107859 0.1506474 0.019129 
-0.006907941 0.0318 0.009657296 
0.003572484 0.1352087 0.016481 
-0.02135613 0.2530206 0.019129 
-0.1508913 0.2621868 0.019129 
-0.01519798 0.1448638 0.016481 
0.09693507 0.2899532 0.019129 
0.02577881 0.1389401 0.019129 
-0.01274849 0.1228693 0.01806238 
-0.06028514 0.1912672 0.019129 
0.001334623 0.2617966 0.019129 
0.09873229 0.2106375 0.019129 
-0.10676 0.2461877 0.019129 
0.06576053 0.2720221 -0.003816 
0.08485914 0.2049605 -0.003816 
-0.07137141 0.2700601 0.019129 
-0.1016686 0.14046 -0.003816 
-0.04787422 0.2118346 -0.003816 
0.00760788 0.2116924 0.019129 
0.09676269 0.1432931 -0.003816 
-0.05240883 0.241616 -0.003816 
-0.05309971 0.2197104 0.019129 
-0.07512785 0.2890862 -0.003816 
-0.161697 0.03734883 0.019129 
-0.1389363 0.1957283 -0.003816 
0.04557301 0.2214523 0.019129 
-0.1062995 0.2181917 0.01865564 
0.125096 0.2848541 -0.003816 
0.139291 0.1340925 0.002231092 
-0.1181056 0.1554692 0.019129 
0.007546087 0.07411207 0.019129 
-0.0986115 0.2528645 0.019129 
0.00693386 0.1766753 0.016481 
0.08126887 0.1658143 0.019129 
0.00203864 0.07810658 -0.003816 
0.0625321 0.2916154 0.01866161 
-0.07361752 0.04694274 0.019129 
0.1109021 0.29302 0.003543828 
0.03450564 0.1262199 -0.003816 
-0.008732041 0.2810255 0.019129 
0.1022571 0.1659963 0.019129 
-0.02798812 0.2773303 -0.003816 
0.06082857 0.05098725 -0.003816 
-0.01703956 0.04711236 -0.003816 
0.09448335 0.06988981 -0.003816 
-0.04147645 0.04525657 0.019129 
-0.07602942 0.2059031 -0.003816 
0.1321962 0.1927046 0.019129 
-0.07372994 0.1344956 -0.003816 
0.04137294 0.1653182 0.019129 
-0.07512183 0.2921749 -0.00278914 
0.1175541 0.08460531 0.019129 
0.08394191 0.2748298 0.006639578 
-0.08360201 0.2762372 0.019129 
-0.05409594 0.0318 0.01282468 
-0.121862 0.1431042 0.019129 
0.008260076 0.2045586 -0.003816 
0.0131083 0.0901285 -0.003816 
0.09520681 0.09906865 -0.003816 
-0.06407695 0.1342388 0.019129 
-0.004631802 0.2321214 0.019129 
0.1210715 0.29302 0.002488075 
-0.04101143 0.0318 -0.0006157231 
-0.1113516 0.2070552 0.007702203 
-0.1491097 0.271239 -0.003816 
0.01371863 0.2748598 -0.003816 
0.08829696 0.2703889 0.005891 
0.07102299 0.1380931 -0.003816 
0.139291 0.08321656 0.01621638 
0.0275687 0.1200524 0.019129 
0.009193424 0.1031677 0.019129 
-0.01905546 0.2367052 -0.003816 
-0.09627379 0.1575526 0.019129 
0.1229446 0.0636418 0.019129 
-0.03784315 0.248385 0.019129 
0.0177509 0.1024824 0.019129 
-0.08690905 0.29302 0.006660588 
0.01190849 0.273626 0.019129 
0.003010254 0.103787 0.019129 
-0.01356554 0.2279345 0.019129 
0.02715372 0.1495684 -0.003816 
0.09809236 0.1296032 0.019129 
0.139291 0.2142038 0.01340718 
-0.01401735 0.2722451 -0.003509728 
0.1116071 0.29302 0.0132403 
-0.1030968 0.2622152 0.002798531 
0.139291 0.1085442 0.004770296 
-0.07595779 0.1865543 -0.003816 
0.06141389 0.1662643 -0.003816 
-0.03006967 0.09230139 0.019129 
0.09222229 0.2671825 -0.003816 
-0.1446666 0.2603604 0.019129 
0.07266545 0.2673192 0.0178335 
0.1254726 0.285396 0.019129 
0.08212608 0.1472361 0.019129 
-0.09803387 0.219404 0.019129 
0.1085999 0.08143656 0.019129 
0.1455097 0.1679633 0.01403876 
-0.0664836 0.05797429 -0.003816 
-0.01095243 0.1105664 0.019129 
-0.07302898 0.1110536 0.019129 
0.1366256 0.1159366 0.019129 
-0.07460772 0.284368 -0.003816 
-0.06687879 0.2826533 -0.003816 
0.01782451 0.04780565 0.019129 
-0.1000975 0.1158401 -0.003816 
-0.03910902 0.2505058 0.019129 
-0.06688894 0.2216938 -0.003816 
0.1163044 0.2271208 0.019129 
-0.01031086 0.1080959 0.019129 
-0.1582773 0.1061067 -0.003816 
-0.1472174 0.2255964 -0.003816 
0.06441009 0.0416207 0.019129 
-0.004064118 0.0318 0.002397913 
0.1273558 0.1636462 -0.003816 
0.04550447 0.2584554 -0.003816 
0.1329637 0.1019933 0.019129 
-0.1320673 0.1602048 -0.003816 
0.139291 0.07438295 0.01180019 
0.1332662 0.222954 0.019129 
0.1210394 0.2448586 0.019129 
0.09106275 0.2005864 -0.003816 
-0.09584902 0.2720308 0.019129 
-0.1605909 0.111722 -0.003816 
0.08315103 0.2119318 0.019129 
0.002007006 0.2115022 0.019129 
0.09631611 0.1510249 0.019129 
0.065773 0.2077996 -0.003816 
-0.04019376 0.1913538 0.01733551 
0.1152372 0.1926382 -0.003816 
-0.1119678 0.2723516 -0.003816 
-0.07268607 0.2864381 -0.003816 
-0.1385782 0.1974262 -0.003816 
0.02120042 0.05174529 -0.003816 
-0.1153129 0.05898572 0.005498882 
-0.02549536 0.1358899 0.016481 
-0.005883317 0.1618553 -0.003816 
0.09608148 0.1412112 0.019129 
-0.04494342 0.1794464 -0.003816 
-0.166054 0.1858849 0.004092733 
-0.01398003 0.29302 0.01643223 
-0.04679648 0.1162867 -0.003816 
0.1344742 0.2549822 0.019129 
0.1181192 0.2077042 -0.003816 
-0.1251588 0.188129 0.01202809 
-0.03048801 0.118127 0.019129 
0.1328643 0.09306633 0.019129 
-0.1232992 0.09423149 -0.003816 
0.07649574 0.2021364 -0.003816 
0.003258651 0.1090328 -0.003816 
-0.01500706 0.05297424 -0.003026345 
-0.05247718 0.2649719 -0.003816 
0.06937532 0.1743802 0.019129 
-0.06219973 0.0489462 0.019129 
0.1114328 0.05590132 0.019129 
-0.166054 0.1176808 0.0001691691 
0.03767711 0.08395762 0.019129 
0.08204305 0.1049341 -0.003816 
-0.08937149 0.06641128 -0.003816 
-0.02505076 0.175692 -0.003816 
0.139291 0.09506143 0.00627582 
0.116964 0.2718551 0.019129 
0.1003371 0.1084803 0.019129 
-0.1471823 0.1322926 0.019129 
0.06920489 0.08778338 -0.003816 
-0.1360176 0.2382276 -0.003816 
0.07733184 0.04970559 0.019129 
-0.06477696 0.2061623 -0.003816 
-0.1214691 0.07055305 -0.003816 
0.05675387 0.2880719 -0.003816 
-0.07517895 0.2042478 -0.003816 
0.001596759 0.08449393 0.019129 
0.09926471 0.1971949 0.019129 
0.1120942 0.2472355 -0.003816 
0.07801981 0.1245157 -0.003816 
0.005584833 0.06536698 -0.003816 
-0.1088994 0.2838955 -0.003816 
-0.1016019 0.1251137 -0.003816 
-0.08956335 0.1282084 -0.003816 
0.005454516 0.07238741 -0.003816 
-0.09631348 0.2425579 0.019129 
0.06536141 0.2912895 -0.003674499 
0.01436542 0.1023083 -0.003816 
0.0446962 0.06750789 -0.003816 
-0.03790339 0.2474599 0.019129 
-0.05906758 0.1912701 -0.003816 
0.03110827 0.07158441 -0.003816 
0.004743431 0.08027883 0.019129 
-0.07252924 0.29302 0.01299897 
-0.1265018 0.1040797 0.019129 
0.070701 0.06939455 -0.003816 
0.07228708 0.2554 -0.003816 
0.07081525 0.172336 -0.003816 
-0.1212125 0.0318 0.01055698 
0.1393178 0.2009276 0.0008052316 
-0.1470366 0.0318 0.004494119 
0.02173138 0.2579837 -0.003816 
-0.1215034 0.06335716 0.019129 
-0.09764681 0.2639123 0.019129 
-0.1323682 0.2042045 0.002226725 
0.04431494 0.29302 0.01443229 
0.02246751 0.03258096 0.01803797 
0.07730956 0.2898285 0.019129 
-0.1360894 0.2103391 0.002305854 
-0.02645758 0.2649385 -0.003816 
-0.1347507 0.05680102 -0.003816 
-0.0652242 0.2685065 -0.003816 
0.1292975 0.1238662 -0.003816 
-0.0134449 0.1728978 0.016481 
0.1302135 0.07427361 0.019129 
0.1375576 0.2297414 -0.003677425 
0.002345887 0.09529637 -0.003816 
0.0134406 0.06465872 -0.003816 
0.007159718 0.1078361 -0.003816 
-0.1128622 0.2811226 -0.003816 
0.05908909 0.2722361 0.019129 
0.04086495 0.05001625 -0.003816 
-0.03949255 0.2692607 -0.003816 
0.01902186 0.1921849 -0.003816 
-0.1046422 0.1436534 0.019129 
0.04667424 0.2835492 0.019129 
-0.006441893 0.06134928 -0.003816 
-0.02124729 0.1018596 0.019129 
-0.06063189 0.1239629 -0.003816 
-0.01576899 0.2716414 -0.002970119 
-0.01645959 0.06804022 0.01631088 
-0.09721885 0.1629082 -0.003816 
-0.1367919 0.03544572 -0.003816 
0.07742058 0.2071011 0.019129 
0.07557639 0.056915 -0.003709699 
0.1220361 0.08906791 -0.003816 
-0.1179159 0.1594523 0.019129 
-0.1402892 0.1799373 -0.003816 
0.023852 0.04630268 -0.003816 
-0.1079449 0.1501721 -0.003816 
0.05723188 0.06924691 -0.003816 
-0.07894215 0.111261 0.019129 
-0.1154135 0.1969663 0.00833089 
-0.07214608 0.29302 0.007133195 
0.04761042 0.1649329 -0.003816 
-0.1180855 0.07253686 0.019129 
-0.04777211 0.03744125 -0.003816 
-0.166054 0.0710623 0.01128609 
-0.1519403 0.2764581 -0.003816 
0.02815809 0.1779132 0.019129 
0.1025542 0.07010129 -0.003816 
0.01467465 0.04200372 0.019129 
0.09150805 0.05963399 0.01125688 
0.09154971 0.2912604 -0.003703632 
-0.1074572 0.2352947 0.019129 
0.04811237 0.04371728 0.019129 
0.08192826 0.03588805 0.019129 
-0.1637747 0.0318 0.01116343 
0.006397401 0.2507866 -0.003816 
0.1066113 0.07083578 -0.003816 
0.09316351 0.05524844 -0.003816 
0.07667534 0.2326422 -0.003816 
0.0926621 0.1205864 0.019129 
-0.1231624 0.07180202 -0.003816 
-0.1336973 0.1824353 0.019129 
-0.09220828 0.1986936 -0.003816 
-0.106445 0.1752011 -0.003816 
-0.1536242 0.1353852 0.019129 
-0.006427927 0.1299574 -0.003816 
0.0294792 0.08412766 -0.003816 
0.03201101 0.1860821 -0.003816 
-0.1247626 0.1561756 0.019129 
-0.1515987 0.181068 -0.003816 
-0.1103404 0.2560926 0.01899085 
0.07563864 0.2923496 0.01792741 
-0.02711548 0.1008002 0.019129 
0.109952 0.06723851 -0.003816 
-0.1105466 0.232181 0.019129 
-0.1598473 0.118542 -0.003816 
0.1525545 0.1580583 0.01240392 
0.03243274 0.1792944 0.019129 
-0.06854773 0.2489267 0.019129 
0.05162071 0.2448189 0.019129 
-0.1297829 0.1341407 -0.003816 
-0.1148276 0.1974409 -0.003816 
-0.001475587 0.03377781 0.019129 
0.05485025 0.29302 0.01459903 
0.07640725 0.2755046 0.019129 
0.1423659 0.1511854 0.0122256 
-0.1234413 0.0318 0.003070084 
0.139291 0.2679096 -0.001293951 
-0.1181945 0.05991938 0.007755121 
-0.05572547 0.03513327 0.019129 
0.02732416 0.29302 0.007734712 
-0.06485261 0.2793008 -0.003816 
0.02257732 0.03940004 -0.003816 
0.0836427 0.2560183 -0.003816 
-0.01535102 0.2748416 0.01511318 
-0.06418976 0.1214145 0.019129 
0.139291 0.2389838 0.01331436 
-0.06361103 0.2533859 -0.003816 
-0.05782973 0.2914585 -0.00350553 
-0.1251858 0.2806173 0.019129 
-0.09011912 0.08928711 0.019129 
0.08639683 0.1720287 0.019129 
-0.03638846 0.1203647 0.019129 
0.1187339 0.2078567 -0.003816 
0.08178617 0.2112886 -0.003816 
-0.1415832 0.2293724 -0.003816 
-0.166054 0.2320792 -0.0008586533 
0.02675602 0.1591203 0.019129 
-0.1588674 0.1202269 -0.003816 
0.139291 0.2090101 0.01585753 
0.03772611 0.2367454 0.019129 
-0.07910998 0.04191808 -0.003816 
-0.1222485 0.2735308 0.019129 
-0.0393466 0.1655873 0.016481 
0.06878311 0.06590974 -0.003816 
-0.1125649 0.1213063 -0.003816 
-0.09293488 0.08274918 -0.003816 
-0.0689279 0.1867696 0.019129 
-0.1599135 0.05534877 -0.003816 
-0.05090841 0.1862894 0.019129 
0.021656 0.2539972 -0.003816 
-0.06794454 0.29302 0.01439747 
0.05367216 0.1019578 0.019129 
-0.01050871 0.2887856 0.019129 
0.139291 0.2867197 0.01679528 
-0.1145457 0.2345473 -0.003816 
0.008357661 0.1500267 -0.003816 
-0.06236475 0.1645186 -0.003816 
-0.11337 0.2879596 -0.003816 
0.05356662 0.278869 0.019129 
-0.004351528 0.05662837 0.01372253 
-0.09083016 0.2332603 -0.003816 
0.05701754 0.09086195 0.019129 
0.09057542 0.06311472 0.01458557 
-0.05140796 0.0318 0.01594399 
-0.08424021 0.07890958 -0.003816 
-0.03678537 0.1856916 0.016481 
0.05196209 0.04324567 -0.003816 
0.01137592 0.05690908 0.019129 
-0.03628878 0.1274483 0.019129 
0.03970976 0.159113 -0.003816 
-0.1017464 0.2770066 0.019129 
-0.1144672 0.09632251 -0.003816 
0.02862599 0.2153995 0.019129 
-0.02607185 0.03719257 -0.003816 
-0.0196654 0.29302 0.0137918 
0.005066085 0.2733089 0.019129 
-0.1208627 0.2762989 -0.003816 
-0.05286948 0.1612181 0.0187084 
0.01685944 0.1930814 -0.003816 
0.04986119 0.1077777 0.019129 
-0.01965226 0.05216787 0.01271166 
-0.09222145 0.05344135 0.019129 
0.0231195 0.05041851 0.019129 
-0.1293353 0.03436917 -0.003816 
0.05676216 0.1321957 -0.003816 
0.06170715 0.1111577 -0.003816 
-0.1232858 0.1255109 -0.003816 
-0.1000453 0.04929654 -0.003816 
0.01201686 0.08129278 0.019129 
-0.01479183 0.1465373 0.016481 
-0.008078594 0.2075871 -0.003816 
0.01507205 0.2166626 -0.003816 
-0.1165357 0.2383949 0.019129 
-0.1433718 0.2778942 0.019129 
-0.0084889 0.173167 -0.003816 
0.008107636 0.07602366 -0.003816 
0.1295164 0.2553709 -0.003816 
-0.05604627 0.06239798 -0.003816 
-0.1484897 0.2916553 0.01862169 
0.139291 0.1004727 0.004973883 
-0.009329602 0.1556492 -0.003816 
-0.1313455 0.1925131 0.006989541 
-0.08086477 0.2523313 -0.003816 
0.1061185 0.2207166 -0.003816 
0.1302446 0.07451607 0.019129 
-0.02774025 0.2379991 -0.003816 
0.04428222 0.2556551 -0.003816 
-0.0126061 0.2323783 -0.003816 
-0.0201983 0.07051737 0.019129 
0.05551355 0.06979935 0.019129 
0.05170978 0.1913475 0.019129 
0.08632438 0.07422535 -0.003816 
-0.01896135 0.05569597 0.003750951 
-0.115903 0.2369199 -0.003816 
-0.1063036 0.06513635 0.0001166468 
-0.05177257 0.2745709 -0.003816 
-0.166054 0.03649041 0.007412601 
0.1283468 0.1721705 -0.003816 
-0.03313257 0.1532988 0.016481 
0.07855085 0.2336829 -0.003816 
-0.1451418 0.291062 0.019129 
0.05974433 0.2278742 0.019129 
-0.106286 0.2747249 0.0170375 
0.05311332 0.190857 0.019129 
-0.01266314 0.2815888 -0.003816 
0.139291 0.1767597 0.005104129 
0.1576606 0.1829541 0.0006000859 
-0.02447861 0.2384675 0.019129 
-0.09895015 0.1388578 0.019129 
0.1295208 0.0667998 -0.003816 
0.07972741 0.0753476 -0.003816 
0.02165391 0.278868 -0.003816 
0.1119169 0.228239 0.019129 
-0.0750822 0.29302 0.0103773 
0.03838623 0.2131529 -0.003816 
-0.0757657 0.276141 0.019129 
-0.04667808 0.29302 0.0096215 
-0.09672481 0.2822258 -0.003816 
0.163848 0.1866151 0.002048046 
-0.09885402 0.2573212 0.019129 
0.01181395 0.03819292 -0.003816 
-0.166054 0.233659 0.001214939 
-0.07432067 0.2027037 -0.003816 
-0.09447822 0.03800012 0.019129 
0.07961095 0.03755384 0.019129 
-0.09001887 0.1060212 -0.003816 
-0.1185798 0.03258462 -0.002728618 
-0.1287649 0.1515901 -0.003816 
-0.007473988 0.06510599 0.005891 
-0.1403682 0.1261275 0.019129 
0.05912687 0.06709035 -0.003816 
-0.1456043 0.1422924 -0.003816 
0.05719819 0.2362538 -0.003816 
-0.01788344 0.2702508 -0.003411122 
-0.06234639 0.06936026 0.019129 
-0.04616011 0.1890315 0.019129 
-0.08263829 0.08448692 -0.003816 
0.02932249 0.2618914 -0.003816 
-0.07613804 0.1790039 -0.003816 
-0.05843786 0.2118079 -0.003816 
-0.05975352 0.2447039 -0.003816 
-0.0754743 0.06569478 -0.003816 
0.04251776 0.279531 -0.003816 
-0.1128421 0.05056245 0.01801144 
-0.02324437 0.2757134 0.019129 
-0.1175191 0.1481478 0.019129 
0.08063076 0.2156732 0.019129 
-0.06798679 0.2291513 0.019129 
0.01911172 0.1024747 -0.003816 
-0.0627557 0.2603213 0.019129 
-0.1638274 0.1653904 -0.003816 
-0.166054 0.2256097 0.01338757 
-0.09964726 0.03637337 0.019129 
0.130427 0.2825509 -0.003816 
0.006507324 0.231406 0.019129 
-0.1646287 0.2750554 -0.003369282 
0.1378588 0.222051 0.01868916 
-0.1528134 0.04051876 -0.003816 
-0.01629759 0.1780184 0.016481 
0.03918755 0.05484535 0.019129 
0.00138095 0.1336571 0.016481 
0.06293907 0.06156443 0.019129 
0.1316591 0.2419754 0.019129 
-0.1609723 0.1305506 0.019129 
-0.1530892 0.0318 0.005855756 
-0.04824148 0.08574592 -0.003816 
0.1344879 0.0318 0.01294158 
0.1069245 0.1433226 -0.003816 
0.1431363 0.1536995 0.01261232 
0.1331049 0.1551469 0.019129 
-0.1411177 0.2682128 -0.003816 
0.03907499 0.2876996 -0.003816 
0.1235886 0.2265035 0.019129 
0.03972924 0.03963261 -0.003816 
0.007106076 0.09749793 -0.003816 
0.1444367 0.1972539 0.01292846 
-0.02661783 0.1279592 0.016481 
-0.1468347 0.196899 0.01111113 
0.05099548 0.2516885 0.019129 
0.01351953 0.1578459 0.016481 
-0.02704221 0.0490005 -0.003816 
0.02469939 0.248584 0.019129 
-0.08356383 0.09657939 0.019129 
0.08077407 0.1926621 0.019129 
0.06138988 0.03550025 -0.003816 
0.1383311 0.1587462 -0.002903908 
0.004900477 0.140892 0.016481 
-0.1656417 0.2670057 -0.002356247 
0.1046774 0.1853193 -0.003816 
-0.03461701 0.04328853 0.019129 
0.171497 0.1694482 0.008905389 
-0.1352144 0.07778528 0.019129 
-0.05221948 0.03671025 -0.003816 
-0.006353297 0.0653903 0.009040956 
-0.1040891 0.2912196 -0.003744458 
-0.04251712 0.04263476 -0.003816 
0.07772641 0.2608236 0.004701514 
-0.05912486 0.1234618 -0.003816 
-0.04021231 0.0318 0.01268852 
-0.06820015 0.2605402 -0.003816 
-0.05892571 0.07858862 -0.003816 
-0.1354699 0.2623645 0.019129 
0.07197257 0.07818882 -0.003816 
-0.01960051 0.1104132 -0.003816 
0.09970854 0.1100257 -0.003816 
-0.06169804 0.2339143 0.019129 
-0.04466802 0.1861686 0.01672029 
0.01453747 0.285071 0.019129 
-0.05741352 0.2702023 0.019129 
-0.09586093 0.2252436 0.019129 
0.09711089 0.1703627 0.019129 
-0.1177413 0.04933564 -0.003816 
-0.1356102 0.1460875 0.019129 
0.1289111 0.2156253 -0.003816 
-0.1137624 0.16749 -0.003816 
0.02822403 0.1757055 0.019129 
-0.12827 0.1816832 -0.003816 
-0.04214624 0.08456064 -0.003816 
0.04176033 0.1304258 -0.003816 
-0.1297906 0.1987157 0.003580536 
0.1150143 0.04919258 -0.003816 
0.03611408 0.2695096 -0.003816 
-0.1097311 0.06858601 0.01630218 
-0.07600889 0.0374712 -0.003816 
-0.05229519 0.2320858 0.019129 
0.08867774 0.2925391 0.01773786 
0.04320458 0.1857748 -0.003816 
-0.09523367 0.1752341 0.019129 
-0.006785414 0.06582242 0.008642742 
0.07248285 0.2617585 0.019129 
-0.05652355 0.2780731 -0.003816 
-0.1653656 0.249614 -0.00263236 
0.1103091 0.2863936 0.019129 
-0.06494711 0.09904172 0.019129 
-0.1636705 0.2878211 -0.003816 
-0.166054 0.2902838 0.01605055 
0.09259107 0.1150188 -0.003816 
-0.05509037 0.1475273 0.019129 
0.02570476 0.1583208 0.01858615 
-0.04877515 0.06501967 -0.003816 
0.1484251 0.1544525 0.001160464 
0.1525303 0.1797701 -0.000154451 
-0.166054 0.1391582 0.01507891 
-0.1343857 0.2067596 -0.003816 
-0.001990639 0.2618093 0.019129 
0.08868005 0.1704131 -0.003816 
-0.09308553 0.1237307 0.019129 
-0.1312832 0.1385581 0.019129 
-0.1327367 0.07926655 -0.003816 
-0.06848031 0.2792408 -0.003816 
0.006841711 0.1888696 -0.003816 
-0.01442248 0.04972936 0.01469721 
0.09871143 0.05740029 -0.003816 
0.0006124764 0.06305867 0.019129 
0.1129494 0.1777037 0.019129 
0.1107317 0.2540268 -0.003816 
0.1125001 0.0434305 0.019129 
0.1023846 0.2339891 -0.003816 
0.01638758 0.1502792 0.016481 
0.07366432 0.2112008 0.019129 
-0.002024835 0.04829111 0.019129 
0.03552087 0.2750575 0.019129 
-0.1198699 0.2064871 -0.003816 
0.1237077 0.2167738 0.019129 
-0.01640383 0.1091853 -0.003816 
0.08175996 0.2759559 0.019129 
0.06227446 0.2717725 0.019129 
0.05381696 0.2710741 0.019129 
0.137204 0.06755975 0.019129 
0.02947721 0.223023 0.019129 
-0.06348663 0.263441 -0.003816 
0.1313907 0.2231189 0.019129 
-0.008176488 0.1711127 -0.003816 
0.1086886 0.08348912 -0.003816 
-0.1065321 0.224502 -0.003816 
-0.1465475 0.2803092 0.019129 
-0.166054 0.2047537 0.007546718 
0.02969014 0.1202457 -0.003816 
-0.06664512 0.1020607 -0.003816 
0.10311 0.1400161 -0.003816 
0.139291 0.09460571 0.01086176 
0.001386107 0.03426218 -0.003816 
0.08782643 0.07428662 -0.003816 
-0.1654618 0.03307982 0.00250467 
-0.07132956 0.2485608 -0.003816 
-0.008236961 0.03277426 0.01823126 
-0.1493146 0.262653 -0.003816 
0.139291 0.1700851 0.01000681 
0.07365574 0.2585109 0.019129 
-0.09542935 0.2304561 0.019129 
-0.03596042 0.29302 0.004518898 
-0.08793449 0.08336246 0.019129 
-0.03166139 0.2733123 -0.003816 
-0.166054 0.1265122 -0.001376832 
0.1172014 0.2062895 -0.003816 
-0.002686618 0.2384104 -0.003816 
-0.0143104 0.2003879 -0.003816 
0.1012245 0.05801674 0.019129 
0.06021497 0.1312778 0.019129 
0.139291 0.1519726 0.002081294 
-0.00453993 0.06238901 0.007074114 
-0.0732425 0.29302 0.00441608 
-0.08293062 0.05706024 -0.003816 
-0.1271982 0.233391 -0.003816 
0.1167042 0.1777088 -0.003816 
0.08765416 0.06314952 0.005891 
-0.01376864 0.06567207 0.0006891855 
0.1309948 0.1706473 0.019129 
0.07087967 0.2539303 0.019129 
0.1036857 0.1340436 0.019129 
0.1616599 0.2026051 0.007666167 
-0.07670277 0.29302 0.006436472 
0.01189769 0.2147347 0.019129 
-0.04586814 0.03187659 0.01733359 
-0.0750202 0.0866193 0.019129 
-0.166054 0.2832845 0.01697003 
0.02967703 0.04605095 0.019129 
-0.06893221 0.09476624 -0.003816 
-0.1654698 0.1702464 0.01784121 
-0.003394923 0.1576945 -0.003816 
-0.1411466 0.134544 -0.003816 
0.03725929 0.2010889 0.019129 
-0.0146701 0.2032617 0.019129 
0.006794326 0.2054231 -0.003816 
0.08909613 0.03407243 0.019129 
0.1126108 0.05233467 0.019129 
0.139291 0.290991 0.004497867 
0.139291 0.099639 0.00478329 
0.1150654 0.2233724 0.019129 
-0.09643149 0.1654742 0.019129 
0.05577151 0.1307262 0.019129 
-0.02595262 0.07786877 0.019129 
-0.1018531 0.2592399 0.01247006 
0.1322934 0.08807938 0.019129 
-0.1622384 0.2782847 0.019129 
0.04764097 0.1227446 -0.003816 
-0.00436054 0.2682252 0.01573571 
0.1137228 0.185071 -0.003816 
-0.09959572 0.1689327 -0.003816 
0.07430707 0.1846331 -0.003816 
0.1325809 0.2715623 -0.003816 
-0.004615232 0.2747104 -0.003816 
0.1286009 0.1503845 -0.003816 
-0.02747793 0.04320964 0.019129 
0.01399847 0.26784 -0.003816 
-0.1013506 0.2836402 0.019129 
-0.112949 0.2231321 -0.003816 
-0.002665607 0.1101179 -0.003816 
0.08151901 0.2281929 -0.003816 
-0.1481491 0.1998882 -0.003816 
-0.07799235 0.0447483 0.019129 
0.1610601 0.1882079 0.01191385 
0.126572 0.1450772 -0.003816 
-0.166054 0.05241447 0.006495943 
-0.1240395 0.2006597 0.003371429 
0.05606633 0.289715 0.019129 
0.03627228 0.1625265 0.019129 
-0.1573321 0.2602657 -0.003816 
-0.08008875 0.1059294 0.019129 
-0.03641096 0.2660806 0.019129 
-0.166054 0.0496126 0.008759532 
0.1049887 0.2372719 0.019129 
0.04794911 0.28241 -0.003816 
-0.01952649 0.1762162 -0.003816 
-0.1487637 0.09786877 -0.003816 
-0.1475085 0.04787322 0.019129 
-0.006518789 0.0318 0.01422358 
0.1205427 0.2261906 0.019129 
-0.1382363 0.1899298 0.01140341 
0.1522266 0.1994144 0.001749439 
0.09226966 0.05792335 0.019129 
-0.02474177 0.2891027 0.019129 
-0.02630979 0.22456 0.019129 
-0.05852132 0.1921461 -0.003816 
0.09221502 0.2714646 0.019129 
0.1000306 0.29302 0.01697533 
0.05079066 0.2511272 -0.003816 
0.04771277 0.055557 -0.003816 
-0.02741171 0.2704889 -0.003816 
-0.03440242 0.1451851 0.016481 
-0.07477751 0.29302 0.0002491999 
0.1017695 0.04466642 -0.003816 
-0.166054 0.05177249 -0.0003881967 
0.01909387 0.2140848 0.019129 
-0.1576139 0.085467 -0.003816 
-0.05685593 0.2416537 0.019129 
-0.04196016 0.1590937 0.016481 
0.139291 0.1182577 0.01603797 
-0.1299006 0.2640304 -0.003816 
-0.156074 0.1651136 -0.003816 
-0.07203469 0.08260659 -0.003816 
-0.166054 0.2784067 0.007551077 
-0.05553857 0.29302 0.0004471615 
-0.1567436 0.08789697 0.019129 
-0.09640102 0.1051075 0.019129 
-0.1417305 0.2126601 -0.003816 
-0.03728534 0.2662127 0.019129 
-0.1623819 0.270132 0.019129 
0.07291336 0.1454396 0.019129 
0.1347404 0.0420595 0.019129 
-0.002872199 0.2432132 -0.003816 
-0.1242544 0.1864036 0.01599573 
0.06423707 0.2145145 0.019129 
-0.1027634 0.2125264 -0.003816 
0.05080479 0.07916383 0.019129 
-0.1231792 0.152249 -0.003816 
0.02794272 0.2771716 -0.003816 
-0.1267271 0.2397679 -0.003816 
0.07434046 0.2244041 0.019129 
-0.02864393 0.1003036 -0.003816 
-0.09731491 0.08369684 -0.003816 
-0.0515801 0.08540135 0.019129 
-0.1061442 0.274687 0.01232023 
-0.07688231 0.1739917 -0.003816 
0.123502 0.1705142 0.019129 
0.05841766 0.04528146 -0.003816 
0.04415621 0.08401762 -0.003816 
0.09145869 0.1276697 -0.003816 
0.05009277 0.1926839 -0.003816 
0.03357868 0.08461498 -0.003816 
-0.1102275 0.04986212 0.01651015 
0.1191947 0.2419872 0.019129 
0.139291 0.1122923 0.0125644 
-0.166054 0.2853852 -0.00180636 
0.06260053 0.05408077 0.019129 
0.1256872 0.2652668 -0.003816 
0.1103412 0.1642073 0.019129 
-0.02969297 0.1981755 0.01672095 
0.0731487 0.05569572 0.01780143 
0.0737453 0.06423429 0.01316999 
0.002814856 0.2696343 0.019129 
-0.03523422 0.1995378 -0.003816 
-0.06402284 0.04450341 -0.003816 
0.102019 0.06257668 -0.003816 
0.02201629 0.1257051 0.019129 
-0.139275 0.2784005 0.019129 
-0.08259521 0.05714373 -0.003816 
-0.1458164 0.1428326 -0.003816 
-0.1135536 0.1090854 -0.003816 
0.03274189 0.2698032 -0.003816 
-0.03826841 0.2290986 -0.003816 
0.0893684 0.285162 -0.003816 
-0.1166971 0.06926192 -0.003816 
-0.1382806 0.03907323 -0.003816 
0.0201271 0.05211841 -0.003816 
-0.07176676 0.1884246 0.019129 
0.08886866 0.110997 -0.003816 
0.01639147 0.1195595 0.019129 
0.08081056 0.1260633 -0.003816 
0.06856373 0.2389566 -0.003816 
-0.09892775 0.05603625 -0.003816 
-0.07512342 0.07649604 -0.003816 
-0.09241526 0.2371963 0.019129 
0.01079321 0.2364317 -0.003816 
0.05459795 0.291086 -0.003816 
-0.08835502 0.2495571 -0.003816 
-0.01998512 0.1400118 0.016481 
0.0316835 0.1808308 0.019129 
-0.166054 0.2153802 0.003539864 
-0.1087629 0.1270427 0.019129 
0.0005307021 0.03203773 -0.002181735 
-0.1352395 0.1043738 0.019129 
-0.1275929 0.1887221 -0.003816 
0.1175264 0.29302 0.01228329 
-0.08744802 0.2041949 -0.003816 
0.04574043 0.1486371 -0.003816 
0.06000717 0.1029346 -0.003816 
-0.05678784 0.1465088 0.019129 
-0.1154421 0.2009051 -0.003816 
-0.166054 0.1124365 0.006341135 
0.05545808 0.2818351 -0.003816 
0.03036665 0.07809362 0.019129 
0.07714198 0.1565984 0.019129 
-0.06836609 0.1935311 0.019129 
-0.1547465 0.2365197 0.019129 
0.05459534 0.1700871 -0.003816 
0.09341294 0.03836889 -0.003816 
0.02083871 0.2105716 -0.003816 
-0.04617352 0.237142 0.019129 
0.09536776 0.2688211 0.019129 
0.03645277 0.1254042 0.019129 
-0.1253724 0.05105588 -0.003816 
0.001640857 0.1896151 -0.003816 
-0.03263091 0.1476025 0.016481 
0.09029964 0.2153387 -0.003816 
-0.1600406 0.1531038 -0.003816 
0.06723927 0.1765181 -0.003816 
-0.008364607 0.2301086 0.019129 
0.01882308 0.2216462 -0.003816 
-0.09661376 0.0318 0.009822151 
0.06874771 0.1767569 0.019129 
-0.002123398 0.2575887 -0.003816 
-0.1632793 0.2741348 -0.003816 
-0.1334204 0.08478011 0.019129 
0.1651801 0.16413 0.01077918 
0.05734625 0.1033386 -0.003816 
0.103362 0.09247469 0.019129 
-0.1328367 0.06607658 -0.003816 
0.119943 0.276276 0.019129 
0.1205696 0.09151986 -0.003816 
-0.1278104 0.2479681 0.019129 
-0.09959086 0.05689184 0.01400515 
0.04093592 0.2050067 -0.003816 
0.09387206 0.05974064 -0.003816 
-0.137937 0.2906255 0.019129 
0.06890443 0.2786196 0.019129 
0.139291 0.2347574 -0.0008600407 
0.080752 0.03877082 0.019129 
0.1031566 0.209353 0.019129 
-0.02071059 0.0318 0.001113552 
-0.03853152 0.09650561 0.019129 
-0.04649296 0.06103241 -0.003816 
0.05959899 0.2770754 -0.003816 
-0.1288965 0.05992946 0.019129 
-0.1600322 0.1704337 0.019129 
-0.08284309 0.05071566 -0.003816 
-0.1598448 0.09597839 -0.003816 
0.01835599 0.1303643 0.019129 
0.139291 0.1338192 0.0005078873 
0.03864422 0.15514 0.019129 
-0.1322906 0.1739224 -0.003816 
0.139291 0.1429271 0.008000384 
0.03709138 0.2146649 -0.003816 
0.1118042 0.03740239 -0.003816 
0.05057802 0.2169453 0.019129 
-0.04984858 0.09297142 -0.003816 
-0.09617722 0.0542419 -0.003816 
-0.07734101 0.1912424 0.019129 
-0.1056908 0.2512732 0.019129 
0.07815099 0.1789682 -0.003816 
0.06432778 0.06613353 -0.003816 
-0.04461046 0.0318 0.01175013 
-0.009318138 0.04427795 0.019129 
0.03607383 0.1907618 -0.003816 
0.03861668 0.2530922 0.019129 
0.03930503 0.2707815 -0.003816 
0.09619687 0.1675927 -0.003816 
0.003194183 0.1100967 0.019129 
0.0635748 0.2560473 0.019129 
0.08515497 0.06800042 0.009988287 
-0.05592887 0.08745933 -0.003816 
-0.1098451 0.1398582 -0.003816 
-0.1013307 0.2788548 -0.003816 
0.05607023 0.2814963 0.019129 
-0.09270875 0.04944861 0.019129 
0.1084398 0.2342592 -0.003816 
-0.112608 0.09260852 -0.003816 
0.09254361 0.1499271 0.019129 
0.01549425 0.2675381 -0.003816 
-0.06221801 0.1030294 -0.003816 
-0.05343612 0.236341 0.019129 
-0.08309523 0.2047821 -0.003816 
0.02305095 0.2777494 0.019129 
0.1192469 0.2136302 -0.003816 
-0.1206305 0.2236878 -0.003816 
0.07231218 0.1804469 0.019129 
-0.166054 0.1656174 0.01053799 
-0.04080581 0.09784378 0.019129 
0.1218681 0.07436431 0.019129 
0.04095705 0.219712 -0.003816 
0.1316185 0.206618 -0.003816 
0.1235034 0.2811882 -0.003816 
-0.08627954 0.1291588 0.019129 
0.06120671 0.03267212 -0.002816124 
0.03327642 0.1117084 0.019129 
0.1163058 0.1550995 -0.003816 
-0.166054 0.2294374 0.009283763 
0.1326548 0.2686383 -0.003816 
-0.008759336 0.1461952 0.016481 
0.09805813 0.06417002 -0.003816 
0.06861128 0.1150219 0.019129 
-0.03692105 0.1135409 -0.003816 
-0.1249422 0.0318 0.008785164 
-0.02648878 0.2858987 0.019129 
0.03061499 0.1687384 -0.003816 
0.07554803 0.1197604 0.019129 
0.1022577 0.29302 0.001581236 
0.07844701 0.05038299 0.006460727 
-0.166054 0.2084735 0.002008529 
0.04417985 0.04584029 0.019129 
0.09657916 0.2921459 0.01813109 
0.139291 0.04213018 0.00453709 
0.139291 0.198752 0.01652573 
-0.08014125 0.1965808 -0.003816 
0.02947714 0.1522047 0.019129 
0.1210026 0.2576819 -0.003816 
0.1443789 0.2025139 0.01194766 
-0.04781253 0.2907894 -0.003816 
0.0105981 0.05121375 -0.003816 
-0.03021876 0.1815361 0.016481 
0.09633833 0.2607915 0.019129 
-0.1421726 0.1056524 0.019129 
-0.1252789 0.1526093 -0.003816 
0.06510252 0.2038655 -0.003816 
0.01482217 0.2388849 0.019129 
0.1291202 0.2038595 -0.003816 
0.0547853 0.1396493 -0.003816 
-0.03588593 0.130564 -0.003816 
0.1088006 0.2469082 -0.003816 
0.04909733 0.1258233 -0.003816 
-0.003938493 0.03986331 0.019129 
-0.1053365 0.2874413 -0.003816 
0.1304669 0.0318 0.01654344 
0.009981192 0.0431217 -0.003816 
0.132559 0.03351324 -0.003657243 
0.04388002 0.116107 -0.003816 
-0.09895787 0.1094826 0.019129 
-0.01758173 0.283888 0.019129 
0.0772844 0.29302 0.01237651 
0.04780528 0.2695262 -0.003816 
0.09018958 0.1304533 -0.003816 
0.06437963 0.05837259 0.019129 
0.03661972 0.04000933 -0.003816 
0.03217061 0.1449967 -0.003816 
0.1379666 0.1140593 -0.003268386 
0.007957634 0.03297511 -0.003119112 
-0.1022902 0.29302 0.01466803 
-0.01746113 0.1668883 0.016481 
-0.1445428 0.29302 0.002916508 
-0.1205525 0.2310362 0.0140693 
0.09947805 0.1509688 -0.003816 
-0.1473323 0.08643179 -0.003816 
0.09385625 0.1900277 0.019129 
0.0871968 0.1848475 0.019129 
-0.05809664 0.1138566 0.019129 
0.124533 0.0318 0.00452983 
-0.1594629 0.1499895 -0.003816 
0.05620813 0.04155809 0.019129 
0.1193299 0.1929526 -0.003816 
-0.03530439 0.1547927 0.016481 
-0.0262926 0.2695565 -0.003816 
0.1074996 0.07331908 0.019129 
-0.03008706 0.1176904 0.019129 
-0.06676588 0.1131917 -0.003816 
-0.02654672 0.2539255 0.019129 
-0.1653509 0.08999783 -0.002647124 
0.01939037 0.2479437 -0.003816 
-0.1132647 0.221892 0.00967209 
0.1013589 0.1668735 -0.003816 
0.1556304 0.1703893 0.0002736356 
0.1092703 0.09467535 0.019129 
-0.1151657 0.0586198 -0.001705707 
0.089895 0.0318 0.0004686648 
0.1200013 0.03245382 -0.002597822 
0.01658249 0.2271521 0.019129 
0.06693974 0.2887719 0.019129 
0.05453541 0.1526924 -0.003816 
0.0001308389 0.1707793 -0.003816 
-0.02517121 0.1252564 -0.003816 
-0.0671737 0.04287829 -0.003816 
0.1381922 0.2733577 0.01835583 
0.139291 0.1970717 0.002930098 
0.139291 0.05181788 0.003895735 
0.139291 0.1777194 0.002254264 
-0.03611515 0.2279839 0.019129 
-0.03671379 0.29302 0.0008862048 
-0.07144438 0.08266792 -0.003816 
0.07838493 0.2253286 -0.003816 
0.1605213 0.1688683 0.001150363 
-0.0599182 0.2915924 0.01868456 
-0.06982782 0.1345995 0.019129 
0.01268241 0.0318 0.01221335 
-0.1209138 0.2459688 -0.003816 
-0.03164426 0.07952975 -0.003816 
-0.08921094 0.0318 0.00789284 
0.1163704 0.2120762 -0.003816 
0.1516934 0.2048742 0.003204536 
0.1202743 0.04070986 0.019129 
-0.03683219 0.1035782 -0.003816 
0.02140137 0.0726828 -0.003816 
-0.1549684 0.1329197 -0.003816 
-0.07251794 0.1409751 -0.003816 
-0.1118014 0.1924489 0.01909284 
0.07681268 0.04762463 0.019129 
0.139291 0.1779281 0.01566423 
-0.004788763 0.1931055 -0.003816 
0.06640224 0.1006579 -0.003816 
0.1293269 0.2520804 -0.003816 
0.07369222 0.2706862 0.01028418 
0.02032682 0.1415492 0.01884454 
-0.1494183 0.1006294 -0.003816 
-0.1153158 0.2801153 -0.003816 
0.05319684 0.2866453 0.019129 
-0.1655164 0.2701328 -0.00248159 
-0.06702739 0.2663656 -0.003816 
-0.1313009 0.1824721 -0.003816 
0.09004697 0.29302 0.01462896 
0.03305943 0.1149636 -0.003816 
-0.1558474 0.2039973 -0.003816 
0.02805807 0.1074055 0.019129 
-0.004330063 0.29302 0.01281161 
-0.04369365 0.06254371 0.019129 
0.139291 0.09625253 0.01389397 
-0.1529177 0.1476545 -0.003816 
-0.1028102 0.29302 0.0136147 
-0.07440985 0.0318 0.01037729 
-0.1160126 0.05321781 0.007017415 
-0.09436846 0.1633307 -0.003816 
0.08744755 0.1812345 -0.003816 
0.1206208 0.0318 0.003327784 
-0.1507134 0.1310369 0.019129 
0.04859967 0.1190806 0.019129 
-0.1365539 0.2832782 -0.003816 
-0.04716183 0.03766815 0.019129 
-0.08607186 0.1944206 -0.003816 
0.006090227 0.1217956 -0.003816 
-0.01930705 0.0318 0.01411348 
-0.04974234 0.2842151 0.019129 
0.138278 0.06793002 0.01826997 
-0.02618744 0.05056569 0.019129 
-0.07113661 0.09017633 -0.003816 
0.1300083 0.08261912 -0.003816 
0.04476487 0.09269553 -0.003816 
-0.08176626 0.1478562 -0.003816 
0.1072299 0.09529845 0.019129 
0.02169264 0.07937523 -0.003816 
0.04575701 0.07826427 0.019129 
-0.1038223 0.05128539 -0.003816 
-0.1011861 0.2601369 0.005891 
-0.01710385 0.07654576 0.019129 
0.1454196 0.1932905 0.01337087 
0.04873788 0.2528407 0.019129 
-0.166054 0.273504 -0.001345581 
-0.106453 0.2574874 0.005891 
0.01135043 0.05516345 -0.003816 
0.118971 0.2026807 0.019129 
0.0273402 0.1844401 -0.003816 
0.07062592 0.2221457 -0.003816 
0.139291 0.2845001 0.006561154 
0.05032704 0.237415 0.019129 
0.08538364 0.07479749 0.019129 
-0.001712897 0.163058 -0.003816 
0.07110479 0.1002775 -0.003816 
-0.1488014 0.08797783 -0.003816 
-0.1149688 0.1586837 -0.003816 
-0.06361639 0.1485806 0.019129 
-0.08334666 0.03244047 0.01789747 
0.03311019 0.239439 -0.003816 
0.08721286 0.09733516 0.019129 
0.007282547 0.08806278 0.019129 
0.03830936 0.1014523 0.019129 
-0.01474854 0.2563208 0.008055986 
-0.08001265 0.1576035 0.019129 
-0.08830084 0.03185705 -0.002001046 
-0.01674353 0.1587551 0.016481 
-0.02550801 0.1170419 0.019129 
-0.01684618 0.0318 0.0001354768 
-0.04917093 0.1154647 -0.003816 
0.01310482 0.1258511 0.019129 
0.07999477 0.1558778 -0.003816 
-0.1059606 0.06772364 -0.003816 
-0.1147494 0.160689 0.019129 
-0.1544953 0.1043755 -0.003816 
-0.03955888 0.04308444 0.019129 
0.00172367 0.06599357 -0.003816 
0.02464461 0.107857 -0.003816 
0.0865002 0.2925703 -0.002393674 
-0.06340967 0.03963016 0.019129 
-0.164395 0.08540724 -0.003602966 
-0.07773835 0.2074306 0.019129 
-0.008117232 0.2736589 0.01179027 
0.139291 0.1947001 -0.0002102053 
-0.08976204 0.06412315 0.019129 
0.08602067 0.2063898 -0.003816 
0.03715537 0.1469925 0.019129 
-0.04280681 0.2110516 0.019129 
0.0674278 0.2304491 -0.003816 
0.04395245 0.1862602 0.019129 
0.01753656 0.2106799 0.019129 
-0.00556022 0.2112372 -0.003816 
0.05346813 0.08001982 -0.003816 
-0.1625046 0.1022453 0.019129 
-0.04219183 0.1560307 0.016481 
0.0937845 0.2557012 0.019129 
0.01152324 0.0318 0.01407492 
-0.1172851 0.06331354 0.009518199 
0.09916604 0.2219079 -0.003816 
-0.1447657 0.1062661 -0.003816 
0.139291 0.1793155 0.008797626 
-0.1189173 0.0930483 0.019129 
0.1252603 0.2740082 0.019129 
-0.1108258 0.2368425 0.019129 
-0.01687464 0.2568911 0.01724977 
0.02681326 0.1316891 -0.003816 
0.06294778 0.2429925 -0.003816 
-0.07247887 0.2394692 -0.003816 
-0.09446414 0.29302 0.01409466 
0.00914587 0.1744846 0.016481 
-0.004561514 0.0318 0.01265105 
0.02833438 0.05914296 -0.003816 
0.006072662 0.2431239 -0.003816 
-0.02646828 0.1764174 0.016481 
0.1266332 0.2301583 0.019129 
-0.04553574 0.1558165 0.016481 
-0.002319541 0.09464304 0.019129 
0.1294262 0.29302 0.01435047 
-0.1023262 0.1304793 -0.003816 
0.02895755 0.167402 0.019129 
-0.03210531 0.07263699 0.019129 
0.01848889 0.2396214 -0.003816 
-0.1489373 0.1055916 0.019129 
