ply
format ascii 1.0
comment VCGLIB generated
element vertex 1200
property float x
property float y
property float z
element face 0
property list uchar int vertex_indices
end_header
-0.3427434 -0.015359 -0.2145003 
-0.2128057 0.015359 0.4335762 
-0.07160141 0.015359 -0.3780364 
0.4813511 0.015359 -0.5758249 
-0.23998 0.015359 -0.03042805 
-0.260154 -0.015359 0.5045198 
0.4780076 -0.015359 0.6435116 
0.07678397 0.015359 0.7893724 
-0.4464637 -0.015359 -0.6488646 
-0.3020603 -0.015359 0.3348105 
0.09572274 0.015359 0.05865985 
0.1157737 0.015359 0.4593252 
0.573395 0.01327677 0.06840331 
0.2548144 -0.015359 -0.07195854 
0.2459533 -0.015359 0.2437165 
-0.1758753 -0.015359 -0.4029827 
-0.1012673 0.004045221 -0.8356531 
0.08189184 0.015359 -0.2156313 
0.2140118 0.015359 0.7446601 
0.356613 0.015359 0.02005428 
-0.04006186 -0.015359 -0.5128343 
-0.3020732 0.015359 -0.1480933 
0.02592801 0.015359 0.1439322 
0.1280204 -0.015359 -0.542484 
-0.5361593 0.015359 -0.8320933 
-0.4541734 0.015359 -0.5933591 
-0.0634149 -0.015359 0.7736502 
-0.414133 -0.015359 -0.7000182 
-0.2269643 0.015359 -0.3419619 
0.4016137 0.04164106 -0.3380327 
0.2195969 -0.015359 0.8289504 
-0.2125582 -0.015359 -0.4931913 
-0.4786186 -0.015359 0.5988339 
-0.2685255 -0.015359 -0.392588 
0.1251344 0.015359 0.7357757 
0.2892175 0.015359 0.3777574 
0.2651834 -0.015359 -0.3367815 
-0.5724745 0.015359 0.638855 
0.4301537 -0.015359 0.285644 
0.328261 0.015359 0.771282 
0.5274343 0.015359 0.03822207 
0.2645851 0.01248476 -0.835653 
0.2001498 -0.015359 0.4524168 
0.08647782 0.015359 -0.7053022 
0.2443237 0.015359 -0.691816 
-0.4481537 -0.015359 -0.0358438 
0.07114223 0.015359 -0.3652887 
0.4791191 -0.015359 0.1704974 
0.3667399 -0.015359 0.4255517 
-0.1150263 -0.015359 0.4373331 
-0.1789716 -0.015359 0.2768501 
-0.1393784 0.015359 0.7721674 
0.01121912 -0.015359 0.5682246 
0.139159 -0.015359 0.8326449 
-0.4173091 -0.015359 0.7105803 
0.4767733 -0.015359 0.2371372 
-0.2890359 -0.015359 0.489806 
-0.1451617 0.03470941 0.1624777 
0.3599548 -0.015359 -0.126027 
0.07595484 0.015359 0.738512 
0.573395 0.007070927 -0.7526231 
0.2998104 -0.015359 -0.4133301 
-0.2359364 -0.015359 -0.02962904 
-0.033024 0.015359 0.6980168 
0.1923299 -0.015359 -0.3204794 
0.4422497 0.015359 -0.6313652 
-0.3018626 -0.015359 0.3116067 
-0.1189358 -0.015359 -0.3581198 
0.03854364 -0.015359 0.07548979 
0.3116982 0.015359 -0.3695254 
0.07490329 0.015359 -0.003223896 
0.08765807 0.015359 0.6409027 
0.09632357 -0.015359 0.5051185 
-0.4317728 0.015359 0.376302 
0.5236762 -0.015359 -0.3892025 
-0.08610456 -0.015359 -0.3525792 
-0.1447721 0.015359 0.5675111 
-0.2602575 0.015359 0.7507528 
0.1292507 -0.015359 0.2725758 
-0.003937233 0.015359 0.5833192 
-0.3189346 0.015359 0.2807571 
-0.2342293 -0.015359 -0.6830589 
0.3856457 0.05651942 -0.4810811 
0.08546413 -0.015359 -0.5738837 
0.1813639 0.015359 0.8212624 
-0.5352119 -0.015359 -0.4938115 
-0.3934485 -0.015359 -0.8131367 
-0.2183968 -0.015359 -0.6252298 
0.4558252 -0.015359 0.5715597 
-0.04699801 -0.015359 0.4543733 
0.5404241 0.015359 -0.02834651 
-0.4335568 0.015359 -0.1678855 
-0.2187955 0.015359 0.2681258 
-0.1202827 -0.015359 0.7237306 
0.5606325 -0.015359 0.2213863 
-0.3596206 -0.015359 -0.5191656 
-0.5415258 0.015359 -0.1424208 
-0.1230496 -0.015359 0.2405188 
-0.4673498 0.015359 0.4425924 
0.1681106 -0.015359 0.7381909 
0.4008719 -0.015359 0.4959706 
-0.2393404 0.0004319502 -0.835653 
-0.0983468 0.1019272 0.1640919 
0.2353085 0.015359 -0.51292 
0.2788841 0.015359 0.007238597 
0.5151821 0.015359 0.02759546 
0.1705435 0.015359 -0.232792 
-0.1806683 0.015359 0.114544 
-0.543451 -0.015359 -0.2327827 
0.5430425 -0.015359 0.4161671 
-0.4940935 0.0123824 0.835497 
-0.3852108 0.015359 -0.1742774 
0.573395 -0.008069606 0.2806794 
0.3645296 -0.015359 0.5325557 
0.4683883 0.015359 -0.08887562 
-0.4695503 0.015359 -0.3628403 
-0.00554648 -0.015359 -0.6340363 
0.01638405 0.015359 0.1869732 
0.1959369 0.015359 -0.1663658 
-0.1277131 0.015359 0.5660838 
-0.4893012 -0.015359 -0.8142622 
-0.573395 7.961295e-05 -0.2283632 
0.3743503 0.015359 -0.8282385 
0.1414345 -0.015359 -0.04013819 
-0.2132289 0.015359 -0.5750305 
-0.07233198 0.02587735 0.1211427 
-0.1857241 0.015359 0.7539422 
-0.1954397 0.015359 -0.304737 
0.3091875 0.01630384 -0.4740447 
-0.5438261 0.015359 -0.6748716 
-0.5190287 -0.015359 -0.0102928 
0.3377904 -0.015359 0.4743693 
0.02546214 0.01385987 -0.835653 
0.3745535 -0.015359 0.02504201 
0.3494132 -0.015359 -0.1808909 
-0.5455104 0.015359 -0.7908723 
0.3370037 0.015359 0.06831259 
-0.08599235 0.015359 -0.8027618 
-0.1433166 0.015359 0.6174709 
0.3297378 -0.01382623 -0.835653 
-0.2998265 0.015359 0.660494 
-0.4180611 0.015359 -0.6931019 
0.2235996 -0.015359 0.7192994 
-0.05330897 -0.015359 -0.6642367 
-0.2064356 0.015359 0.2796823 
-0.01851538 0.015359 -0.3928158 
0.281847 -0.015359 0.6674052 
-0.08008185 -0.015359 -0.2838471 
0.5476649 -0.015359 -0.2521114 
-0.3478521 -0.015359 -0.7900801 
0.3073514 -0.015359 0.3420699 
-0.03633827 0.015359 -0.1122161 
0.1874042 0.015359 -0.8171676 
0.3446589 0.015359 -0.3870601 
0.4662579 0.015359 -0.2600141 
-0.0425416 0.02626786 0.2182583 
0.4424678 0.015359 0.3856905 
0.1984271 -0.015359 0.07806134 
-0.04183662 0.015359 -0.087556 
-0.1963581 0.015359 -0.1813269 
0.2505993 -0.015359 -0.03379187 
0.5728217 0.015359 -0.645604 
-0.573395 0.00685026 0.7716339 
-0.02175578 0.015359 -0.4637613 
0.4855943 0.015359 -0.004162192 
-0.1126312 0.015359 0.2668693 
-0.1690789 0.015359 -0.3102019 
0.07429067 -0.015359 -0.01274282 
-0.4824944 -0.015359 -0.5910293 
0.5011085 0.015359 -0.4621645 
-0.2044429 -0.015359 -0.1154264 
0.4142076 0.015359 -0.1412038 
-0.5617738 -0.015359 -0.2285286 
-0.1867367 0.015359 -0.04812321 
-0.2460467 -0.015359 -0.5900632 
-0.4436333 0.015359 0.4073917 
0.188479 -0.015359 -0.3758596 
-0.007191442 0.015359 -0.7244478 
-0.3972223 -0.015359 0.4589071 
-0.428525 -0.015359 0.3942059 
-0.07021917 -0.015359 0.2101504 
0.5170525 0.015359 -0.5893174 
0.3062118 0.006798721 0.835497 
0.2914424 -0.015359 0.2834212 
0.05164405 0.015359 -0.4152037 
0.0556447 0.015359 -0.4777456 
0.003290609 -0.015359 -0.3667782 
-0.3606654 -0.015359 -0.2763929 
0.1882763 0.015359 0.2151395 
0.1484674 0.015359 0.007920444 
-0.4438155 0.015359 0.05291045 
0.3150643 0.015359 -0.7645845 
0.03104911 0.015359 -0.1219143 
0.1745215 -0.015359 0.007315189 
0.3541872 0.015359 0.2303545 
-0.08935736 0.04745072 -0.3675681 
-0.3227404 0.015359 -0.4250102 
0.2458162 0.015359 -0.6664885 
-0.4193619 -0.015359 -0.08981694 
-0.5597392 0.015359 -0.6738985 
-0.5474107 0.015359 -0.4318849 
0.4954276 0.015359 -0.5901732 
-0.2542646 0.015359 -0.2782656 
0.3019567 -0.015359 0.8212721 
-0.4646192 0.015359 -0.6086507 
-0.02002873 -0.015359 -0.5069332 
0.2272711 0.015359 0.6571516 
0.573395 0.01295899 0.01262644 
-0.4820229 0.015359 0.1775123 
-0.1617258 0.015359 0.513567 
-0.2590395 -0.015359 0.562847 
-0.1309046 -0.015359 -0.6303928 
-0.5320619 -0.015359 -0.6043805 
0.5708418 0.015359 -0.526544 
-0.09145719 0.015359 0.2082265 
-0.198945 0.015359 -0.1674256 
-0.3173864 0.015359 -0.795637 
-0.4394387 -0.015359 -0.4189246 
0.1473366 0.015359 0.7667049 
0.1237091 0.015359 0.6316344 
-0.06246756 -0.015359 -0.5549946 
0.3645996 0.003050077 -0.553995 
-0.2367665 0.015359 0.5818624 
0.1034683 -0.015359 0.1811573 
-0.08494425 0.015359 0.02049896 
-0.5266672 -0.015359 0.180471 
0.5061358 0.015359 -0.3043135 
0.1826226 -0.015359 -0.7227657 
-0.4157892 -0.015359 -0.2787473 
-0.4831473 0.015359 0.4595394 
-0.4288988 -0.01293302 0.5875379 
0.290666 -0.015359 0.5312305 
0.09157859 -0.015359 -0.50157 
-0.0360072 0.06324751 0.1912184 
-0.573395 0.006442937 -0.7888001 
0.573395 -0.004889898 0.4364594 
-0.1503272 0.015359 0.5205407 
0.3385607 -0.015359 0.05944543 
0.07130578 -0.015359 -0.7470882 
-0.4452861 -0.015359 -0.1245304 
-0.3441691 0.015359 -0.1727199 
-0.3311188 0.015359 -0.1088704 
0.1031866 -0.015359 0.8164748 
0.09385544 0.015359 -0.4093807 
0.42173 -0.015359 -0.2141113 
0.2400984 -0.015359 -0.7188545 
0.4962513 0.015359 0.7649659 
-0.2082838 -0.015359 0.4235 
0.3072576 -0.015359 -0.497089 
0.1796874 0.015359 0.07177559 
-0.3398594 0.015359 0.5304971 
-0.5004166 -0.015359 0.5616775 
0.2597183 0.015359 -0.1857232 
-0.4908316 0.015359 -0.6588418 
-0.1807842 -0.015359 0.4386947 
-0.002485782 -0.015359 -0.5013776 
-0.3885181 0.015359 0.5357527 
-0.4106986 0.015359 -0.2354029 
-0.01035348 -0.015359 -0.7228419 
-0.4567083 -0.015359 -0.3862121 
-0.2304837 -0.015359 0.5710156 
0.05449709 -0.015359 0.5710694 
-0.06794678 0.015359 0.07053901 
0.2358381 -0.015359 -0.6870691 
-0.06850554 0.015359 0.4732353 
0.5328121 0.015359 0.019494 
0.08343752 0.015359 -0.5056583 
0.2513744 0.015359 -0.2171667 
0.1027083 -0.015359 0.7682834 
-0.03905854 -0.015359 -0.5223062 
0.3400075 0.015359 -0.1765943 
-0.1815827 0.015359 -0.5734736 
-0.3296511 0.015359 -0.7117404 
-0.3059138 0.015359 0.4629186 
-0.5297858 0.015359 -0.08776008 
-0.3994147 -0.015359 0.01464343 
0.1358529 0.015359 -0.5161027 
0.1895948 0.015359 -0.2792252 
0.2027506 -0.015359 0.4234761 
-0.2597983 -0.015359 -0.5462078 
0.5581592 -0.015359 0.7414228 
0.4311295 0.015359 -0.4335624 
-0.1041028 -0.015359 -0.6333362 
-0.2540876 0.015359 0.7041981 
0.2231248 -0.015359 0.7439707 
-0.2824668 -0.015359 -0.4646238 
-0.4728993 0.015359 0.3624358 
0.5090027 -0.015359 0.08296931 
-0.2839895 0.015359 0.3945567 
0.3591894 0.015359 0.387893 
0.2707591 -0.015359 -0.3735714 
0.4508446 0.015359 -0.3761711 
0.003965184 -0.015359 -0.1443221 
-0.573395 0.003667323 -0.5545311 
-0.1937222 0.015359 -0.7144523 
0.3259708 0.01188228 -0.5682294 
0.02250905 -0.015359 0.2622736 
-0.3288555 0.015359 -0.1128078 
0.3396435 0.015359 0.4884973 
-0.4420456 -0.015359 -0.1857261 
-0.5205219 -0.015359 0.02951455 
0.23005 0.015359 -0.05641085 
0.1762376 -0.015359 -0.03373793 
0.1994043 -0.015359 0.4336612 
0.05554365 0.015359 0.6946546 
0.4489072 -0.015359 -0.0962053 
-0.2493691 -0.015359 -0.3602262 
-0.01738435 -0.015359 -0.1108791 
-0.3738041 0.015359 0.300777 
0.2010917 -0.015359 0.0952643 
-0.09380654 0.015359 0.224396 
0.3342274 0.015359 -0.1351204 
-0.1010685 0.08814283 0.2097408 
-0.04520734 0.015359 0.6166758 
0.573395 -0.002565091 -0.2989619 
0.2782443 -0.015359 0.1680007 
0.02363135 0.015359 -0.1515579 
0.1448895 0.015359 0.4063868 
-0.1812631 0.015359 -0.2685535 
0.5567132 0.015359 -0.02019808 
-0.08749899 -0.015359 -0.595415 
-0.0723573 0.015359 -0.4894399 
0.5426445 -0.015359 -0.2567512 
0.1588394 -0.015359 0.136389 
-0.09530061 -0.015359 0.1111187 
-0.4614362 0.015359 -0.09943333 
0.0001641437 -0.015359 0.645525 
-0.2415527 -0.015359 0.2204989 
0.2149057 0.015359 0.2790589 
-0.3961268 -0.015359 0.540495 
-0.2974853 0.015359 0.5157722 
-0.2638984 0.015359 -0.2793372 
-0.3570445 -0.015359 -0.1033105 
0.5266428 -0.015359 -0.5927109 
0.5382609 -0.015359 0.5106918 
-0.09738401 0.015359 -0.7918127 
0.331962 0.015359 -0.06549138 
0.03936996 -0.015359 -0.608144 
-0.04470094 0.015359 0.6179611 
0.561953 0.006668336 0.835497 
0.3596853 0.015359 -0.5471926 
0.3721981 0.015359 0.3500372 
0.2385949 -0.015359 0.2570914 
0.03226706 -0.015359 0.504783 
-0.2888061 -0.015359 -0.04209913 
-0.5733543 -0.015359 -0.5523941 
0.1851524 -0.015359 0.3313542 
0.08900324 -0.015359 0.5000033 
0.3114211 0.015359 0.3934715 
0.4749887 0.015359 0.01956415 
-0.04536365 0.015359 -0.1275451 
0.5120232 -0.015359 -0.7777058 
-0.3062786 -0.015359 -0.2515176 
0.4984699 -0.015359 -0.1816988 
-0.3376314 0.015359 0.2706968 
0.1440965 -0.015359 0.7411029 
0.0605726 -0.015359 0.3386056 
-0.4504098 0.015359 0.3264348 
-0.03127843 0.015359 0.7290514 
0.07634712 -0.015359 0.5283784 
0.5244347 0.015359 -0.7944556 
0.03171629 0.015359 0.7478823 
0.3258382 0.015359 -0.4626233 
-0.2533487 0.015359 0.8138516 
0.2131615 -0.015359 0.3234994 
-0.2375277 0.015359 -0.02744292 
-0.573395 -0.003400113 0.4253815 
0.3238959 -0.015359 -0.2445377 
-0.3863352 -0.015359 -0.1037315 
0.2682728 -0.015359 0.3744018 
-0.5640661 -0.015359 0.5887484 
-0.3292333 -0.01115263 0.6873828 
0.009359151 -0.015359 0.6777754 
0.03334764 -0.015359 -0.8300087 
0.4105973 0.015359 -0.1992609 
0.2348144 0.015359 0.4765322 
0.265674 -0.015359 -0.7377024 
-0.08180059 -0.015359 -0.7665454 
0.4117948 0.015359 0.5328181 
-0.3207784 -0.015359 -0.765596 
-0.3683825 -0.015359 0.5482063 
0.142465 -0.015359 -0.2512279 
0.2714512 0.015359 -0.5644446 
-0.1532465 -0.015359 -0.5305007 
0.001369044 -0.015359 0.02152735 
-0.3470547 0.015359 0.4983749 
-0.01803558 0.015359 0.1244533 
0.4802639 0.015359 -0.1146478 
0.1087366 0.015359 0.7521144 
0.1337644 0.015359 0.1418037 
0.2026155 -0.015359 -0.7680091 
0.4289526 -0.015359 -0.8002967 
-0.4797783 -0.015359 -0.3597139 
-0.118218 -0.015359 0.5465258 
0.3298836 -0.015359 0.04257883 
0.5444784 0.015359 -0.2930806 
0.2737428 -0.015359 -0.5774913 
-0.4944311 -0.015359 -0.709495 
-0.1747693 -0.015359 -0.189179 
-0.1242043 0.015359 -0.8303068 
0.2792264 0.015359 0.1492871 
-0.1642106 -0.015359 -0.09757926 
-0.4679548 0.015359 -0.2490837 
0.4480207 0.015359 -0.3551338 
-0.5613092 -0.015359 0.02608037 
-0.4775843 0.015359 -0.7152615 
0.05025762 -0.015359 0.003015995 
-0.5272575 0.015359 0.3733732 
0.1632682 -0.015359 -0.2025835 
0.2842163 0.015359 -0.2982191 
0.1528638 0.015359 0.3625481 
-0.08392453 0.015359 0.01170612 
-0.05686571 0.015359 0.2959961 
0.1572773 0.015359 0.6263834 
-0.06360364 0.015359 -0.7203538 
0.5497143 -0.015359 0.001554966 
-0.1176015 0.015359 -0.4428406 
0.1643786 -0.015359 0.09155282 
-0.5642763 -0.015359 0.4300786 
0.1711159 0.015359 -0.6498389 
0.4192019 0.015359 -0.1353597 
-0.5179181 -0.015359 0.09720278 
-0.4772667 0.015359 0.03372771 
0.4597946 -0.015359 -0.284001 
-0.1942225 -0.015359 -0.3550989 
0.4691904 -0.015359 0.7541149 
0.4879391 -0.015359 0.4833643 
-0.09845512 -0.015359 -0.7852577 
0.4432822 -0.015359 -0.6794641 
0.2884624 0.015359 -0.3827423 
-0.4887719 -0.015359 0.6733557 
-0.1065465 -0.015359 0.4157926 
0.4052151 -0.015359 -0.4370864 
-0.3506343 -0.015359 -0.3623066 
-0.5606059 -0.015359 -0.3992542 
0.1218235 0.015359 -0.2186702 
0.4005397 -0.015359 0.7558205 
-0.09763783 -0.015359 0.246376 
-0.06974974 -0.015359 -0.3452175 
-0.2612309 0.015359 -0.3404163 
-0.1083875 -0.015359 0.1034086 
-0.4799968 0.015359 -0.221999 
0.1429759 -0.015359 -0.7540953 
0.5024059 -0.015359 -0.3054682 
0.1861067 0.015359 0.286294 
0.07975426 -0.015359 0.1326261 
0.2088552 -0.015359 -0.2539839 
0.09827505 -0.015359 -0.3937617 
-0.1341283 0.015359 0.6163321 
0.2429185 0.015359 0.1643946 
0.4709715 -0.015359 -0.2084602 
-0.2284572 -0.015359 0.2239604 
-0.2470882 -0.015359 0.0001432225 
-0.4013562 0.015359 0.2853385 
0.3248912 -0.015359 0.1055309 
0.4975158 0.015359 -0.4840526 
0.2292599 0.015359 -0.1857675 
0.04335009 -0.015359 -0.6190455 
-0.1150274 0.015359 -0.6722279 
-0.5366656 -0.015359 0.5843111 
-0.04035219 0.015359 -0.4169345 
0.5517979 0.015359 0.485149 
-0.3183571 -0.015359 -0.4665347 
-0.2585987 0.015359 -0.783962 
0.573395 0.004465695 0.2166637 
0.2870187 0.015359 -0.1805204 
-0.2059512 -0.015359 -0.591844 
-0.4461001 -0.015359 -0.4254516 
0.1801886 0.015359 0.1757707 
-0.4932331 -0.015359 0.6524894 
0.09467012 0.015359 -0.02396455 
0.0929402 0.015359 0.3592755 
0.2261649 0.015359 -0.489334 
-0.2258864 -0.015359 -0.1538245 
0.4956145 0.015359 -0.2911615 
-0.2516063 0.015359 0.560485 
-0.009644032 0.015359 0.4005049 
0.4067481 -0.015359 -0.4217924 
0.2849086 -0.015359 -0.6034874 
-0.09375727 0.04256988 0.1224395 
0.2978478 0.01665417 -0.3827807 
-0.2329068 -0.015359 0.4073299 
-0.2195605 0.015359 0.481827 
-0.4737271 -0.015359 -0.6282856 
0.476019 0.015359 -0.04935324 
0.1681799 -0.015359 0.7124499 
0.1091883 -0.00148896 0.835497 
-0.4292709 -0.015359 0.8035579 
0.573395 0.001078732 -0.01151124 
0.01577622 0.015359 0.2457012 
0.4123853 0.015359 0.05238196 
0.006257519 -0.015359 -0.05461279 
0.06801333 0.015359 -0.8166633 
0.148179 0.015359 -0.7303792 
0.3226546 -0.015359 -0.1688003 
0.2545567 -0.015359 -0.3115458 
0.08692571 0.015359 -0.681483 
-0.1065438 0.015359 -0.6660825 
-0.3167861 0.015359 -0.3219826 
-0.06352861 -0.015359 0.8074701 
0.2639067 -0.015359 -0.6509931 
-0.4516756 -0.015359 0.1498289 
-0.1014352 -0.015359 -0.610577 
0.5254914 0.015359 -0.4756629 
-0.3656949 0.015359 0.3074693 
0.3105709 -0.015359 -0.6697669 
-0.4877099 -0.015359 -0.5208024 
-0.2264861 -0.015359 0.6301332 
-0.3681898 -0.015359 0.4298107 
0.38931 0.04831225 -0.4871727 
0.08450497 0.015359 -0.6991622 
0.2172132 0.015359 0.5202978 
0.4236262 -0.015359 -0.3100309 
0.4768602 -0.015359 0.3970433 
-0.3144116 -0.015359 0.2479225 
-0.4689127 0.015359 -0.1627893 
-0.1989852 -0.015359 0.3182357 
0.05174407 -0.015359 -0.6994005 
0.1004899 0.015359 0.5756159 
0.5283372 0.015359 0.6191617 
0.512135 -0.015359 0.6091763 
-0.3332183 -0.015359 -0.7536585 
0.291271 0.015359 -0.0592508 
-0.4661339 -0.015359 -0.2326652 
-0.4105996 -0.015359 0.2293823 
0.496838 0.015359 -0.3214145 
0.573127 -0.015359 -0.3351371 
0.2842935 -0.01094458 -0.835653 
-0.1272937 -0.015359 -0.7126554 
-0.1546464 -0.015359 0.2970743 
0.1149355 -0.015359 -0.4632793 
0.4973753 -0.015359 -0.3441321 
-0.512822 0.015359 -0.5393027 
0.5230598 -0.015359 -0.1837564 
0.3411354 0.04587581 -0.5006887 
-0.04706097 -0.015359 0.4857016 
0.1592551 0.015359 0.1052996 
-0.5609772 -0.015359 0.4062785 
-0.2390763 0.015359 0.7753015 
0.1591554 0.015359 0.8085545 
-0.1582281 0.015359 -0.1275131 
0.2036764 0.015359 0.5504544 
0.3223678 -0.015359 -0.7968078 
0.2262309 -0.01128943 0.835497 
-0.5356215 0.015359 -0.451189 
-0.4659472 0.015359 0.3814155 
0.3945135 0.015359 -0.2133829 
0.004966378 -0.015359 -0.4644746 
0.02336353 -0.015359 -0.149842 
0.413358 -0.015359 0.1902058 
0.3285663 -0.015359 -0.5570035 
-0.5678911 -0.015359 0.3214634 
-0.3488951 0.015359 0.02035294 
-0.1181782 0.015359 0.5640712 
-0.2628216 -0.01500962 -0.835653 
-0.3051235 0.015359 0.388952 
-0.4117794 0.015359 -0.7083772 
-0.1698351 0.015359 -0.5113715 
0.2829256 0.015359 0.5193365 
0.001597419 -0.015359 0.8114753 
-0.459635 -0.015359 -0.6933298 
0.3708732 -0.015359 -0.810897 
-0.1981608 -0.015359 -0.3692414 
-0.3346768 0.015359 -0.2206065 
0.1127898 -0.015359 -0.4214693 
0.3088015 0.01991959 -0.4723005 
-0.573395 -0.01257794 0.684469 
-0.4356697 -0.015359 0.2663165 
-0.486164 -0.015359 0.7621607 
-0.429895 0.015359 0.2218807 
0.359795 0.015359 -0.4066943 
0.4370436 -0.015359 0.2065271 
-0.08150882 -0.015359 -0.7461208 
-0.1707349 0.015359 -0.2844929 
-0.4428619 0.015359 -0.3247074 
0.1800632 0.015359 0.7170491 
0.1969493 -0.015359 -0.658285 
0.2680396 0.015359 0.4653184 
0.4586963 0.015359 -0.1884196 
-0.05963393 0.015359 0.7721435 
-0.2535344 0.015359 -0.5469669 
0.3299786 -0.015359 -0.1535127 
-0.05770122 -0.015359 -0.2246059 
-0.1686006 -0.015359 -0.6717724 
-0.01538639 0.015359 0.5088618 
0.2968528 0.015359 -0.07746227 
0.5085133 0.015359 -0.06835961 
0.5468695 -0.015359 0.7456182 
-0.2666094 0.015359 -0.7514434 
0.1292116 -0.015359 -0.116082 
-0.08453 -0.015359 -0.6584541 
0.5466136 0.015359 0.5070372 
-0.2193799 -0.015359 0.2379512 
0.07246862 -0.015359 -0.3969817 
0.2746807 -0.015359 -0.6743847 
0.4547355 -0.015359 -0.8124033 
-0.3149508 -0.015359 -0.7101201 
0.4513469 0.015359 -0.6980053 
-0.2344394 0.015359 0.7393856 
0.5390775 0.015359 0.3209251 
-0.0763271 0.015359 0.4745924 
-0.004948035 -0.009552974 0.8354971 
-0.2459473 0.015359 0.3101309 
0.09329182 -0.015359 -0.8322972 
0.5146504 -0.015359 0.4372356 
-0.06860413 0.015359 0.6189447 
-0.5424715 -0.015359 0.6641 
0.03815583 0.015359 0.5365748 
-0.1434753 0.015359 0.5890635 
0.3219282 -0.015359 -0.01104754 
-0.5703735 0.015359 -0.6353014 
0.2535646 -0.015359 -0.2657668 
-0.1266969 0.015359 0.451163 
-0.3504282 0.015359 -0.2740325 
0.5290349 -0.015359 -0.05998096 
0.3813762 0.015359 -0.3025716 
0.3557616 0.015359 0.4752942 
-0.4363091 0.015359 -0.3729422 
0.1018566 0.015359 0.1506009 
0.573395 0.007792132 0.1961661 
0.1559753 -0.015359 0.4108463 
0.5536065 0.015359 0.6127698 
0.1088227 -0.015359 0.7383957 
0.1277003 -0.015359 -0.3784911 
-0.1673183 -0.015359 -0.1841844 
0.03014987 -0.00432906 0.835497 
-0.1587868 0.015359 0.3080319 
0.4242243 0.015359 -0.1570805 
0.4905287 -0.015359 0.5612695 
0.2533379 0.015359 0.7774564 
0.3434489 0.015359 0.3221111 
-0.285973 -0.015359 -0.4135654 
-0.2985384 0.015359 0.4370112 
-0.05115134 0.015359 0.3738713 
0.03110035 0.015359 0.002598763 
0.1464149 0.015359 -0.007347822 
0.5411837 -0.015359 -0.7494184 
0.2963963 -0.015359 0.4375178 
0.3062587 0.015359 0.3130226 
0.1924838 -0.015359 0.7493087 
-0.1670213 0.015359 -0.7942652 
0.01111758 -0.015359 0.0114522 
-0.09303689 0.0408366 -0.3726568 
-0.1315296 -0.015359 0.1091768 
0.573395 -0.001906157 -0.5535218 
0.01897554 -0.015359 -0.3638508 
-0.3113224 0.015359 -0.4290788 
-0.2818384 0.015359 -0.2499835 
-0.0002880692 -0.015359 -0.6953973 
-0.07994527 -0.015359 -0.3073175 
-0.5632759 -0.015359 0.07818529 
0.1129189 -0.015359 -0.5987284 
0.5074605 -0.015359 0.3619999 
0.4689794 0.015359 -0.4575932 
0.4501592 -0.015359 0.2774798 
-0.5455648 -0.015359 -0.4136008 
-0.4520316 -0.015359 -0.7891314 
-0.5453583 -0.015359 -0.2587278 
-0.5376248 0.015359 0.2943946 
-0.5292866 -0.015359 -0.3035859 
0.3395599 0.015359 0.7020381 
-0.4293772 -0.015359 0.09472083 
0.1005692 0.015359 -0.6673504 
-0.5628014 -0.008972359 0.835497 
-0.5466433 -0.015359 0.005909383 
0.4438066 0.015359 -0.4577003 
-0.1270607 0.08282702 0.18627 
-0.5655339 -0.015359 -0.7566487 
-0.08922711 0.015359 -0.5295893 
0.05844066 0.015359 0.4488503 
0.2876715 0.015359 -0.5592784 
0.2058975 -0.015359 0.5163692 
-0.2287828 0.015359 0.6296042 
0.2140783 -0.015359 0.08724967 
-0.5402749 0.015359 0.580152 
0.4823143 0.015359 0.5079566 
0.1054123 0.015359 0.1858876 
0.09287047 -0.015359 -0.3678977 
0.06063121 -0.015359 0.2933159 
0.4336438 0.015359 -0.3928078 
0.5086319 -0.015359 -0.05900723 
-0.191022 0.015359 -0.03309631 
0.1497634 0.015359 -0.1908539 
-0.003447033 0.015359 0.2185726 
-0.07460003 -0.015359 0.4362015 
0.1697126 -0.015359 -0.6038862 
-0.3495678 0.015359 0.5116553 
0.2627662 0.015359 0.2991707 
-0.5706322 0.015359 -0.2352873 
-0.02849701 0.04597911 0.1729477 
-0.5157299 0.015359 0.5849263 
-0.06558527 -0.015359 0.7862667 
-0.3964778 -0.015359 -0.830108 
-0.03491042 0.06512025 0.172641 
0.1287214 0.015359 0.4420971 
0.2234221 0.015359 -0.02906698 
-0.1122629 0.015359 0.1040704 
-0.5361552 -0.015359 0.3751107 
0.4282838 0.015359 0.8201101 
0.1442299 0.015359 -0.638368 
0.5137738 0.015359 -0.6335331 
0.5341908 0.015359 0.4168036 
0.4964117 0.015359 -0.2412142 
0.5479101 0.015359 -0.4387456 
0.0490929 -0.015359 -0.09057376 
0.07614415 0.015359 -0.3864786 
0.3433418 0.015359 0.7022514 
0.2580895 0.015359 -0.2703077 
-0.1831634 0.015359 -0.1667309 
-0.4257998 -0.015359 -0.07790024 
0.4358079 -0.015359 -0.04602879 
-0.1320666 0.015359 0.2746816 
-0.5235458 0.015359 0.8233074 
-0.1901184 0.015359 -0.2773694 
0.5302397 0.015359 0.6158208 
0.03277756 0.015359 0.1145014 
-0.05423176 -0.015359 0.5182196 
-0.01766569 0.015359 -0.04532767 
-0.3454972 0.015359 0.1870396 
0.1936908 -0.015359 0.3614548 
0.2325005 -0.015359 0.02665344 
0.5003393 0.015359 0.3757717 
0.003941357 -0.01185564 0.835497 
-0.4147388 0.015359 -0.5511605 
-0.4358516 0.015359 0.74953 
0.5220649 0.015359 -0.6075165 
0.285667 0.015359 -0.7827426 
0.4599212 -0.015359 0.3063756 
-0.0001074672 -0.015359 0.2286442 
-0.04921207 -0.015359 -0.4980214 
-0.125571 -0.015359 -0.2560937 
0.3255986 0.015359 -0.4286183 
0.2695089 -0.015359 -0.6111982 
0.3525654 -0.015359 0.7793527 
0.04251703 0.015359 0.4641621 
-0.5166436 0.015359 -0.08897358 
0.5476177 -0.015359 -0.164126 
-0.5663968 0.015359 0.5214559 
0.1147096 -0.015359 0.5574856 
-0.09328375 0.015359 -0.4402028 
0.09577163 -0.015359 -0.5454644 
-0.2846474 0.015359 -0.5398611 
0.4330434 0.015359 -0.3070706 
0.5309528 0.015359 0.6601279 
-0.1765859 -0.015359 -0.1460632 
-0.2460561 -0.015359 0.3275286 
0.2518256 0.015359 -0.317335 
0.5141413 0.015359 0.4143108 
0.365691 0.015359 -0.2807941 
0.1397514 0.01408359 -0.835653 
-0.3625153 -0.015359 -0.2363601 
-0.2691461 0.015359 -0.05085197 
0.2305207 -0.015359 -0.08607492 
-0.4988006 0.015359 -0.1667185 
0.01193979 0.015359 -0.6640078 
0.5668477 0.015359 -0.4562946 
0.4972103 -0.015359 -0.7424119 
-0.4918362 0.015359 -0.6616549 
0.05231479 -0.015359 -0.233816 
0.2775856 -0.015359 -0.2997772 
0.4496295 0.015359 0.3597682 
-0.4393276 -0.015359 -0.07183385 
0.4111831 -0.015359 0.7105281 
-0.5293315 -0.015359 -0.3224241 
0.409751 0.015359 -0.3346604 
-0.2612275 -0.015359 -0.3666143 
0.5326302 -0.015359 -0.2777219 
-0.573395 -0.008756751 0.5495527 
0.3319187 0.015359 -0.1623777 
-0.5678833 0.015359 -0.6832432 
0.240415 0.015359 0.6639344 
0.381764 0.015359 0.0290556 
0.4971098 0.0001188895 -0.8356531 
0.5523964 -0.015359 -0.7390088 
0.573395 -0.01444893 -0.4534667 
-0.3807049 0.015359 0.2336367 
0.09342513 -0.015359 0.158055 
0.2186061 -0.015359 0.7126427 
0.4894582 0.015359 -0.6735263 
0.03369457 0.015359 -0.7304018 
-0.04412132 0.015359 -0.3913829 
0.5506709 0.015359 -0.09397253 
-0.0842004 -0.015359 0.4850811 
-0.04074793 0.015359 0.8295639 
0.02455482 -0.015359 0.7608122 
-0.4875289 0.015359 0.2567843 
-0.2630897 -0.015359 0.387402 
0.5300897 -0.015359 0.8225566 
0.2189233 -0.015359 -0.3424511 
-0.2895021 -0.015359 0.5476993 
0.4090096 0.015359 -0.7730727 
0.5720104 -0.015359 0.1057293 
0.5443794 0.015359 -0.218858 
-0.02054475 0.015359 0.743542 
0.09011951 -0.015359 -0.02833277 
0.1284713 -0.015359 -0.02081969 
-0.2271053 0.015359 0.5231501 
-0.1182852 -0.015359 -0.8220652 
-0.1571705 0.015359 -0.6351011 
-0.5071081 -0.015359 -0.1145497 
0.541495 -0.015359 -0.2804765 
-0.4005782 -0.015359 0.1853764 
0.4088468 -0.015359 -0.4368289 
-0.0495544 0.015359 0.7131181 
0.4788408 -0.015359 0.1027201 
-0.3747299 0.015359 -0.4810327 
0.07960989 0.015359 0.312694 
0.4942843 -0.015359 0.35333 
0.3594109 -0.015359 -0.8292868 
0.463814 0.015359 0.3186609 
0.02355834 0.015359 0.1334111 
0.573395 0.003107201 -0.2988989 
-0.02632558 -0.015359 0.06281206 
0.4936399 -0.015359 0.7014396 
-0.1977061 0.015359 0.6113201 
0.2049004 0.015359 0.1119955 
-0.2897347 0.015359 0.4241309 
0.4156319 0.015359 -0.721719 
-0.5002152 -0.015359 0.005689412 
0.2387562 0.015359 0.6798775 
-0.5615698 -0.015359 -0.744985 
0.5525416 -0.015359 -0.71063 
0.1460267 0.015359 -0.8346748 
-0.09323608 0.015359 -0.2524825 
0.0009939969 -0.015359 -0.6430199 
-0.1317239 -0.015359 -0.5466877 
0.2786484 -0.015359 -0.3671877 
-0.2466947 -0.015359 -0.1512391 
-0.418921 0.01132718 -0.57504 
0.2408405 -0.015359 -0.2169038 
-0.257507 0.015359 -0.5132409 
0.4486433 -0.015359 -0.3175333 
0.3014808 0.02573807 -0.446656 
-0.1573952 0.015359 -0.7523433 
0.4651352 0.015359 -0.4444652 
-0.302932 0.01143391 0.5979501 
0.2756492 0.015359 -0.3345491 
-0.2603174 0.015359 -0.7255143 
0.3878674 -0.015359 -0.8341395 
0.09779088 0.015359 0.7985187 
-0.2374809 -0.005471882 0.835497 
-0.1078679 -0.015359 -0.2174999 
-0.4346872 -0.015359 -0.8247132 
-0.3037493 0.015359 0.5332776 
0.4622669 -0.015359 0.8020983 
-0.1887228 0.015359 -0.7329433 
0.3128284 0.015359 0.4272551 
-0.4054071 0.015359 0.0487384 
-0.2541351 0.015359 0.8137741 
-0.3804303 -0.015359 -0.3277195 
-0.2178465 -0.015359 0.1981857 
-0.2847944 -0.015359 0.009712063 
-0.3776249 0.01387029 -0.5544291 
0.309324 -0.015359 0.1540987 
0.4078079 0.015359 -0.4646266 
0.4425044 -0.015359 0.3973906 
0.573395 0.001492227 0.5580654 
-0.5021352 -0.015359 -0.3647306 
0.09483463 -0.015359 0.04826289 
0.4406675 -0.015359 -0.717142 
-0.4195018 -0.015359 0.2858806 
0.2746079 0.015359 -0.5640132 
0.3698096 0.015359 -0.133379 
-0.5155097 0.015359 0.8205057 
-0.12882 0.07769264 -0.3258016 
-0.2247324 0.015359 -0.2115294 
0.1364129 0.015359 0.7712488 
-0.3613818 -0.015359 0.4277175 
-0.1356403 -0.015359 0.4599584 
0.1987629 -0.015359 -0.3968021 
-0.1617001 -0.015359 -0.787437 
-0.07914904 0.06637508 -0.3136095 
-0.3474018 -0.015359 0.4801677 
0.1486572 -0.015359 -0.08372599 
0.5041729 -0.015359 -0.08987376 
-0.573395 0.0114132 -0.1356342 
0.347151 -0.015359 0.1445457 
0.03023399 -0.015359 -0.7775571 
0.2974425 -0.015359 0.5019383 
-0.1938163 0.015359 0.02984154 
-0.3119245 -0.015359 0.2848858 
-0.1445492 0.015359 -0.006901614 
-0.04504801 -0.015359 -0.8098996 
-0.0532048 0.015359 -0.544827 
0.08209085 -0.015359 -0.2081599 
-0.5052465 0.015359 0.582848 
0.5724734 -0.015359 -0.06107008 
0.2232522 -0.015359 0.1373759 
0.2459935 0.015359 0.2225229 
-0.223926 0.015359 0.7251835 
-0.2113588 0.015359 0.3418776 
0.1057623 -0.015359 0.4747361 
-0.2013809 0.015359 -0.451673 
0.4739416 0.015359 0.2131288 
-0.5218408 0.015359 -0.8220089 
0.3413691 -0.015359 -0.711127 
0.573395 -0.003435773 0.1122848 
0.2347092 -0.015359 0.6300777 
0.4228592 0.015359 -0.2088731 
0.07855143 -0.015359 0.5662903 
0.2908562 0.015359 0.06610605 
-0.573395 0.001389139 -0.6544946 
0.07273494 -0.015359 -0.4216318 
0.5282283 -0.015359 0.8338012 
-0.05128793 0.015359 -0.8247998 
0.186152 -0.015359 -0.07988057 
0.1821833 -0.015359 -0.6991957 
-0.3790303 0.01118296 -0.5545511 
-0.2988843 -0.001871017 0.835497 
-0.002337068 0.015359 -0.7885153 
0.2058341 -0.01009418 -0.835653 
-0.07547437 0.015359 -0.1834146 
0.2709672 0.015359 0.2427969 
-0.2895048 0.015359 -0.07756376 
0.5201368 -0.015359 -0.07166749 
0.5190103 -0.015359 -0.4090551 
-0.4821761 0.015359 -0.6312237 
0.2165529 -0.015359 0.7180759 
-0.3485303 0.015359 -0.388962 
0.3577383 0.015359 -0.4284671 
0.2459881 -0.015359 0.4896899 
0.4863186 -0.015359 -0.2018054 
-0.2635306 -0.015359 -0.672501 
0.5628237 0.015359 -0.6965048 
0.4950337 -0.015359 0.6823066 
-0.3435524 0.015359 0.311296 
0.1209323 -0.015359 -0.8293097 
0.2296868 0.015359 -0.3496926 
-0.3491366 -0.015359 0.3257562 
-0.4569973 0.015359 0.06347281 
-0.3532651 -0.015359 0.2883167 
0.1086054 0.015359 -0.1937548 
-0.2200487 -0.01238941 -0.835653 
0.1547998 -0.015359 -0.6569878 
-0.1121172 0.015359 0.2859549 
0.06985055 -0.015359 -0.7055371 
0.1156016 -0.015359 0.7888084 
-0.220893 0.015359 -0.1522775 
0.3015089 0.01824808 -0.3625306 
-0.2150339 -0.015359 -0.8106116 
0.5063516 -0.015359 0.02024046 
-0.3911114 0.015359 -0.7135871 
0.07753189 -0.015359 0.03973117 
0.3225719 -0.015359 -0.3724114 
-0.2295413 0.015359 0.2849528 
0.5612701 0.015359 -0.778663 
0.3273852 -0.015359 0.4656666 
0.2692298 -0.015359 0.2032286 
0.265867 0.015359 -0.09449051 
-0.2809878 0.015359 0.77345 
-0.1420817 -0.015359 0.7469432 
-0.1705415 0.015359 0.2124221 
0.1142295 -0.015359 0.5977829 
-0.3458697 -0.015359 -0.1278606 
-0.4602099 0.015359 0.7286483 
0.146038 -0.015359 0.2506225 
0.3450229 0.015359 -0.3081948 
-0.2248179 -0.015359 0.4576297 
-0.1809583 0.015359 -0.741761 
-0.5630854 -0.015359 0.2718326 
-0.2865618 -0.015359 0.3983039 
-0.5641387 0.015359 0.295097 
0.5143989 0.015359 0.1049319 
0.3408601 0.015359 0.2150313 
-0.4506627 0.015359 0.2764428 
0.3744858 0.08160056 -0.4085467 
-0.2757657 -0.015359 -0.5310711 
0.1316301 0.015359 -0.670378 
0.03318655 -0.015359 -0.5998641 
-0.05894586 -0.015359 -0.3717211 
0.4548026 0.015359 0.6583351 
-0.4418278 -0.015359 -0.2129638 
-0.3385111 0.015359 0.4514783 
-0.5034693 -0.015359 0.1592164 
-0.1022546 -0.015359 0.5996577 
0.1837543 0.015359 -0.7453113 
0.2026707 0.015359 0.01354757 
0.2020702 -0.015359 0.09483628 
0.1551688 -0.015359 0.03482172 
-0.02206479 0.015359 -0.7676021 
0.05545462 0.015359 0.2231712 
0.5342829 -0.015359 -0.6341996 
0.5705495 -0.015359 0.3640565 
-0.3265616 -0.015359 0.8231075 
-0.2987405 -0.015359 -0.00563867 
-0.101162 -0.015359 0.8175803 
0.1947076 0.015359 0.6928761 
0.5147719 -0.015359 -0.05395117 
0.4237069 -0.015359 -0.3802357 
-0.5002463 0.015359 0.6812363 
0.3565471 0.015359 -0.2622956 
-0.4821103 -0.015359 -0.6340865 
-0.3280356 -0.015359 0.1572483 
0.117443 -0.015359 0.1874508 
0.2905039 0.015359 -0.5728672 
-0.4032038 -0.015359 -0.736459 
-0.3711003 -0.015359 -0.1740797 
0.3405327 0.015359 0.4019257 
-0.05709314 0.015359 -0.03983952 
0.3066554 -0.015359 -0.1797354 
0.3229446 0.07130917 -0.4076451 
-0.3628449 -0.015359 0.3125345 
-0.4753118 0.015359 0.1966913 
0.1733809 0.015359 -0.7838167 
0.52628 -0.015359 -0.3381572 
0.06508607 0.015359 0.0971806 
0.2790453 -0.015359 -0.4335971 
0.3093023 0.015359 0.4538277 
-0.3423429 -0.015359 -0.5229483 
0.4590554 -0.015359 0.1508626 
0.530054 0.015359 -0.7485453 
-0.4687759 -0.015359 0.2288682 
0.573395 0.002683763 0.3986726 
-0.0909455 0.03666539 -0.2742808 
0.5493211 0.015359 0.08699226 
-0.2225479 0.015359 0.3082678 
0.2288128 0.015359 -0.5837711 
-0.1574956 0.015359 0.4290909 
0.2116619 -0.015359 -0.646719 
-0.1842824 0.015359 -0.3155638 
-0.4918779 -0.015359 -0.7042448 
0.0767698 -0.015359 -0.7396656 
-0.3424227 0.015359 0.4285046 
0.1722433 -0.015359 -0.3704576 
0.3889853 0.015359 -0.1832179 
-0.397453 0.015359 -0.4958368 
-0.5130274 -0.015359 -0.5282637 
0.2891623 -0.015359 -0.4392076 
-0.4361628 -0.015359 -0.1921201 
0.3841412 0.015359 0.05538159 
0.03607132 0.015359 -0.2726838 
0.35076 0.07800192 -0.4495329 
-0.5198713 -0.015359 0.2205661 
0.09141942 -0.015359 0.03324777 
-0.4327249 0.015359 0.2948693 
-0.3437552 -0.015359 0.2737356 
-0.3824323 0.015359 0.1077536 
-0.01440413 -0.015359 0.2785704 
0.2038716 -0.015359 0.07745695 
-0.357909 0.015359 0.1583141 
0.05164269 -0.015359 -0.06240752 
-0.5237285 -0.015359 0.7460285 
-0.050225 0.015359 -0.4358857 
-0.0919574 0.015359 -0.4905785 
0.573395 0.00311916 -0.02107731 
-0.1146251 0.07284825 0.1410261 
-0.4698418 -0.015359 -0.1602314 
-0.3241493 0.015359 0.3869982 
-0.1174835 0.015359 0.2309638 
0.1599049 0.015359 -0.4647359 
0.4026865 0.015359 -0.05663007 
-0.5223923 -0.015359 0.08780041 
0.3886508 0.07450439 -0.3913647 
0.3978628 -0.015359 -0.07507313 
0.573395 0.00743085 0.156815 
0.3136517 -0.015359 0.2779468 
0.1932622 0.015359 0.7980633 
-0.3204393 -0.01081382 -0.5729494 
0.0009772778 -0.015359 -0.6685177 
-0.2873063 -0.015359 -0.2210377 
-0.4717063 -0.015359 -0.202604 
0.2119609 -0.015359 0.6055803 
-0.4839003 0.015359 0.6144069 
0.0509204 0.015359 0.7191349 
0.1059105 0.015359 -0.6283036 
0.1525857 -0.015359 -0.135017 
0.1434441 0.015359 0.263271 
-0.4283508 0.015359 -0.1910028 
0.0118072 -0.015359 -0.6963268 
-0.1916298 -0.015359 -0.5028483 
0.3873659 0.015359 -0.141744 
-0.2199706 0.015359 0.01067738 
-0.5454914 -0.015359 -0.2052083 
-0.5388713 0.015359 0.3322674 
0.4367425 -0.004041811 -0.8356531 
-0.07503594 -0.015359 0.7000104 
0.4880801 0.015359 0.6474643 
-0.4992024 0.015359 0.07608813 
0.07828267 0.015359 0.3760076 
-0.1957867 0.015359 0.7213094 
-0.01242625 -0.015359 0.1878761 
-0.573395 0.004044827 0.7479851 
-0.02101997 0.015359 -0.5608619 
0.3613434 -0.015359 -0.491458 
0.09326699 -0.015359 0.1253892 
-0.4020336 0.015359 0.8096898 
-0.2081279 0.015359 0.7578465 
0.222785 0.015359 -0.2207565 
-0.1987135 0.015359 -0.2439728 
-0.1231106 0.015359 -0.07323614 
-0.3434268 0.015359 0.3171311 
-0.3412213 -0.015359 -0.13301 
0.05106954 0.015359 -0.8322687 
-0.1256945 0.015359 0.4391001 
0.4642585 0.015359 0.5464982 
0.5587127 -0.015359 -0.2182526 
0.3135012 0.015359 -0.02855837 
-0.3154087 -0.002231457 -0.675362 
0.2091767 -0.015359 -0.6529548 
-0.5075002 -0.015359 0.6088018 
0.05284327 0.015359 -0.8191053 
0.09901978 -0.004317108 -0.835653 
0.01568142 0.015359 0.2890512 
0.1368966 0.015359 0.6380258 
0.5486374 0.015359 0.1938828 
0.4000331 -0.015359 0.8183476 
0.573395 -0.008979954 0.3166562 
-0.1146863 0.00241365 0.835497 
-0.04168347 0.015359 0.6479195 
0.420226 -0.015359 0.4465914 
0.022656 0.015359 0.6410843 
-0.1015295 -0.015359 -0.5951262 
0.009938084 -0.015359 0.3234621 
0.2664787 0.015359 0.1553988 
-0.4995961 0.015359 -0.4571162 
-0.2699456 -0.015359 0.3280211 
0.05844131 0.015359 0.5368387 
0.2395139 0.015359 0.6305827 
0.3105465 0.015359 -0.450453 
0.3367558 -0.015359 0.4160833 
-0.1457607 0.015359 -0.7894039 
-0.5316124 -0.015359 0.6337103 
-0.2162883 0.015359 -0.6265942 
0.3123572 0.015359 -0.01315323 
0.4543211 0.015359 -0.1837048 
0.2220472 -0.015359 0.04273662 
-0.01021093 -0.015359 0.7054319 
0.482816 0.015359 0.04963079 
0.2865203 -0.015359 0.08556159 
-0.2347043 -0.015359 -0.2483414 
-0.2856404 -0.015359 0.8231295 
-0.573395 0.00945719 -0.4084758 
-0.5642495 -0.015359 0.1018742 
-0.3628888 0.015359 -0.5128989 
0.3623162 0.07163157 -0.469864 
0.2506779 0.015359 -0.541737 
-0.3864664 -0.015359 0.2634376 
-0.08507746 0.015359 0.1330431 
0.1109726 0.015359 0.4829488 
-0.1343461 -0.015359 0.8241626 
0.4761781 0.015359 -0.2426097 
-0.2922656 -0.015359 0.3554944 
-0.3109396 -0.015359 -0.1671768 
0.4577066 0.015359 -0.8219368 
-0.1554798 -0.015359 -0.5126433 
-0.08504107 -0.015359 0.2345625 
0.3334685 -0.015359 0.350616 
-0.4512003 0.015359 -0.5037671 
0.510272 0.015359 0.7461221 
0.1408645 -0.015359 0.709282 
-0.08156706 -0.015359 -0.4198489 
-0.2962947 -0.015359 0.1470922 
0.1539811 -0.015359 -0.7633166 
-0.3561505 -0.015359 0.7774046 
-0.03549095 -0.015359 0.3004883 
0.3981586 0.015359 -0.3822984 
0.573395 -0.01304796 -0.581026 
-0.2662147 0.015359 -0.8082087 
-0.1568484 0.015359 -0.3925238 
-0.1514034 0.015359 0.06582583 
0.5262012 0.015359 -0.5717105 
-0.3176271 -0.015359 -0.4189441 
0.08114944 -0.015359 0.6230817 
-0.1738064 0.015359 0.597486 
0.4492827 -0.015359 -0.007729426 
0.06539951 0.015359 -0.6124361 
0.573395 0.004006851 0.4738441 
0.5124456 0.015359 0.3485568 
0.2978019 -0.015359 -0.6752812 
0.12791 0.015359 -0.01529393 
0.1273879 0.015359 0.7477701 
0.01720716 0.01357797 -0.835653 
0.136211 0.015359 -0.3156852 
-0.3196149 -0.015359 0.3848166 
-0.4262003 0.015359 -0.4742032 
-0.2627897 -0.015359 -0.4465061 
0.03108658 -0.015359 -0.3046298 
0.2090171 0.015359 -0.2714817 
0.1812983 -0.015359 0.4063265 
-0.2022001 -0.015359 -0.1948244 
0.4437473 0.015359 0.2751356 
-0.06301782 -0.015359 0.73487 
-0.5030573 0.015359 -0.8334925 
0.260219 -0.015359 0.02631986 
-0.556939 0.015359 0.4994861 
-0.2612696 -0.015359 0.3565331 
0.1905552 0.015359 -0.275607 
0.04422963 0.015359 -0.6125757 
-0.3997495 0.015359 0.1802202 
0.006366983 -0.015359 -0.8127949 
-0.4200809 -0.015359 0.5067543 
0.1252725 -0.015359 0.2195549 
-0.1729751 0.015359 0.5193196 
-0.2868479 -0.015359 -0.7914749 
-0.05751943 0.015359 0.295767 
-0.1589223 0.015359 0.4491041 
0.1936275 0.015359 -0.2109165 
-0.2589636 -0.015359 0.3283816 
-0.3477274 0.015359 0.1950581 
0.3657629 -0.015359 0.5416394 
