ply
format ascii 1.0
comment VCGLIB generated
element vertex 1471
property float x
property float y
property float z
element face 0
property list uchar int vertex_indices
end_header
-0.2411038 0.683749 -0.6821636 
0.5810512 -0.4100583 0.6935768 
-0.6151962 0.726155 -0.2928502 
0.1433647 0.1579692 -0.9703212 
0.2852231 -0.8422145 -0.4517832 
-0.3331294 -0.7819203 -0.5169892 
0.8063959 0.06819642 0.2724912 
0.3839239 0.1115971 -0.9108129 
0.3435234 -0.8168265 -0.4562984 
0.7180579 0.1006926 -0.6782055 
-0.6900403 0.3365358 -0.6304497 
-0.2538284 -0.8648529 -0.42077 
-0.08274494 0.5621524 -0.817918 
0.8111513 0.08717541 0.5039397 
0.7223638 -0.5582312 0.3992915 
0.6191698 -0.4633183 0.6256043 
0.4916103 -0.4009604 -0.7687365 
-0.3112005 0.3466581 0.8777652 
0.3526939 -0.6686251 0.6450375 
0.7678965 0.2828062 0.09019881 
-0.4555455 0.6122161 0.6367395 
-0.0804284 0.6611595 0.7368932 
-0.4176362 -0.5286485 -0.7312593 
-0.06274868 0.739265 -0.661742 
-0.5222057 0.5316754 -0.6583241 
-0.4639647 -0.8773202 -0.05914976 
-0.4687489 -0.6631799 0.5720583 
-0.1879512 -0.9541471 0.209968 
0.8642533 0.4421635 -0.2090352 
-0.7572697 0.6204144 0.1717072 
-0.0384465 0.9842644 -0.1544868 
-0.3469593 0.6895509 0.6287235 
-0.5262396 -0.8300952 0.1756279 
0.7385308 0.2513427 0.3185737 
-0.1622278 0.6851274 0.7049143 
-0.9486938 -0.3005278 0.001085401 
-0.8993483 0.3268704 0.2606294 
0.5155667 0.4357507 -0.7297835 
-0.7410159 -0.6603062 0.04567919 
0.1707621 0.8272582 0.5313106 
0.7414712 0.3649913 0.5458141 
0.08269148 -0.4303109 -0.8902773 
0.4403194 -0.4636532 0.7583383 
0.6159451 0.1359747 0.2175079 
-0.9336626 0.3332011 -0.05306774 
-0.4338042 -0.8933016 0.06180399 
0.4948865 -0.6270947 0.5887338 
0.5322503 -0.7337267 0.4098195 
0.3573403 -0.06873946 -0.924526 
-0.2240263 -0.6058347 -0.7538419 
0.1865263 -0.1738279 -0.9645084 
-0.164173 0.5420729 -0.8224008 
-0.5925533 0.7538652 0.2639297 
0.3071584 0.1178985 0.9347131 
-0.3735604 -0.716434 0.5854225 
0.824864 0.2417848 -0.1267309 
-0.2794843 -0.7054888 0.6500298 
-0.7725182 -0.5458291 0.3210602 
0.1360775 0.9811122 -0.1350214 
0.003991235 0.4621731 -0.8809986 
-0.5527513 0.7561971 -0.3323952 
0.6590813 0.2926627 -0.6836772 
-0.7953782 0.03385723 -0.5943155 
-0.3373925 0.8399669 0.4178924 
0.6316735 -0.04094872 -0.763821 
0.8472049 -0.5250154 0.006051633 
-0.1636895 -0.7894365 0.5813836 
-0.8318625 0.4310642 0.3364001 
-0.5806226 -0.571916 -0.5758059 
-0.6339254 -0.553317 -0.5337891 
0.08946151 0.2440575 0.9571193 
-0.1736676 -0.9825978 -0.03063469 
0.07993875 0.1613406 0.9762356 
0.8529395 0.04247716 0.4592838 
0.4887609 0.429791 -0.7528702 
-0.4056782 0.7948419 -0.439776 
0.8101922 -0.2381853 -0.5272138 
0.7901668 0.2719125 -0.5391982 
0.2927926 -0.7978578 0.5166365 
-0.5916812 0.7848802 -0.1487774 
0.2548537 0.6895325 0.6730565 
0.01452024 0.9758987 -0.2097682 
-0.2067976 -0.5887804 0.7736241 
0.7368197 0.4920585 0.4482679 
0.46748 0.8781333 -0.00801665 
-0.8868175 0.2368026 -0.3847424 
0.5987931 0.1091076 0.7812448 
0.7768816 -0.2381043 0.5679733 
0.7212617 0.08981173 0.2412959 
-0.2072263 0.1790979 0.9587586 
0.1767832 -0.9544194 0.2179787 
-0.3012136 -0.6524856 -0.6874998 
0.5144209 -0.7169194 -0.4636718 
-0.7703412 0.1328793 0.609524 
0.2361687 0.8321255 0.4993023 
-0.7897277 -0.3268637 -0.5087088 
0.4045339 -0.05059005 0.906577 
-0.1444994 0.2898119 0.9378192 
-0.8864127 -0.3139407 0.3167185 
-0.849236 0.2354093 0.4559451 
0.3570746 0.7475555 -0.5514428 
-0.7282213 -0.5549833 0.393604 
0.8209023 0.1912958 -0.1941197 
0.5330031 -0.6784393 0.4966928 
0.6560156 0.4487906 -0.5945184 
-0.08400617 0.8476318 0.5170596 
0.6294148 0.5621324 -0.5289499 
-0.3303791 0.4175661 -0.8411922 
-0.08036484 0.9292203 -0.3552905 
0.4016145 -0.8444986 -0.3439277 
0.5460602 -0.6589433 0.5058821 
-0.09733146 0.8559468 0.5001907 
0.4772649 -0.3496647 -0.7987305 
0.1509498 0.4127399 -0.8929462 
0.007351724 -0.6610216 -0.7442042 
-0.4738337 0.1929763 -0.8537108 
-0.2309776 0.1990099 -0.9486789 
-0.7209763 0.5566836 -0.4045659 
-0.8293608 0.3790661 0.4011301 
0.577007 0.7873372 0.1868887 
-0.1399878 0.7941573 0.5825915 
0.896802 -0.1506809 -0.4020098 
0.7674977 0.06786826 -0.06760743 
-0.01123482 0.215551 -0.9734718 
-0.3819277 -0.856364 -0.3330917 
-0.8565276 -0.5005887 0.04396011 
-0.5344595 -0.5002686 0.6698813 
0.7189668 -0.177237 0.6637988 
-0.1821038 0.9048094 0.374755 
-0.1782881 0.9804975 0.08031099 
0.3329489 0.5521689 0.7623406 
-0.4370952 -0.3764588 0.8110298 
-0.08779799 -0.3467026 0.9261467 
-0.05746654 0.9842303 -0.1490769 
0.763493 0.5358477 0.3492077 
0.1763751 0.8712229 0.4469265 
0.1380726 -0.9683301 0.1907085 
0.5049152 -0.1855816 0.8379192 
-0.1824566 0.7205222 0.6630192 
0.7545704 0.2459441 0.5346138 
0.6191765 0.7760165 -0.04024566 
0.0006649496 -0.3738551 -0.9264915 
-0.3706248 -0.7069847 -0.5999284 
-0.7518586 -0.06479414 0.6425642 
0.8162348 -0.3974244 -0.4067364 
-0.8022761 0.5841787 -0.05802179 
0.04824399 -0.8188952 -0.5661408 
0.8634166 0.03967964 -0.0427486 
-0.1699321 -0.9639332 0.183223 
0.7969253 0.4889728 0.3395501 
0.9787258 -0.0607345 0.09610108 
-0.05238027 0.7367619 0.6658134 
-0.9699285 -0.1721992 -0.1331146 
0.674717 0.1125398 0.2768728 
-0.7029818 -0.2210463 0.6696388 
-0.8321995 0.5047221 -0.2003142 
0.7913905 0.07206678 0.3780562 
-0.4727424 0.5779747 -0.6588032 
0.63943 -0.7434407 -0.1644801 
-0.718872 -0.383927 -0.5723152 
-0.9023323 0.2568011 0.3236621 
-0.5257925 0.8097926 0.2449616 
-0.1365868 -0.2981433 0.9360714 
-0.3690397 -0.9189112 -0.1272635 
-0.5813144 0.04060388 -0.805192 
-0.4686573 -0.5512729 0.6887863 
-0.7190578 -0.6058127 0.3230371 
-0.112489 -0.9842141 0.114023 
0.2579612 -0.3858076 -0.8808136 
0.03534915 -0.930082 -0.3587559 
-0.07328108 0.9919186 0.03612194 
0.0738321 -0.875908 0.4651607 
-0.8728012 -0.4736844 0.02473991 
0.7565227 -0.4830373 0.4204489 
0.644099 -0.3864251 -0.6582422 
0.6218526 -0.5520697 0.5495387 
0.7779754 0.05787336 0.1551091 
-0.5827549 -0.3755847 0.713933 
0.896898 -0.2664645 -0.3315274 
-0.1024137 -0.7889822 0.5972549 
-0.3196815 0.7597562 -0.5546525 
0.9124479 -0.05330185 -0.3929864 
0.8001547 0.03252579 -0.5887024 
-0.7185792 -0.09374595 0.6786425 
0.672015 -0.4653682 -0.5611238 
-0.9790598 0.09303333 0.119567 
-0.4965135 0.6877177 0.523347 
-0.8457438 -0.08325262 -0.5115533 
-0.7048022 -0.6649827 -0.2192738 
-0.006546216 -0.6331 0.7671977 
-0.2032384 0.1638976 0.9615253 
0.335839 -0.768827 -0.5335453 
-0.7301004 -0.06494712 0.6690532 
-0.4906463 0.1630755 0.8480475 
-0.02300966 0.5069389 -0.8551975 
0.05496807 -0.5790787 -0.8067629 
0.8587698 0.03972962 0.03218447 
0.6555644 -0.7365724 -0.1399842 
-0.2132001 0.4500331 -0.8586907 
-0.8864412 -0.270078 -0.3622403 
0.7833023 -0.3726051 -0.4914382 
-0.5206982 -0.2210454 -0.8195418 
-0.6661283 0.3722587 -0.6425871 
-0.06254855 -0.9636927 -0.2425119 
-0.8473818 -0.5025257 0.1263086 
0.4673775 -0.8601122 -0.1802198 
-0.9344299 -0.2117943 -0.2646558 
0.6608645 -0.5535702 0.5007486 
0.4312859 0.15435 -0.8807459 
0.3104737 -0.9442867 -0.05012593 
0.1875421 0.7291037 -0.6506019 
0.5969716 -0.7526381 0.2588205 
-0.03532609 0.9577194 0.2676494 
0.9067758 -0.2520762 0.285459 
-0.7116002 -0.6444488 -0.2546359 
0.8701808 -0.2912713 0.3662528 
-0.918691 -0.3474123 0.1613062 
-0.06994832 -0.690477 0.7138655 
0.4058698 -0.9084733 0.05723857 
-0.05956997 0.06607233 0.9876244 
-0.8896149 -0.3829186 0.2342412 
0.8070591 0.322445 0.2578412 
-0.6459556 0.5842785 -0.4802819 
-0.05564679 -0.2627593 -0.9547769 
0.8555346 -0.5076022 0.01598113 
-0.3521094 0.6645544 0.6491193 
-0.03572491 -0.9912558 0.08108658 
0.04004052 -0.994629 0.03675558 
-0.06310035 -0.9862345 0.1239822 
0.09322788 0.7642568 0.6282875 
0.8097 -0.5297732 -0.2285813 
0.3501965 -0.8363562 -0.4160815 
-0.8065944 -0.2872056 -0.5025509 
0.3948136 0.9061363 0.1242353 
0.7336733 -0.614677 0.2656372 
0.3753853 -0.5758031 0.718869 
-0.06299622 0.9835358 0.1547324 
-0.5724931 -0.568153 -0.587317 
0.3361817 -0.3897438 0.8548977 
0.5230433 0.7627999 -0.3654653 
0.154331 0.6494191 -0.7377859 
-0.3764355 0.8017991 0.4528613 
0.1683978 -0.6351835 0.7456685 
-0.1593156 -0.8053094 0.5625963 
0.7531778 -0.1878736 0.6192151 
-0.730217 0.6634124 -0.1294426 
-0.7116911 -0.3356434 -0.6044927 
-0.4625091 -0.7132189 -0.5211797 
-0.01406057 0.3764607 -0.9243826 
-0.6844946 0.2916401 0.658572 
0.5686436 -0.3111764 0.7505646 
-0.9293169 0.1729703 -0.3063519 
-0.9687782 0.159562 -0.1574299 
-0.3705666 -0.8750039 -0.2922296 
-0.9008194 0.4139213 -0.06460007 
0.8392478 0.1965193 -0.4994566 
-0.9461825 0.1130943 -0.2709703 
0.8258371 0.3601698 -0.4198239 
0.09989399 -0.75635 0.6372654 
-0.1966907 -0.9568827 0.1899831 
0.2717428 0.8263873 -0.4886603 
0.5318081 0.5691799 0.6196231 
0.7779799 -0.5780647 -0.2225872 
-0.7660557 0.04893642 0.627715 
0.2211766 0.4223286 -0.8716713 
0.4062872 0.5209871 -0.7419478 
-0.1573976 -0.7278824 0.6612939 
0.587423 0.7695436 0.2268816 
-0.0006239754 -0.9157898 0.3977581 
-0.2905508 -0.166773 -0.9347446 
-0.08947431 -0.9304053 -0.3484646 
-0.7183095 -0.6167154 0.3055473 
-0.3764873 -0.5788792 -0.7154298 
0.7874283 -0.4310953 0.4210128 
0.3680178 -0.8045501 0.4554539 
-0.7491459 -0.6402124 -0.1305681 
-0.9923161 0.0771443 -0.0008646604 
-0.2272096 -0.5490749 -0.7993863 
-0.006512052 -0.4101527 0.9085555 
-0.3341608 -0.5355798 -0.7716972 
0.2524734 -0.1898546 -0.9439319 
0.05700617 0.5160201 -0.8469951 
-0.01890304 -0.2594 0.9594152 
-0.6773893 -0.4761372 0.5455453 
0.3699241 -0.5332267 0.7540019 
0.266825 0.8925488 -0.3491584 
0.06306414 0.9287675 -0.3603595 
0.6373321 0.407321 -0.6494157 
0.190719 0.8210055 0.5331802 
-0.3984023 0.8992206 0.1567616 
-0.650456 0.43656 0.6115477 
-0.5193394 -0.2473879 0.8112509 
0.6723982 -0.7188969 -0.1583282 
-0.08984789 -0.6575787 -0.7389044 
-0.5555647 -0.09901258 -0.8189185 
-0.05494882 0.07881039 -0.986825 
0.6399011 -0.634455 -0.4215055 
-0.4483369 -0.03982038 0.8843607 
-0.8362712 0.3271614 -0.4214413 
-0.05822847 -0.8890773 0.4420596 
-0.45959 0.7768633 -0.4159007 
-0.2438142 0.9234456 0.2936255 
-0.8408994 -0.4969219 -0.1859286 
-0.4394706 0.8736219 -0.1842086 
0.7033626 0.5715197 0.4118159 
-0.7066971 0.692255 -0.1279135 
-0.9572539 -0.02254028 0.2650484 
0.7098358 0.2093622 -0.09123471 
-0.1882406 -0.7293122 -0.6501257 
-0.8609921 -0.4760603 -0.1317459 
0.5129581 0.8327131 0.2056958 
0.4748928 0.524108 0.702362 
0.5391304 0.6303899 -0.5489421 
-0.6692678 0.7082676 -0.213049 
-0.4744596 0.2744328 -0.8259819 
-0.1377574 -0.9370111 -0.30935 
0.0667766 0.5917765 -0.795179 
-0.5846398 0.800885 0.08323853 
0.6886646 -0.2226438 -0.6863244 
0.164589 -0.2462879 -0.949044 
0.863441 -0.2503636 0.4028578 
-0.8452771 -0.4800777 0.2023628 
0.3840281 -0.7014182 0.59792 
0.8404045 -0.5369182 0.0104994 
0.5235378 0.0849926 -0.8391447 
-0.4552093 0.8668535 0.1770939 
-0.7239373 0.5078357 -0.4548204 
-0.55902 -0.549279 0.6159995 
0.1358165 -0.4278978 0.8863348 
0.592407 -0.7138094 -0.3672444 
-0.02578398 0.7939212 0.598784 
-0.5573732 0.6477399 0.5065199 
0.2752134 0.2275493 0.926257 
-0.8426235 0.01612691 -0.531348 
0.8497934 0.2373554 -0.4535674 
0.1592543 -0.4556865 -0.8691729 
0.3101656 0.8128188 0.4867795 
0.8171839 0.04517261 0.1748799 
0.602882 0.7511499 -0.2515911 
0.8836842 0.4476485 -0.05309132 
0.490899 0.8147315 0.2975379 
0.6673714 -0.4469166 0.5819664 
-0.02438924 -0.0204782 -0.9955798 
-0.9366266 -0.3391164 0.004754667 
0.066941 -0.5524412 -0.8265491 
-0.2326523 0.9301856 -0.2749774 
0.09541214 -0.9862327 0.1016518 
0.7226954 -0.2796602 0.6166551 
0.338521 0.9044359 0.2449 
0.1771035 -0.6223892 0.7539472 
-0.3274386 0.4157761 -0.8430792 
-0.9862832 0.0918412 0.04742023 
-0.3568584 -0.8970941 -0.2441013 
-0.0528915 0.6604011 0.7402278 
-0.1238016 0.01602535 -0.986227 
-0.9703304 -0.2150244 0.04475086 
-0.8931102 0.1392108 0.4113014 
0.5902561 0.7653064 -0.2352416 
-0.2995132 -0.8897125 -0.329163 
-0.9649411 -0.1471807 0.1976217 
0.7440305 0.1466811 0.4543638 
-0.001541192 -0.5286481 -0.8457081 
-0.8464416 0.0769954 -0.5115484 
0.3682284 0.4660381 -0.7954332 
-0.01994398 0.9979222 -0.006575737 
0.6592382 -0.373345 0.6499902 
0.1102346 0.5670223 0.8112136 
-0.2006084 -0.9571321 0.18392 
-0.5777771 0.7670397 -0.2576833 
0.6440625 0.1157755 0.2455402 
-0.4804264 0.5220915 0.6992075 
-0.09453835 -0.6300343 -0.7610475 
-0.3970001 -0.7747306 -0.4784466 
-0.4928977 0.4834324 -0.7155746 
-0.7395117 0.4063364 -0.5283753 
0.2772982 0.1117995 -0.944396 
0.6900634 -0.1615005 0.7001206 
0.03318154 -0.9879384 0.1172912 
0.6299104 -0.7270988 -0.2628937 
-0.4172771 0.3819133 -0.8197552 
0.4957427 0.8584448 0.09504512 
-0.1549979 -0.9508387 -0.2486962 
0.6003477 0.01594045 0.7918483 
0.8677147 -0.4501432 -0.1832523 
0.845794 -0.03733365 -0.5210085 
-0.6551536 -0.7084422 0.2588472 
0.8064294 0.5520405 0.1985156 
0.8331074 0.4877665 0.2275667 
-0.9231454 0.3668201 0.0563052 
0.4360932 0.03432058 0.8915163 
-0.404475 0.875874 -0.2407853 
-0.3512608 0.1347352 0.9196104 
-0.06224336 0.1070032 0.9833299 
-0.8074892 -0.3511378 0.4599352 
-0.9159569 -0.2665389 -0.2686206 
0.7135141 -0.3333528 -0.6033624 
-0.8041874 0.3190036 0.4866911 
0.6604149 -0.7199949 0.1932439 
0.3077766 -0.909589 0.267238 
0.2991425 -0.8562695 0.4100176 
-0.3013302 -0.9485142 -0.001459201 
0.3324516 -0.9330764 0.1120758 
-0.1855405 -0.1910496 0.9629083 
0.7129337 0.6845828 -0.1285219 
-0.3737006 0.6265696 0.672755 
-0.6659939 -0.5535433 0.4945253 
-0.2530627 0.8407336 -0.4720984 
-0.2329878 0.7071494 -0.6646363 
-0.1269093 -0.6153201 0.7699346 
0.4480508 -0.5878196 -0.6686672 
0.7981544 -0.478019 0.3492983 
-0.9515817 0.04925365 0.2747279 
-0.985936 -0.0375111 0.1052716 
-0.1164702 -0.3192517 0.9316497 
-0.6170541 0.7071851 -0.3381733 
0.4348563 -0.8849037 0.1284171 
-0.4389036 -0.6159483 -0.6464531 
-0.05640594 0.5212222 0.844273 
0.85472 0.0686823 0.43479 
-0.2634995 -0.5748808 0.7682868 
-0.9831969 0.128176 0.04242311 
-0.3879249 0.9174488 0.06894127 
0.07448994 0.7269795 -0.6755556 
-0.8064845 -0.5091339 -0.277 
-0.9135317 0.3887878 -0.0719275 
0.1254725 0.9174246 -0.3724754 
-0.4102153 -0.6727577 -0.6099749 
0.8520763 -0.4203408 0.2894148 
0.6662869 0.1246279 -0.1276276 
-0.02876643 -0.9348443 -0.3437051 
-0.4953072 -0.3693882 -0.7823354 
-0.6217233 0.4851474 -0.6058177 
0.8320178 0.1718076 -0.5187712 
-0.274373 -0.3512498 0.8874882 
0.08808359 -0.8868967 0.4431986 
0.6275862 -0.7427328 -0.2064807 
0.2739388 0.0419616 -0.9525684 
0.7052568 0.092517 0.2296787 
0.7367409 0.5671682 0.3569094 
0.238551 0.963975 -0.07241588 
-0.2509577 -0.9488969 0.1642826 
-0.4779032 -0.8719431 0.01976852 
-0.35939 -0.3231542 -0.8705618 
-0.7441573 -0.6417511 -0.1549015 
-0.94288 0.2055714 -0.243271 
0.3099491 -0.8230716 -0.4727977 
-0.2995645 0.94822 -0.02923636 
-0.001778475 0.9889809 0.1117019 
-0.6121674 -0.7641004 -0.168048 
-0.528926 -0.8357704 0.1334466 
0.8453583 -0.4399815 0.2755707 
0.9547578 -0.2462831 0.1065807 
0.5112126 -0.8395326 0.1677103 
-0.4881212 0.5317215 -0.6862649 
-0.4728779 0.5946988 0.641023 
-0.1032291 0.4178999 -0.8948885 
-0.4440536 0.864889 -0.210126 
-0.3775699 0.5932951 -0.7015011 
0.2418976 -0.419386 0.8670214 
0.9743639 -0.09146982 -0.1678523 
-0.8651966 0.3523809 -0.3466823 
-0.5209109 0.8499131 -0.001569364 
-0.7793994 0.4294584 -0.4395015 
-0.8778524 0.08390225 0.4513466 
-0.2799937 -0.7653924 0.5681176 
0.443208 0.05024158 -0.885944 
-0.9800223 0.04223082 -0.160595 
-0.2165 -0.2718653 0.9300872 
-0.2323073 0.4025091 -0.8793117 
0.7692944 -0.1657723 -0.6057181 
0.740804 0.2522561 0.1382855 
-0.9238509 -0.2212486 0.2896978 
-0.3627148 0.1104527 -0.9186229 
-0.2947977 -0.2887929 0.9009957 
-0.006731614 -0.9569992 0.2728393 
-0.1809389 -0.7576523 -0.616428 
-0.5742106 -0.3817685 -0.7185302 
-0.8650287 0.3477322 0.3520703 
0.7741178 0.207646 -0.589336 
-0.02006424 -0.4912658 0.8638644 
0.4887579 0.3803368 0.7820883 
-0.7528499 0.03827761 -0.6454532 
0.9420631 -0.01210535 0.2827266 
-0.7057991 0.606761 -0.3461989 
-0.953806 0.2202152 -0.1920236 
-0.836333 -0.5280728 -0.09984463 
0.9626485 -0.2539442 -0.002878474 
0.795391 -0.3117988 0.5035515 
-0.1835941 0.24165 -0.9485782 
-0.3193964 0.8643959 0.3738223 
-0.7491628 0.2151094 -0.6161916 
-0.3517402 0.6113461 0.6985911 
-0.08255929 -0.2243374 -0.9637813 
0.8877775 0.03054569 0.2169108 
-0.6168386 -0.7705749 0.1256038 
-0.003254505 -0.4931632 -0.8645062 
-0.5308878 -0.4814458 -0.6857643 
0.4320933 -0.3085151 -0.8369606 
-0.0519163 0.796526 -0.5930362 
-0.6635053 -0.3126246 -0.6722503 
-0.660929 0.3440129 -0.6621064 
-0.04318589 0.7997925 0.5899158 
0.7014709 -0.002988221 -0.7113535 
0.2597456 -0.947762 -0.155741 
-0.05309025 -0.9616606 0.2523478 
-0.645898 0.7386822 -0.1630365 
-0.7272567 0.4699251 0.4899901 
-0.555873 -0.04700158 0.8252606 
-0.09291726 -0.9401465 -0.3140237 
-0.04298968 -0.9886505 0.1067967 
-0.9351333 0.2424724 0.2304325 
-0.09983389 0.9819193 -0.1537879 
-0.4528371 0.7147639 -0.5266936 
-0.5736932 0.8156956 -0.01114857 
0.6390809 -0.3521578 -0.6768567 
0.7040713 0.5901859 -0.3781506 
-0.6752206 -0.4784101 0.5462819 
-0.480833 -0.5036575 0.7115597 
0.9447429 0.01524722 0.0175379 
-0.7723255 -0.2569269 -0.5680683 
-0.2167849 -0.9734661 -0.02470076 
-0.3885594 0.8514984 -0.3392909 
0.6112663 -0.2838229 -0.7263709 
0.3964002 0.8666029 0.2854083 
0.3185431 -0.1655334 -0.9263808 
-0.3785782 0.1315583 -0.9114517 
-0.582801 -0.1401289 0.791353 
-0.07363695 0.1570396 0.9772798 
-0.5867167 -0.2997973 0.7402796 
0.7158532 -0.6391536 0.2555161 
0.2038761 -0.7164894 -0.6616317 
-0.6103571 0.7807635 -0.07106426 
0.6372713 -0.002696293 -0.7640773 
0.2818054 -0.7374064 -0.6056296 
-0.2536357 -0.500389 0.8184335 
-0.2751426 -0.4066849 0.8639966 
-0.3402197 0.888514 -0.2895579 
0.3743531 0.796719 -0.4625402 
0.1164659 -0.8583152 0.4902133 
0.04634578 0.9358274 0.3387326 
0.240647 0.6616461 0.7011669 
-0.7717006 0.1292404 0.6084299 
-0.9193473 0.3684867 0.08973552 
-0.4981719 0.1796683 0.8421808 
0.403499 -0.1976707 0.890187 
-0.3262308 -0.4023748 -0.8508949 
0.6919855 -0.2082665 0.6889074 
-0.7267837 -0.5526011 0.3989816 
-0.8141719 -0.3978723 -0.4100896 
0.3214766 0.2961551 -0.8905804 
-0.6458771 -0.4853768 0.5761955 
-0.4665909 -0.1766562 -0.859396 
-0.466734 0.7835648 -0.394386 
0.5130073 0.7948696 0.3072693 
0.6812331 -0.5786839 -0.4408061 
0.5416232 -0.6967751 -0.4625833 
-0.1197597 -0.9672287 0.2065621 
0.01201743 0.9932991 0.06685045 
-0.02410872 -0.9969833 -0.01867008 
0.4729687 0.788462 0.3774282 
-0.01163302 0.9572771 0.2714411 
-0.8775064 0.2349357 0.4033579 
-0.3308565 -0.1846298 0.9206892 
-0.9244321 0.1536099 -0.3289919 
0.222317 -0.9066473 0.349381 
-0.4853474 0.8367689 -0.2439362 
-0.6754613 -0.01386178 0.7313187 
0.6805865 0.2528496 0.6808046 
0.8345276 0.04583685 0.3772922 
-0.5107847 0.4656359 -0.7131416 
-0.2174856 -0.8000723 -0.5515865 
0.09570722 0.6920766 -0.7100157 
-0.7362424 0.6701844 -0.01183779 
0.7396979 0.5914607 0.3092891 
0.6888725 0.2138327 0.2537317 
-0.7237883 0.4089773 -0.5453198 
-0.9736733 0.2001347 -0.05666838 
-0.4334259 0.7354382 -0.5101918 
0.588199 -0.7894965 0.1409724 
-0.5363948 0.3796026 0.7504109 
-0.3474643 0.0779889 0.9265743 
-0.4658528 0.3803137 0.7943391 
-0.9298221 0.05965471 0.3429485 
0.2266744 -0.05225888 -0.9658513 
0.4299864 0.3704916 0.816872 
0.1957654 0.1406523 0.9661732 
-0.5079951 -0.8047509 0.2912278 
-0.5211129 -0.3603806 0.7704595 
-0.9758071 -0.1033433 0.1422814 
-0.3106088 -0.5969075 0.7339483 
0.636391 -0.4649164 -0.6049105 
0.4176208 0.7308483 -0.5303639 
0.7254862 0.3594413 -0.5763597 
-0.867583 -0.1807779 -0.4504169 
-0.8244413 -0.1528462 -0.5369373 
-0.7828209 0.2089985 0.5780876 
0.00903951 0.780401 0.6169075 
-0.8850799 0.4273571 0.1514891 
-0.0470729 0.71645 0.6910862 
0.02522608 0.9252481 -0.3756883 
0.1891404 -0.8233937 -0.530633 
0.7550464 -0.3772021 0.5298048 
0.166634 0.9764353 0.1254922 
0.2662804 0.3200995 0.8997701 
-0.4881172 0.228233 -0.8344962 
-0.335297 0.3448891 -0.8710138 
-0.5522146 0.4835186 -0.6668351 
-0.9881768 -0.1073984 -0.01263826 
-0.5194212 0.01926609 0.8486497 
-0.3252822 -0.7026621 0.6281682 
-0.1854364 -0.1948588 0.9625434 
-0.2205522 -0.9079062 0.3476664 
0.436427 -0.8486006 0.2887298 
0.4469198 0.8542093 -0.2469465 
-0.3909155 0.06196013 0.9125924 
0.8980741 -0.219438 0.3343695 
0.3353179 -0.2370006 -0.905043 
-0.914151 0.2548424 0.2867379 
-0.32862 -0.5745531 0.7450233 
0.7762898 0.4179095 -0.4583532 
-0.5159909 0.4033453 0.7517346 
-0.4696406 0.837872 0.2689649 
0.5674963 -0.6284128 -0.5190675 
-0.09063687 -0.9067252 0.40386 
0.9325954 -0.3499152 -0.01243173 
0.8133821 0.5714545 0.05128393 
-0.6880213 0.3824264 -0.6110718 
0.2307803 0.9656336 0.0792863 
-0.7077001 -0.3956443 0.5761038 
0.6591378 -0.4390453 0.5985794 
-0.6201115 0.5026072 0.5931424 
0.9258672 -0.3549535 -0.06522749 
0.1479591 -0.2439328 -0.9513963 
0.3416517 0.925566 -0.1569809 
0.7689178 -0.06351817 -0.6219763 
-0.6137848 -0.7355309 -0.2713721 
0.5021377 -0.8505427 0.1270075 
0.3074938 -0.4461855 0.8322259 
0.4389097 -0.339586 0.8226817 
0.8570727 0.03255882 0.3451023 
-0.5070511 0.4226623 -0.7457775 
0.9398468 -0.04641607 -0.3142927 
-0.3821194 0.5897055 -0.7023935 
-0.68465 -0.636364 0.3344778 
-0.1474594 -0.7694314 -0.6116575 
0.1116053 -0.2263502 -0.9603104 
-0.386709 -0.2254604 -0.8896489 
0.1650953 0.4344454 -0.8799512 
-0.2044489 0.9164893 0.3381538 
0.4351591 0.6519298 0.611511 
-0.901492 0.3096066 -0.2715161 
0.6230133 0.495181 0.5957169 
-0.7901721 0.5126277 -0.3243714 
-0.5032164 -0.2304534 -0.8256656 
0.6033379 -0.275351 -0.7361859 
0.7303348 0.03163566 -0.673916 
-0.4224872 0.05081329 -0.8969557 
-0.7520815 0.5976384 0.2528899 
-0.4546647 0.7663555 0.4419881 
0.7218723 0.2650739 0.4476668 
-0.1470113 0.3433283 -0.921338 
0.5748063 -0.5590633 0.5950241 
0.2386606 -0.9618346 0.0962447 
0.6726853 -0.5984365 -0.4225752 
0.503038 0.8470105 0.146695 
-0.0290737 -0.5396866 -0.8370962 
0.5709101 0.2134641 0.7867703 
-0.7856799 -0.07282018 -0.6001131 
0.6638214 0.02582983 -0.7393551 
-0.3642281 -0.7265303 -0.5765274 
0.7452058 0.4344861 -0.497802 
-0.7174896 -0.1397634 -0.6728599 
-0.3359084 -0.4168202 0.8399296 
0.1591881 -0.7331489 0.6540772 
-0.1956004 -0.9338914 -0.289657 
0.6469522 0.1285232 0.3094165 
-0.9156059 0.26735 -0.268934 
-0.04240466 0.02678657 0.9931844 
0.07649455 0.3234611 0.9343097 
0.5468807 -0.6557646 -0.5089746 
-0.4545738 0.4434929 0.7628787 
-0.4274806 0.04183622 0.8952845 
-0.00194915 0.1994464 0.9792715 
-0.09249345 0.9517586 -0.274342 
-0.8879151 0.3704864 0.2529606 
-0.5382206 -0.1798318 -0.8207563 
0.8412396 0.3641064 0.3172907 
0.8934964 -0.06759907 -0.4254693 
0.4511052 0.4137277 -0.7826861 
-0.6983492 -0.3959495 -0.5872412 
-0.3879415 -0.9193922 0.03185631 
-0.4567961 -0.5217742 0.7144756 
-0.8957123 0.1208194 -0.410257 
-0.6444384 -0.722964 -0.2335073 
-0.8603876 -0.04992894 -0.4910854 
0.5506957 0.8329597 0.0211943 
-0.4450422 -0.7106223 -0.5395877 
0.2010678 0.9782534 -0.02404595 
-0.5409224 -0.4025402 0.7318277 
0.4824941 0.2222259 0.8395581 
0.7115509 0.4271671 0.5442646 
-0.7616323 -0.6368182 -0.03207135 
0.6448998 -0.6987857 0.3006955 
-0.5260152 -0.7533357 0.3799346 
-0.7819379 -0.3853349 -0.4845428 
0.5972025 0.7232145 0.3340785 
-0.6405299 -0.1294172 -0.745334 
0.2813463 -0.441349 0.8428462 
-0.6408004 -0.7561907 0.06597372 
0.8462216 0.335815 0.06167147 
-0.03774879 0.04009024 -0.9923326 
-0.7287227 -0.5603052 0.3837997 
0.7960132 0.451611 -0.3834234 
-0.3169912 -0.8948575 -0.2992442 
-0.4547714 0.5853136 -0.6657977 
0.675631 0.2533712 -0.6854401 
0.6545444 -0.1161324 0.7351197 
-0.3609461 0.6779978 0.6319464 
-0.7487906 -0.3579778 -0.5486587 
-0.1755565 -0.2817088 0.9372184 
0.079772 0.5992221 -0.7877887 
0.8594178 0.03964248 -0.08627401 
0.9670702 -0.1349441 -0.1946691 
0.7879689 0.2996342 -0.5286845 
-0.5621127 0.6217648 -0.5341848 
0.6635206 -0.7395002 -0.04178194 
0.490077 0.08711832 0.8567934 
-0.8244997 0.3654202 -0.418963 
0.9026251 -0.3915868 0.1674735 
0.1093553 -0.9884979 -0.03986507 
0.3831925 0.9213724 0.04246409 
0.5962014 -0.7944757 0.04514339 
0.5244942 0.3428503 0.7745002 
0.5066463 -0.8557667 -0.03520966 
-0.4557244 0.01016811 0.8837075 
0.3129643 -0.7569842 0.5620553 
0.8736323 0.2919356 -0.1056912 
-0.04888177 -0.4576162 -0.8790122 
-0.9607254 0.2076156 0.165086 
-0.4158756 -0.2962018 0.8498439 
-0.3999795 -0.8874272 0.2035666 
-0.4736593 -0.8610099 -0.1537526 
0.5666696 -0.8078804 -0.1351482 
0.5348315 -0.08797273 0.8327768 
0.2198984 -0.9598124 -0.1464236 
-0.299787 0.3058127 -0.8941131 
-0.9514719 -0.2655625 -0.08056825 
-0.9725173 0.01108368 -0.2186 
-0.5250394 -0.01118258 0.8465452 
0.7031763 0.1205012 -0.1398267 
-0.1346277 -0.3942463 0.9044389 
-0.9269364 0.3603565 0.03772242 
-0.9658743 0.1637914 -0.182684 
-0.223162 -0.3292388 0.9099667 
0.6897615 0.6422967 -0.3146366 
0.2523246 0.8594966 -0.432883 
-0.6969364 -0.7098573 -0.06923757 
-0.4357994 -0.3911171 0.8045048 
-0.4236263 -0.6794572 0.5918916 
-0.3182838 -0.4841834 -0.8078303 
-0.05717593 0.1831547 0.9763291 
0.3624456 -0.5590229 0.7413253 
0.6712586 0.4996699 0.5329317 
-0.2495538 -0.9289812 0.2662188 
-0.4162887 -0.8673402 -0.2523889 
0.524875 0.5648133 -0.6299264 
-0.8520206 -0.3893522 -0.3463837 
-0.9059645 0.2714758 0.2964272 
0.5286676 0.2331428 -0.8111411 
-0.9387341 -0.2330504 0.2283609 
0.4103584 -0.1676636 0.8904521 
0.7845015 0.06066729 -0.1404425 
-0.4723595 -0.3251587 -0.809741 
-0.360703 -0.4242022 0.824689 
-0.7333307 0.2420805 -0.6226484 
0.9298121 -0.03441052 0.3206223 
0.02770927 0.1804302 0.9794997 
0.03992241 -0.8329466 -0.5488756 
-0.9268944 0.2721585 0.2267203 
0.3769694 -0.8541675 -0.3455811 
0.2034773 -0.2192047 0.9506503 
0.1770181 0.568223 -0.8002026 
0.710398 0.08149355 0.07380636 
0.1818366 -0.8611234 0.4649196 
-0.06094665 -0.989579 -0.08619645 
0.0008403684 0.6417451 -0.7606654 
-0.9897752 0.06071983 0.04308551 
-0.6870197 0.0271512 0.720148 
0.02756924 0.9882126 0.116098 
-0.1943955 0.1013249 0.970617 
0.7276928 0.07851876 -0.1146315 
0.6926752 0.715487 0.04285298 
-0.4797657 -0.5288186 -0.6951199 
0.1249484 -0.04314042 -0.9834443 
-0.8262209 -0.534583 0.1653044 
-0.4785957 0.564965 -0.6677449 
0.6286688 0.6453716 -0.4226955 
0.02634536 0.3860435 0.919488 
-0.1883565 0.969647 0.1341286 
-0.2618293 0.5335228 -0.7975293 
0.07357274 -0.0302944 -0.9897693 
-0.7579788 -0.2290055 0.598837 
-0.168749 -0.1650624 0.9671218 
-0.2981236 0.9196095 -0.2495905 
-0.1681771 0.9474345 0.2543165 
0.3348937 0.04763569 0.9334966 
0.2987314 0.8403726 0.4484513 
-0.217768 0.4503127 -0.8571497 
-0.1587066 -0.8928608 -0.4101856 
-0.09646253 -0.5494168 0.8252574 
-0.577079 -0.4928275 -0.6400238 
-0.268096 -0.07721073 -0.9507297 
-0.8511936 -0.4733798 -0.1951329 
0.3572448 -0.9127784 -0.183389 
0.4403277 -0.765183 -0.457867 
-0.8195897 -0.5630972 -0.05789461 
-0.4353453 -0.1271198 0.8816023 
0.6252888 -0.4322038 0.641943 
0.316835 0.7995614 0.5014433 
0.2297148 0.9172729 -0.3200642 
0.8362554 -0.5390279 -0.04117901 
0.4623659 0.1270602 0.8671663 
0.1553431 -0.9151989 -0.367125 
-0.9261283 0.02052949 0.3683363 
-0.7065756 0.6226579 -0.3172036 
-0.6244779 0.5631253 -0.5336852 
-0.1946147 -0.3164684 0.9226552 
-0.1461177 0.6120339 -0.7707396 
-0.9411705 -0.05580319 -0.3068362 
-0.1458319 0.7567605 0.6282082 
-0.9199961 0.327308 -0.1921074 
0.246305 -0.9646696 -0.0194093 
-0.5331376 0.7395267 0.3976516 
-0.3025815 0.5596839 -0.7694004 
-0.986341 -0.05542709 0.08324502 
-0.01370119 -0.05832491 -0.9929051 
0.8461574 -0.5243226 0.02044575 
0.9404755 -0.02301246 -0.3201282 
-0.8189992 -0.5185069 -0.2185695 
0.5200566 -0.8489095 -0.02930743 
0.06220409 -0.6619924 -0.7380048 
-0.8903755 0.3999829 0.2004644 
-0.1845575 0.1642636 0.9656433 
0.1345095 -0.6716468 0.7229602 
-0.9467359 -0.2157531 0.2199711 
-0.4865941 0.7430471 0.4476359 
-0.9953098 0.01981141 -0.02779783 
-0.04732053 -0.8440435 -0.527386 
-0.7362775 0.1818789 0.6434608 
-0.8075171 -0.5842226 -0.004443229 
-0.6305627 0.7524616 -0.156028 
0.08634298 0.05439868 0.9861376 
-0.4504126 0.09706022 0.8768897 
0.2055618 -0.5961003 0.7677512 
0.08753069 -0.5507851 -0.8254063 
-0.3998497 -0.5074613 -0.7535457 
0.4875748 -0.8378068 0.2356712 
-0.8086671 -0.5814682 0.01571771 
0.2923006 -0.8882331 0.3386455 
0.1221893 -0.2246795 -0.9597749 
-0.7888547 -0.4879227 0.3558396 
-0.7208762 -0.4635903 -0.5030754 
0.8364904 -0.383961 -0.3840331 
0.5553414 0.75481 0.3311183 
0.5238401 -0.8459177 0.04772475 
0.5549945 0.5639373 0.6061336 
-0.7431544 -0.6085908 0.2515035 
-0.3569568 0.2195264 -0.9039915 
-0.7514356 0.6465975 -0.05411406 
-0.4661428 0.8362751 0.2818164 
0.1517481 0.7668723 -0.6135997 
0.3378062 0.04825478 0.9325496 
-0.6798909 0.7230211 -0.07944474 
0.6538376 -0.5591404 -0.5030428 
0.5941579 -0.3979692 0.6910918 
0.8202341 -0.5186983 0.2141485 
0.6085323 0.5324667 0.5821028 
0.4753243 -0.8578581 -0.1684803 
0.6952044 0.6153622 0.3511198 
0.03698863 0.8725514 0.4750694 
-0.3165065 -0.9313055 -0.1640762 
0.5808785 0.46256 -0.6577349 
-0.8415034 -0.3269938 -0.4117602 
0.2555467 -0.2843941 0.91429 
-0.4856965 -0.283773 -0.8167787 
0.7138712 0.630469 -0.2864837 
-0.317328 -0.1672598 -0.9265721 
-0.7288666 -0.03012645 -0.6759362 
-0.7311747 -0.2353832 0.6284629 
-0.8768882 -0.2638724 -0.3859834 
-0.3508953 0.5244836 -0.7694452 
-0.744729 -0.6580067 -0.02714156 
0.2797343 -0.294254 0.9038423 
-0.2744254 0.9061824 0.310083 
-0.5993496 0.6197388 0.4914204 
0.8552458 -0.1737018 -0.4749696 
0.3083153 0.6995196 0.6401473 
-0.2604381 -0.4799881 -0.8277096 
-0.6084564 -0.4520729 0.6423185 
0.2291389 0.5756661 -0.7780395 
-0.2221799 -0.2093523 0.9480851 
-0.3470429 0.5273905 -0.769751 
-0.6652665 -0.6706548 -0.3113301 
-0.9853816 -0.1062104 0.04220533 
-0.6706252 -0.5183041 -0.5184286 
-0.5363802 0.7249717 0.4215225 
-0.3035435 -0.8492011 -0.4234299 
-0.1990361 -0.3895191 -0.8966252 
0.151677 0.9000326 0.3983653 
0.865932 0.4637788 0.1449548 
0.565405 -0.3524916 0.7370787 
0.6462977 0.1574485 0.2609068 
0.6325709 -0.525605 -0.5586783 
-0.7002877 -0.6469393 -0.2849206 
0.5671742 -0.8197076 0.02770091 
0.2945961 0.1007137 0.940284 
0.1985587 0.4792274 0.8469039 
-0.3290199 0.1289546 0.9269491 
0.5930556 0.3541121 0.7137125 
0.2077054 0.2352125 -0.9443185 
-0.5718521 -0.816124 -0.02454107 
0.005363967 -0.6598498 -0.7453616 
0.5573934 -0.7255093 0.3948901 
-0.8156974 0.1131599 0.5573038 
0.9052841 -0.397917 -0.1061327 
0.596409 -0.7667272 0.2090233 
-0.4903772 0.5216156 -0.6913678 
0.9236252 -0.3485199 0.1077993 
-0.453389 0.8770279 0.1178367 
0.7994625 -0.1494783 0.5649925 
0.1541796 0.9455464 -0.2688217 
0.9900399 0.0005162208 -0.07832342 
-0.804163 -0.3949691 -0.432091 
0.1564011 -0.9452174 0.2688584 
0.7773409 0.06570422 -0.145376 
-0.1745472 0.9436076 -0.2651466 
0.4659373 -0.2858069 -0.8266438 
0.5815143 -0.5185632 0.6186508 
0.618187 -0.114538 0.7654927 
-0.8780826 -0.2995762 -0.3591179 
-0.5838207 0.4007092 -0.6978811 
0.8712187 -0.169694 0.4191066 
-0.21692 0.06050961 0.967965 
0.151828 -0.8487404 0.4981153 
0.2140499 0.2282324 -0.9445961 
-0.9470762 0.2616451 0.1372619 
-0.9256124 0.3444289 0.1002198 
0.7580186 -0.1300767 0.6212289 
-0.9642421 0.08186601 0.2219798 
-0.4788743 -0.1226518 -0.8588324 
-0.0716427 -0.9886305 -0.08981696 
-0.5617196 -0.01531002 0.824481 
0.3503689 -0.1538995 0.917918 
-0.481059 -0.5437905 0.6837573 
-0.714504 -0.6455796 0.2418824 
-0.1453122 -0.8379153 -0.5211532 
-0.4551175 0.801783 0.3737173 
-0.01297054 -0.5866249 0.8047057 
0.09218044 0.3113185 0.9364481 
0.8421155 0.1468584 -0.5050404 
-0.3280306 -0.6721402 -0.6549641 
0.03433767 0.9741189 -0.2136842 
0.9052907 -0.4074727 -0.05420712 
0.1939628 -0.8114791 -0.5442682 
-0.1331836 0.4992326 -0.848465 
-0.2768961 0.3420661 0.88962 
-0.5214943 0.08316106 0.8404405 
0.9586468 -0.2265656 -0.1278339 
0.1052213 0.611139 0.7755021 
0.08487426 0.7995965 -0.5860487 
0.7783898 0.07834814 0.2982886 
0.2841426 -0.9404635 0.1608917 
0.3794618 0.7314554 0.5607272 
-0.2298356 -0.8664194 -0.4302872 
0.705038 -0.01944132 -0.7063398 
-0.567732 0.4040603 0.7087794 
-0.0363443 -0.7656904 -0.6321432 
0.5654953 -0.7015187 0.4273881 
-0.07482913 0.9325464 0.3455667 
0.358685 0.8269166 0.4280264 
-0.7374153 -0.4337451 -0.5079475 
0.1523326 0.8724462 0.4518392 
-0.4545269 -0.06377337 -0.87839 
-0.7003117 0.08417393 0.7020094 
0.8239971 0.3885328 0.4018055 
0.02142908 0.4078832 -0.9082996 
0.4269417 0.8054019 0.4011315 
-0.3239678 -0.2519698 -0.9037636 
0.1423055 0.8791813 0.4417768 
-0.9882748 -0.02966511 0.08937237 
-0.3075522 0.5818335 -0.7489884 
0.3466849 -0.4614636 -0.8097075 
-0.03764687 0.740841 -0.6622941 
0.01335553 -0.09861857 -0.988971 
0.9238477 -0.1210491 -0.3418702 
0.8345736 0.4329507 -0.3240064 
-0.8674996 -0.4845977 0.01934106 
0.216227 -0.7997332 0.5523987 
-0.1165058 0.5851974 0.7956802 
-0.2073812 0.8184343 -0.5313832 
-0.1092664 0.9762703 0.1785359 
-0.9725461 -0.1355758 0.1431595 
-0.2500913 -0.9537745 0.1319581 
-0.2817928 -0.2461717 0.9183864 
0.6159114 0.04142086 0.7755285 
0.7362105 -0.6397197 -0.1868137 
0.7941977 -0.1981562 -0.5693844 
-0.5555001 -0.7069556 0.4325678 
0.5099709 -0.5242677 0.6734643 
-0.01283327 0.1639012 -0.9825928 
-0.8188743 -0.4211114 0.3750686 
0.8746129 0.2952165 -0.1103483 
-0.2655604 0.5966513 -0.7490801 
-0.5282275 -0.8099358 -0.2400374 
0.1197637 -0.6816123 0.716234 
-0.3215391 0.7373118 -0.5845206 
-0.6444298 -0.6938513 -0.3101238 
0.2047221 0.9596716 0.1657741 
0.1006162 0.5027752 -0.8497792 
0.2960017 0.39921 0.8618242 
-0.8261706 0.3630191 0.4173752 
-0.3974935 0.07180195 -0.9079825 
0.6438387 0.7571448 -0.02332192 
0.8677622 0.2790808 -0.1084591 
-0.6267712 0.6136687 -0.4658213 
-0.4915835 0.5315651 0.6835321 
0.1738748 -0.9744954 0.1267018 
-0.3969423 0.9131159 -0.05969144 
0.6486979 -0.7534314 -0.01992571 
0.6044899 0.7416362 0.2730564 
-0.1451513 -0.3818527 0.909835 
0.7305784 -0.667529 -0.09146951 
0.6465611 0.5202663 -0.5461073 
0.2537132 -0.8915013 0.3624421 
0.199469 0.7674276 0.5984197 
-0.9618995 0.2490474 -0.02556247 
-0.6006345 0.1625867 -0.7738699 
0.1227945 -0.5273998 0.8344325 
-0.2403597 0.2372272 0.9337766 
0.7665758 0.2815171 0.03293318 
-0.9073631 0.06942382 0.3991468 
0.6793184 -0.6134623 -0.3841322 
-0.237887 0.1547929 0.9519474 
0.1133149 0.9869204 -0.06835745 
-0.4531768 0.5295148 -0.7117398 
-0.8642579 0.3441494 0.3582029 
-0.4038562 -0.2057633 -0.887226 
-0.7879757 -0.2738132 -0.5409628 
-0.6956576 0.00241495 0.7161953 
-0.6918197 0.6831126 0.2110632 
0.3680461 0.7747636 0.5021576 
0.5846519 0.1169634 0.1065769 
-0.3170735 0.592208 0.734844 
-0.548115 -0.3681179 -0.7452775 
0.2725399 -0.293497 -0.9062636 
-0.9928478 -0.0249498 0.04765756 
0.536438 -0.7416931 0.3894891 
-0.8270072 -0.3368923 -0.4325415 
-0.6016987 -0.3630342 -0.7032874 
-0.4735816 -0.7588069 0.4333667 
0.6814052 -0.7201189 -0.09997559 
0.8285438 0.5153274 -0.1928883 
0.2518409 -0.1190295 -0.9513782 
-0.2438117 0.1762623 0.947951 
-0.1085614 0.9891066 0.02071144 
-0.8312004 0.4490567 -0.3056119 
0.7508041 -0.6514761 0.01987591 
-0.07494486 -0.7397921 0.6598985 
0.2296517 0.3190773 0.9112037 
0.1460273 -0.939453 -0.2958465 
0.3923894 0.9073117 -0.1246894 
0.8939764 0.3486014 -0.1508122 
0.6175391 0.7634557 0.1530341 
-0.7231814 0.6337287 -0.2466193 
-0.6684738 0.6984546 -0.2448578 
-0.6874849 0.4999187 0.513302 
0.2269592 -0.2113909 -0.945993 
0.9122521 -0.1312858 -0.3766808 
-0.2657155 -0.5077046 -0.8107019 
-0.3793494 0.2122663 -0.898099 
0.0712304 0.003898068 0.9925998 
0.2185888 0.6745594 0.6968369 
0.3158953 0.6210255 -0.7087876 
0.6789321 0.1737999 0.3839841 
0.6937555 -0.3878744 0.59847 
0.288621 -0.6925546 -0.6571242 
-0.001028449 -0.8452278 0.5297299 
-0.614744 0.5164051 -0.5881124 
0.5827749 0.4080045 0.6937188 
-0.5341017 0.3704307 -0.755874 
-0.9858885 -0.06245011 0.08081615 
-0.7398243 -0.6529304 0.1192375 
0.4887481 -0.745907 0.4395448 
-0.6848439 0.002721294 -0.725031 
-0.7585936 0.6147047 0.1834069 
-0.7160432 0.2801588 0.625594 
-0.6243124 -0.7691405 0.0731696 
0.6837465 -0.5667598 0.4567631 
0.4448084 -0.5982301 -0.6603291 
-0.1212561 0.3527224 -0.9210251 
0.009702599 -0.4122525 -0.9071183 
0.759972 0.5769176 -0.2851792 
-0.4840339 0.6486064 -0.5749108 
-0.7118535 -0.2774702 -0.6319774 
0.053971 -0.6251287 0.7690685 
0.8809105 -0.4452852 0.09652707 
0.9741479 -0.1683851 0.07802846 
0.8423201 0.4854058 -0.2022291 
0.2819403 -0.4207171 0.8541346 
-0.5935908 0.7908846 0.1160785 
-0.3835964 0.5744021 -0.7157761 
-0.7310047 -0.5066707 -0.4429129 
0.8817236 0.3642437 -0.279577 
-0.6198996 -0.7571474 0.1716047 
-0.4969757 0.7702985 -0.3828947 
0.913196 0.03971558 -0.3943497 
-0.1705387 0.3777744 0.9085714 
-0.2121818 -0.1994325 0.9542474 
0.3494294 0.4639072 0.8067667 
0.03938866 0.8714964 -0.4768065 
-0.8329534 0.3386469 0.4202936 
-0.06057404 0.01526164 -0.9925297 
0.3338086 0.4427278 0.8261654 
0.7809799 0.510318 -0.3453024 
0.1818892 0.4353095 -0.8763732 
0.8758605 -0.2434192 -0.4010046 
-0.3635187 0.6337865 -0.6715138 
-0.667538 0.3374909 -0.6574141 
0.7978587 -0.5817497 0.1231147 
-0.2021547 -0.3604327 0.9064985 
0.3678157 0.8943632 0.236346 
-0.3150272 -0.3147133 -0.8866819 
-0.3320709 0.7359697 0.5807375 
0.1020534 0.8989956 0.4154356 
0.7298604 -0.673494 0.04905966 
-0.5621636 0.4776043 0.662741 
-0.7797632 0.1012222 0.6029342 
0.3505167 -0.5815201 -0.7268671 
-0.7187777 -0.4472271 0.5193543 
0.5602568 -0.602255 -0.5613301 
0.5686603 0.3068273 0.7520642 
0.845717 0.525044 0.01993991 
0.8279083 -0.5418868 -0.1104155 
-0.2377384 -0.1383333 -0.9536779 
0.2932589 -0.9509927 0.0004559965 
0.2112286 -0.8892529 0.3920295 
0.3467948 -0.6891394 0.6291928 
0.5590885 -0.5996461 -0.5650455 
0.6820346 0.717283 -0.1286683 
-0.1023058 0.7529014 -0.64123 
0.5284081 0.53953 0.6478305 
-0.2362989 0.7681612 -0.5863174 
0.119341 -0.5003334 0.8492402 
0.768144 -0.4113004 0.4783117 
0.2690072 0.952144 -0.1057273 
-0.3438172 -0.5980675 -0.7151226 
0.611218 -0.6797849 0.3966306 
-0.2774819 -0.8628049 0.412053 
0.837334 -0.1635742 -0.5105861 
0.8813382 0.1458216 -0.3235964 
0.9650584 -0.2207506 0.08063639 
-0.3625279 0.397296 -0.8399418 
-0.3988697 -0.760123 -0.4998275 
-0.4808182 -0.4437051 -0.7487227 
0.8523579 -0.4797019 0.1797098 
-0.9507508 0.1884179 -0.2304772 
0.7073698 -0.4353718 -0.5431956 
0.8920453 -0.1178595 -0.4177336 
-0.3461016 0.8545198 -0.3756925 
-0.2511094 0.3405214 -0.8979297 
0.972456 -0.1335336 0.1090975 
-0.5266765 0.2894305 -0.7929375 
-0.6919202 0.7110311 0.1056463 
0.4522111 0.5181786 -0.7190949 
-0.02798611 -0.9275838 -0.3677167 
0.8622772 0.04020884 -0.03623154 
-0.3612743 -0.05023495 -0.9252278 
0.1228231 -0.5635709 -0.8128064 
0.0996306 -0.8111993 -0.5704573 
0.9135036 -0.1951002 -0.3510021 
0.3202018 0.819271 -0.4716032 
0.7665008 0.2803558 0.09795775 
-0.6304464 -0.3311985 0.6921278 
-0.8672076 0.3839809 -0.3061613 
-0.8416079 -0.1568904 0.50398 
0.4499307 -0.2673761 0.8415086 
0.5798033 -0.3651114 -0.7204459 
0.4492339 0.5922323 0.6630337 
-0.229509 0.4894831 0.8318141 
0.5897527 0.7940605 0.1157565 
-0.4396755 -0.877795 -0.1581238 
0.3633057 0.5434754 0.751358 
0.8228524 -0.01883317 0.5402508 
0.2022101 -0.5052088 0.831354 
-0.05229957 0.7641155 -0.6324908 
-0.9087033 0.3613787 0.1939029 
-0.2501126 -0.8398961 -0.4754434 
-0.109421 -0.972352 0.1930294 
-0.9356228 -0.248508 -0.2225422 
-0.7034729 -0.6492914 0.2678034 
0.3191935 -0.3505545 -0.8741114 
0.7511121 -0.1516303 -0.6300585 
-0.003828124 0.6966281 0.7153297 
-0.3282509 0.9244271 -0.1899751 
0.04277102 0.4571458 0.8798653 
0.6567016 0.3536188 0.6616683 
-0.6085302 0.1861438 0.7644036 
-0.2035958 0.8005018 0.5552567 
0.5946308 -0.7235121 -0.3381245 
-0.6302904 0.02808336 -0.7665861 
-0.6049693 0.5697501 -0.5489277 
-0.1761916 -0.9638008 -0.1786485 
0.1445366 0.3745716 -0.9121041 
0.02713044 0.95248 0.2857284 
-0.1062952 0.8086385 0.5729213 
0.7674927 0.3306835 0.4335473 
-0.5087595 0.82687 0.2328976 
-0.06422272 -0.2983591 -0.9431332 
-0.2541453 0.3491681 -0.894281 
-0.4587868 0.7985554 0.3754159 
-0.05212515 0.9345633 -0.3423308 
-0.3231121 -0.2074697 0.9180617 
0.2488201 0.5782794 -0.769839 
0.6460987 0.7088225 0.2796221 
0.2603877 -0.2847214 0.9127182 
0.5736877 0.4257236 0.6889834 
0.7170815 0.3358855 0.5769248 
-0.1299917 -0.9261454 0.3507783 
-0.8643624 -0.1976143 -0.4518496 
-0.07226436 -0.2404441 0.9599096 
-0.4188813 -0.1974191 -0.8820512 
0.001899121 0.9949586 0.05099815 
-0.1907965 0.7687482 -0.5993769 
-0.1369838 0.5195886 0.8372101 
0.1582577 0.7061384 0.6881863 
0.7546891 0.3094409 -0.5645696 
-0.4163825 -0.9016442 0.08021996 
-0.9614739 0.09299958 0.227346 
0.2842312 0.8340501 0.4695493 
0.6432295 0.662991 -0.3658377 
0.234741 0.934626 -0.2544181 
0.08719376 0.5326511 -0.8351324 
0.6841926 0.1920667 0.3752584 
-0.6304387 0.765348 0.05788621 
-0.158255 0.3148554 0.9288675 
-0.2861626 -0.7099255 -0.641086 
-0.5994658 0.1393477 0.777776 
-0.005072771 0.8929578 -0.4400347 
-0.3544435 0.4739501 0.7980285 
0.748457 -0.6146682 0.2169264 
-0.6399265 0.6403185 0.411298 
-0.6684813 -0.5211383 0.518666 
0.7668476 0.07999206 0.2645161 
-0.2047435 -0.9241194 0.3215029 
0.1234265 0.3892899 0.9081912 
-0.5232242 -0.7222346 0.4427848 
-0.3836506 0.5256479 0.751235 
-0.6624852 0.002880243 -0.7433601 
-0.9519172 -0.14934 0.2398271 
0.7507904 0.2515442 0.4992036 
0.1266021 0.9491971 -0.2699813 
-0.6294736 0.1537516 0.7513229 
0.4307876 -0.8885377 -0.118522 
-0.9859478 0.07675515 0.06591041 
0.3053781 -0.2110904 -0.9222993 
-0.7652788 0.5896667 0.2318132 
0.9053469 0.1722345 -0.3812732 
-0.9021459 0.3605274 -0.2164046 
0.7045183 -0.5588888 0.4315388 
-0.369615 -0.8025202 0.4573279 
0.3607033 -0.3867437 -0.8472819 
0.1081274 0.8117946 -0.5688951 
0.988749 -0.0141476 0.06031682 
-0.6093948 0.3409276 0.7056047 
-0.07734419 0.5908756 0.7948771 
0.7501771 -0.5432353 0.3655489 
-0.7163227 0.683 0.1073012 
-0.9070409 -0.07946398 0.3976623 
0.89521 -0.4211463 -0.08235112 
0.4784122 0.5887684 0.6427478 
-0.4610096 -0.8516991 -0.2304997 
-0.7386824 -0.2522513 -0.6112872 
-0.5502367 -0.8060825 -0.1968304 
-0.4590334 0.6760508 0.5664327 
-0.8261642 -0.07961551 0.5489399 
0.6777472 0.1859968 0.2895546 
-0.7455937 -0.4587138 -0.4697348 
-0.07969758 -0.5710107 -0.8109484 
-0.924955 -0.3578228 0.06564344 
-0.1703466 0.9747962 0.1294447 
0.4452304 -0.2977275 -0.8336313 
-0.244061 -0.7174088 0.6482764 
-0.3203731 -0.3474318 0.8747387 
-0.7579336 0.21517 0.6054762 
-0.3853568 -0.9149745 0.09872343 
0.2940085 0.420205 0.8507583 
-0.3536596 0.3426593 0.8661469 
0.906723 0.08256003 -0.3974845 
-0.3159065 -0.4578114 -0.8232109 
0.1121652 0.7799505 0.6072995 
-0.7290474 -0.6351615 -0.2232508 
-0.4111914 -0.801929 -0.4241338 
0.6447765 -0.7159998 0.2614847 
0.6048071 -0.7079585 -0.3590966 
0.2904716 0.8192276 -0.488494 
-0.370811 0.7042674 0.6023461 
-0.4954209 -0.06598321 -0.8562859 
-0.5707079 0.6493796 0.4881607 
-0.09237252 0.7281436 0.6723758 
0.420331 -0.1601202 -0.88596 
-0.2108674 0.6357989 -0.7322599 
-0.2187505 0.9093996 -0.3454753 
0.2811285 0.9545472 -0.004642558 
0.2562099 0.0523084 0.9568865 
-0.6306294 0.7216329 -0.275609 
0.5868706 -0.7470084 0.2922004 
-0.939624 -0.1174305 0.2911264 
0.2830691 0.4366838 -0.8449168 
-0.3054259 0.1863843 0.9282238 
0.404958 -0.7860252 -0.4541987 
0.771036 -0.06315535 0.6107204 
-0.7124923 -0.6512354 -0.2326011 
0.2876654 -0.01540741 0.9511243 
0.3613581 0.9303221 0.0009036462 
0.8458258 0.2277903 -0.2188089 
-0.01560649 0.8708251 -0.4804048 
0.005053273 -0.2495399 0.9637703 
0.09493447 -0.7494916 0.6461109 
-0.6877733 -0.1449713 -0.7045903 
0.3541599 0.8831386 0.2883481 
0.2500222 -0.8378067 -0.4799038 
0.4070017 -0.2536953 -0.8691373 
-0.8809248 -0.4553033 -0.04201219 
-0.9442004 -0.305275 0.03208574 
0.1665433 -0.875573 0.4414453 
-0.9075058 -0.2254664 0.3391943 
0.8402747 -0.1954813 0.4827653 
0.5185543 0.4689258 -0.7045027 
-0.1764975 0.6355923 -0.7428625 
0.8377258 0.3778813 0.3755732 
0.1301066 0.9824567 0.1208822 
-0.7704774 -0.04823162 -0.6224363 
-0.1774724 0.9810874 0.07325511 
0.201791 0.282205 -0.9312878 
-0.5635526 0.3560901 -0.7373047 
-0.2612937 -0.1991096 0.9394513 
0.6188767 0.1100242 0.1805449 
0.7246591 0.2346419 -0.06648479 
-0.9078076 0.1578681 -0.3799248 
-0.6465514 -0.7212006 -0.2339084 
0.2246408 -0.8599699 -0.4466811 
0.06461797 0.9853222 -0.1336237 
0.7590103 -0.572908 0.2996308 
0.6120328 0.7632878 0.1718874 
-0.9751313 -0.1427454 0.1097426 
0.7423745 0.2263973 -0.6190923 
-0.6272335 0.2478186 -0.7273269 
-0.4144565 -0.4341777 0.7899407 
-0.8101232 -0.5678492 0.1144162 
-0.2085079 -0.9329023 -0.2832618 
0.4408665 0.3468051 0.8191645 
0.8675438 0.1707133 -0.3014944 
-0.6820685 0.2537919 -0.6795381 
-0.9164495 -0.3890359 0.04095634 
-0.01657284 -0.3742285 0.9248123 
-0.6574391 0.3942106 0.6385485 
-0.2464172 -0.07861457 0.9571625 
0.6240628 -0.4657735 0.6189773 
-0.8354805 0.1815086 0.5103247 
-0.8553475 0.4878261 -0.1252057 
0.7864747 -0.4975964 0.3489807 
0.8425762 0.5324995 -0.01192086 
0.563091 0.2160667 -0.7923678 
-0.1332774 -0.9720842 0.1787115 
0.04817859 0.9938149 -0.03980581 
-0.1611246 -0.7259195 -0.6626506 
0.1730453 -0.7260326 0.6588914 
0.4443195 -0.8439189 -0.2924545 
-0.7277043 0.6502748 -0.1851575 
0.06855041 0.9898659 -0.07620586 
-0.5011248 0.8405008 0.1947549 
-0.5553021 0.7872803 -0.2476635 
0.9046614 -0.1818991 0.3428633 
-0.7235751 0.0815407 0.6744406 
0.9740593 -0.1845349 -0.0785613 
0.1488348 -0.226647 0.956553 
-0.4797534 0.5649788 0.6667811 
0.3377641 0.02415088 0.9350313 
0.7910661 0.05554486 0.1246985 
-0.9731297 -0.09721696 0.1755914 
-0.837072 -0.4048392 -0.359385 
0.312566 0.6431779 -0.6900523 
0.1054421 0.934301 -0.3302649 
-0.579772 0.04922706 -0.8053645 
0.7550657 0.5896077 0.2656484 
0.8931149 0.02890084 0.2469197 
-0.07778312 0.9404175 -0.3176859 
0.4598697 -0.7629595 -0.4421378 
0.8634776 0.3132175 -0.05450345 
0.810982 0.3930848 -0.4214608 
-0.04465089 0.9948007 -0.0279091 
0.7229267 -0.6774518 0.08647837 
-0.5473162 0.556225 -0.6205816 
-0.338785 -0.7887944 -0.5041603 
-0.04033967 -0.4315023 -0.8938117 
-0.1505818 0.9480221 -0.2615344 
0.01546607 -0.5000472 0.8596237 
0.9465799 -0.114411 0.2536728 
-0.5065506 -0.7612921 0.3884435 
-0.4576052 0.6399505 -0.6057455 
-0.8212707 -0.5179626 0.2120789 
-0.4566267 -0.2180577 0.8548112 
0.9720054 -0.07451052 -0.1987365 
-0.9076571 0.0742595 0.3975913 
0.1633987 -0.9679422 -0.1715707 
0.7474307 0.2898096 0.4079946 
0.8508495 -0.5087823 -0.05714695 
-0.9773119 0.102018 -0.1283288 
0.573054 -0.2966796 0.7526017 
0.876582 -0.3291614 -0.3332975 
-0.278326 -0.9334933 -0.2114663 
0.002318203 -0.446953 -0.8892981 
-0.9131956 0.4013207 -0.007324304 
-0.8910723 -0.4327366 0.06145377 
0.3425277 -0.8841738 0.2994839 
0.596659 -0.6763073 -0.4218725 
0.5819926 -0.3343101 -0.7306781 
-0.05802298 0.3222309 0.9365022 
-0.6298917 -0.55731 -0.5345749 
0.6995836 -0.6443976 -0.2926205 
-0.4457383 -0.2048422 -0.8651549 
-0.03204069 -0.8302292 0.5539262 
-0.2492266 0.9581777 -0.1027413 
-0.8964646 -0.2851185 -0.313556 
0.9026023 0.4084931 0.07077533 
0.636562 -0.7643469 0.008101236 
0.7845045 0.0607862 -0.1362431 
0.3441377 0.1950317 -0.9155952 
0.6660908 0.7364913 0.05291096 
0.6930409 0.2300352 0.03243112 
-0.3139852 0.9336556 -0.1524382 
-0.2858046 -0.8068756 0.5079725 
-0.4216402 0.8862599 0.1632856 
0.6161275 0.4205306 -0.6577282 
0.4835948 -0.8611456 -0.1201306 
0.4178298 0.8401219 -0.3370145 
-0.676249 -0.3873268 0.621401 
0.175247 -0.7153489 0.6717618 
0.443112 -0.8661889 0.2067557 
-0.9025841 0.3439395 -0.2322108 
-0.1833521 -0.6583096 -0.7213945 
0.7258894 0.2368608 0.1721252 
-0.6037679 -0.4148855 0.6717559 
-0.2278782 0.6164176 -0.7436411 
-0.6653033 0.3712395 -0.6440774 
-0.3505826 0.07947006 -0.9254766 
0.1566574 0.9844953 0.00773319 
-0.855768 0.0973084 0.4898762 
0.07176721 0.3556878 0.9249995 
0.234625 0.9525319 0.1662605 
0.6634777 0.4529632 0.5815766 
0.4161628 -0.898914 0.1001799 
0.1529856 0.9047803 -0.3887307 
0.2853064 -0.2746208 0.9083457 
0.0538231 0.9869381 0.1208808 
0.06042236 -0.7719175 -0.622184 
-0.3103676 0.943994 0.06099857 
-0.5326012 0.6717207 -0.5058316 
0.528532 0.494499 -0.6787164 
0.1223663 0.2889376 -0.9402646 
-0.3619204 0.1758306 0.9121674 
