ply
format ascii 1.0
comment VCGLIB generated
element vertex 2129
property float x
property float y
property float z
element face 0
property list uchar int vertex_indices
end_header
1.939635 0 -0.7066643 
0.2703702 0 3.689975 
2.302197 -0.003018121 1.479132 
0.717145 0 -3.759841 
-1.534956 0 1.855045 
4.548474 0 -1.804972 
-3.957408 0 -2.16884 
4.568065 0 4.384065 
-0.8205529 0 -1.745025 
-3.920123 0 2.896311 
-1.406098 0 4.535193 
2.789497 0 3.440932 
-2.999785 0 -4.143849 
-4.814176 0 0.5541701 
-2.435594 0 2.620316 
-4.222754 0 -0.8302624 
2.319324 0 3.077929 
-1.520193 0 -2.17168 
0.4366084 0 -3.335898 
1.669634 0 1.582321 
-0.3050215 0 2.438808 
-4.662918 0 -1.744239 
3.060344 0 0.8781335 
3.78229 0 3.713309 
4.788946 0 -4.871699 
3.059469 0 3.262161 
-1.263409 0 0.6764359 
4.234326 0 4.073483 
0.4201957 0 1.88642 
-3.950637 0 -3.164432 
1.736627 0 -2.797232 
4.314847 0 3.574484 
-3.901349 0 -0.9742084 
2.876863 0 -0.7156838 
3.836622 0 -0.7822358 
3.972873 0 -4.334216 
4.733136 0 2.412275 
-2.274586 0 4.745009 
4.059785 0 0.2644466 
3.380145 0 3.613602 
4.32903 0 0.6804689 
1.913181 0 3.939716 
1.039756 0 -4.100125 
-0.66006 0 3.998636 
-3.902893 0 -3.933424 
-3.939202 0 -3.877541 
-1.473102 0 -3.824427 
-0.8925997 0 -4.484498 
0.7429368 0 -3.485586 
-0.7290087 0 4.245714 
-2.959006 0 1.138682 
-1.199124 0 1.713906 
-0.09803611 0 -0.9018826 
1.969847 0 -4.480673 
3.994141 0 -0.5596504 
-4.177682 0 -0.8484117 
4.758155 0 -2.342215 
2.930164 0 1.597597 
-1.514015 0 3.425764 
-4.886317 0 3.804395 
-1.502695 0 0.7285744 
-3.668349 0 4.707696 
-4.045039 0 -1.879585 
3.68317 0 -3.526862 
2.749996 0 -2.164322 
4.87631 0 -2.864173 
0.8492659 0 1.77467 
3.924613 0 -3.401767 
-1.380043 0 0.2501668 
-1.141578 0 -2.131596 
2.376038 0 2.485606 
0.4448538 0 -0.5224013 
-3.436764 0 -0.7025927 
1.223997 0 -3.403549 
4.821638 0 -4.937971 
3.744043 0 -0.2601876 
-4.301428 0 4.193411 
3.499852 0 0.3372276 
4.298623 0 1.820937 
3.061334 0 -4.509724 
3.229853 0 2.206921 
-0.9373104 0 3.414498 
3.955445 0 -2.224466 
-1.75106 0 4.213484 
4.303019 0 -0.9269 
-3.104705 0 -3.744149 
3.810117 0 3.880228 
-0.05131115 0 -4.585213 
3.386389 0 -2.769016 
-2.075705 0 3.239436 
4.887081 0 -0.9377227 
-3.22862 0 0.2942541 
-3.803901 0 1.418015 
-1.724681 0 -4.653563 
0.4798215 0 -1.071959 
-2.120107 0 -2.915236 
-0.6936715 0 2.553408 
-0.9635677 0 4.012627 
-2.534859 0 2.825833 
1.884615 0 0.2638756 
-0.2074511 0 -1.653467 
-0.3145722 0 -4.988562 
1.981069 0 3.627264 
1.099854 0 3.795634 
0.3125903 0 3.575821 
-3.292203 0 3.645152 
1.814876 0 1.791198 
-4.413042 0 -0.241144 
-3.55294 0 1.898874 
0.1610742 0 -2.488755 
2.891917 0 -0.5122188 
1.119684 0 -1.971147 
4.536129 0 2.280941 
1.67218 0 -1.028901 
1.809893 0 1.08587 
1.054538 0 4.030189 
-2.671956 0 -0.0229168 
-1.786503 0 3.214026 
-1.91244 0 -4.408564 
3.781756 0 0.6343908 
0.3851848 0 -2.00839 
-3.550161 0 3.40294 
4.98373 0 -1.664365 
3.739754 0 -4.881082 
-3.046484 0 -4.023704 
-4.576748 0 -0.7570757 
3.170604 0 1.223722 
-0.7773199 0 3.40134 
3.652191 0 -4.670946 
4.590277 0 3.986917 
1.310267 0 1.130859 
1.939925 0 -1.641259 
1.680764 0 2.312149 
-1.729366 0 4.140871 
-3.016874 0 -3.253891 
-0.7978578 0 -3.974632 
-1.053111 0 -0.7473919 
-3.564284 0 -4.271648 
-0.6143543 0 1.771977 
4.087537 0 -1.796415 
0.3713413 0 4.742091 
-1.328141 0 1.804928 
-0.9945067 0 0.4534814 
-2.303284 0 2.424309 
-4.31824 0 4.136336 
-1.584855 0 -0.176196 
-2.044713 0 2.185744 
-2.74639 0 0.7634451 
3.13136 0 -2.489182 
2.775254 0 3.418592 
0.03770439 0 4.679004 
4.175319 0 -0.7799338 
3.198379 0 4.772564 
3.713384 0 2.54189 
-3.433362 0 4.24168 
4.717014 0 -2.344589 
-1.040559 0 3.781388 
3.679434 0 3.352142 
4.131358 0 -1.806151 
-2.156731 0 0.410821 
-1.317541 0 -2.53374 
0.2246012 0 0.3542495 
-4.239563 0 -0.6131265 
3.659591 0 -1.898122 
2.65022 0 3.958422 
-2.252496 0 -3.536615 
-0.5488778 0 -1.950119 
-2.856035 0 1.034205 
-0.7438756 0 -0.1794242 
1.420055 -0.0007004628 0.4304713 
2.131794 0 1.896645 
-2.568981 0 -1.72887 
3.80144 0 -1.541053 
-2.139476 0 4.803226 
1.23569 0 -2.617778 
-1.047708 0 -2.118795 
3.986475 0 2.098707 
1.33494 0 -1.190701 
-1.54591 0 0.08566066 
4.157116 0 3.051384 
2.928514 0 -2.480657 
-1.814365 -2.557739e-05 -2.244104 
-1.247158 0 4.588819 
3.376898 0 2.270037 
2.805427 0 2.953714 
4.134679 0 0.9944594 
1.489251 0 2.863843 
-3.761025 0 4.000215 
3.644929 0 0.9568624 
-4.959188 0 2.62482 
0.3963062 0 4.426779 
2.011531 0 0.0003320742 
-0.9480332 0 0.1351765 
0.6354979 0 2.970252 
-3.813423 0 -1.132863 
2.389132 0 -2.753191 
2.183056 0 -0.219654 
2.12067 0 1.944933 
-2.63751 0 3.178889 
-0.6745292 -0.0008140567 -1.288778 
1.850896 0 3.312133 
1.236183 0 4.277098 
3.976301 0 -0.9127168 
1.133736 0 -3.69834 
-1.072275 0 -0.7203687 
3.844494 0 3.474519 
3.25075 0 4.194905 
-2.09212 0 1.153933 
0.7203687 0 1.291288 
2.480948 0 3.827481 
-4.209582 0 -2.131602 
1.406524 0 4.751179 
1.711405 0 -2.794181 
0.06860564 0 2.099125 
-1.078594 0 3.478455 
-0.918203 0 -3.406316 
-4.635545 0 4.496127 
3.612584 0 -4.931733 
1.009113 0 -3.868505 
1.049644 0 -4.333716 
0.2392117 0 -0.03271963 
0.9918326 0 -2.490657 
-1.091686 0 0.9722407 
4.301157 0 4.780176 
-1.386757 0 2.530762 
-1.498951 0 -4.166471 
2.442165 0 -3.585622 
-4.737411 0 -1.300136 
-3.10006 0 4.610909 
-1.961629 0 -4.818932 
-2.609611 0 1.556428 
4.537815 0 4.40344 
2.559042 0 -0.6694111 
-4.782639 0 3.335761 
3.334139 0 -1.771046 
3.740553 0 -4.284967 
0.925108 0 -4.405324 
-4.646237 0 -3.776899 
-1.088989 0 -4.439547 
-1.077971 -0.001122957 -1.352658 
3.586707 0 2.083788 
-1.796572 0 -4.570185 
-0.9274541 0 2.47976 
-3.325938 0 -3.019115 
4.419645 0 -3.697379 
3.722049 0 4.568593 
3.073673 0 -0.1301987 
-4.275923 0 -0.4771253 
4.167517 0 3.446965 
2.265077 0 -3.324784 
2.668591 0 -0.3399802 
-3.476942 0 -3.504602 
-3.880038 0 3.539498 
1.212027 0 3.247728 
2.289869 0 3.210231 
-3.94263 0 1.274642 
2.148384 0 -4.532761 
-4.873637 0 0.5507435 
-4.613323 0 -1.790639 
1.127654 0 -2.939651 
-0.9168589 0 2.322636 
3.017767 0 -3.988216 
-0.1312376 0 1.409512 
-2.595908 0 1.52256 
1.395301 0 -2.030452 
1.775695 0 4.565088 
-2.830417 0 -3.240571 
2.447714 0 -3.804352 
4.989993 0 2.86665 
0.2576796 0 4.140522 
-4.583578 0 -2.072506 
-3.641427 0 1.927612 
3.047148 0 -3.232088 
-0.5738097 0 3.855424 
-3.005819 0 -2.046327 
4.560772 0 0.5220915 
1.679214 0 -4.554925 
-2.133665 0 -3.811777 
2.10053 0 -0.6664996 
4.619802 0 4.325781 
2.344112 0 -3.337082 
-1.745321 0 -0.2972288 
1.476625 0 -3.051329 
-4.492409 0 -2.953528 
4.649537 0 -1.802256 
-0.6898267 0 3.439038 
3.227101 0 -2.898615 
-0.09382545 0 1.927207 
-1.038988 0 -2.638744 
-3.044105 0 2.34008 
1.977861 0 2.337156 
2.805456 0 -2.790375 
3.076829 0 -4.415452 
-0.9924351 0 2.29211 
0.05513417 -0.0002149903 -0.5339743 
2.606446 0 0.09198589 
-0.8286459 0 -3.611185 
0.9321764 0 1.139449 
3.672467 0 3.888826 
-1.957131 0 -2.808188 
-2.165331 0 4.763068 
1.836367 0 0.162101 
3.333322 -4.991169e-07 2.901214 
4.876247 0 -0.1463665 
4.221148 0 2.401922 
-1.973014 0 -4.849676 
3.123989 0 -0.7830377 
-3.415726 0 -4.584156 
-2.937637 0 -3.894963 
3.026264 0 -0.5487865 
-1.129914 0 2.064268 
3.062981 0 -3.871974 
-0.4218727 0 -3.582438 
-4.068697 0 1.514398 
-3.211769 0 -4.822663 
-3.176666 0 -4.911564 
-1.28586 0 -1.208224 
-0.4602367 0 3.801264 
-2.043178 0 2.316418 
4.307825 0 -3.297249 
-4.305601 0 -0.5115238 
0.3835213 0 -2.949016 
1.274381 0 2.004769 
2.284564 0 -1.116229 
0.03607226 0 -4.037471 
3.389878 0 -0.06925552 
3.015679 0 -3.328938 
-1.833389 0 0.5709658 
-0.2571008 0 -4.208032 
0.300295 0 2.744456 
0.4380799 0 3.308093 
-4.263499 0 -3.357283 
1.203041 -0.0003026797 0.3910666 
2.929698 0 2.773354 
4.0875 0 0.5534421 
-4.380484 0 -2.605742 
1.024515 0 -0.1671418 
1.794213 0 -3.154043 
-3.412944 0 -2.081263 
-0.01253414 0 4.057657 
-0.8739427 0 2.349796 
3.282196 0 -2.507238 
0.1965592 0 -4.406692 
1.644119 0 4.580626 
1.311361 0 2.089509 
-4.156627 0 -3.939868 
-0.4156361 0 -2.935258 
2.460907 0 -2.736429 
3.667137 0 -3.672848 
3.008965 0 0.6650074 
-0.01242525 0 1.962445 
-2.100725 0 -4.114718 
2.284988 0 2.993264 
4.085989 0 -2.325412 
3.360172 0 -3.059676 
-4.552641 0 -2.471158 
-4.982328 0 -0.6994462 
3.004082 0 -1.62963 
-1.303113 0 -3.605324 
-0.7540424 -0.0005284189 -1.158712 
-1.203945 0 1.212479 
4.601606 0 -4.974764 
-3.305018 0 -0.5565147 
-2.238186 0 -2.744116 
-3.864288 0 2.060045 
-1.827947 0 0.2621154 
-1.130837 0 4.92533 
3.710206 0 -3.046529 
-2.75013 0 1.32086 
-0.3851333 0 -0.2336228 
1.186795 -0.0009086475 0.4272317 
4.014155 0 -1.582258 
-0.1235708 0 -0.287937 
4.063785 0 -4.770679 
1.019044 0 1.281548 
-2.655255 0 -0.910708 
1.658147 0 -0.9731068 
-4.805497 0 -0.9753929 
-2.760981 0 -2.203712 
3.265241 0 -3.842156 
2.471126 0 -2.829252 
-3.903568 0 4.791343 
-2.552983 0 -4.81724 
-4.721827 0 -0.1363217 
1.35504 0 -4.643332 
1.53547 0 -4.496569 
4.879618 0 1.731896 
-3.496191 0 -4.064246 
-3.993964 0 4.199996 
2.983819 0 -3.277956 
1.033461 0 -4.136477 
3.927431 0 1.723864 
2.145933 0 -3.62213 
0.9219302 0 3.266403 
3.882649 0 0.1878891 
0.7448636 0 4.11567 
3.075666 0 0.4854962 
4.401892 0 2.08912 
1.994847 -0.002172959 1.19893 
4.741903 0 -3.409676 
-3.753813 0 -0.4802702 
4.085167 0 0.02947431 
-2.072114 0 3.354378 
1.365564 0 -4.297221 
-3.896096 0 -4.316954 
-0.1606119 0 -3.992301 
-2.462626 0 -4.079738 
-4.102155 0 4.557294 
2.239315 0 -4.999002 
3.415926 0 0.787203 
-1.888262 0 -4.11103 
-1.714556 0 -0.4897146 
-2.885551 0 -3.455462 
-3.163615 0 2.582618 
-1.629661 0 -1.530801 
-4.960822 0 -1.575644 
3.725651 0 -0.3197105 
4.061761 0 -0.8311425 
-4.143089 0 0.8714383 
-2.058576 0 -1.360998 
3.06898 0 -2.075039 
3.643596 0 3.447889 
4.84063 0 -0.8891568 
0.01503 0 1.079092 
-4.62869 0 -4.410926 
3.93001 0 2.647495 
-3.036634 0 -0.4790276 
0.8438793 0 -1.162209 
-1.348639 0 3.464205 
1.651146 0 -4.368944 
3.303256 0 -2.329201 
2.401144 0 -3.12715 
2.292998 0 2.915097 
3.807047 0 -4.043962 
3.893545 0 -4.965453 
0.3902412 0 -4.364431 
1.105072 0 2.54315 
-4.867333 0 0.1293002 
4.719238 0 -0.2905443 
-2.522713 0 2.031913 
-1.881022 0 -3.452457 
-4.908237 0 4.294076 
-0.1172883 0 3.697933 
-3.272022 0 -4.336338 
0.2875758 0 4.762094 
-3.087765 0 -2.558566 
-1.64645 0 -4.253374 
1.244174 0 -1.128393 
-2.048422 0 4.436707 
2.899592 0 -3.182151 
4.765474 0 -3.083276 
-4.787488 0 2.920867 
-0.7719764 0 4.77142 
-4.609909 0 -0.400218 
4.083002 0 1.320371 
0.5787957 0 -1.926722 
-0.3107839 0 0.7713054 
3.378726 0 -2.643781 
0.6249799 0 3.133576 
4.084107 0 1.508393 
-0.2724206 0 0.99593 
3.774764 0 0.2153951 
3.985487 0 -2.948736 
1.762082 0 -3.074363 
1.196294 0 0.1201272 
2.236777 0 2.550477 
2.907628 0 4.511828 
3.525568 0 4.533214 
-1.711758 0 2.565135 
4.009608 0 -3.270447 
-3.84238 0 1.360814 
-3.171156 0 -2.189162 
4.202758 0 4.67937 
2.195739 0 3.638692 
1.412674 0 0.3079181 
-4.697747 0 -2.555238 
2.83599 0 0.4974535 
-4.724739 0 -0.3626705 
-4.251096 0 2.046459 
-3.130836 0 2.99237 
4.590406 0 1.854945 
3.966603 0 -0.8796929 
-1.132677 -0.002814114 -1.483701 
-4.437486 0 -3.621775 
-4.181414 0 1.800457 
3.191483 0 -1.291725 
4.790143 0 2.786068 
1.454677 0 -4.917769 
-3.627365 0 1.46068 
0.9587594 0 -2.997093 
-0.9954398 0 -4.498467 
3.948562 0 2.309494 
0.6770194 0 -1.417188 
-2.068783 0 -3.620517 
-4.672193 0 4.12383 
-0.9126203 0 4.179761 
0.8515196 0 -4.012767 
4.746667 0 -1.24791 
-3.576859 0 0.4947111 
-1.120672 0 -3.721923 
4.153491 0 -3.078114 
2.820911 0 4.599947 
-2.501349 0 2.716951 
0.9088303 0 3.685009 
-1.218289 0 3.57107 
-4.489177 0 0.2776317 
3.441261 0 -0.2397791 
-3.848182 0 3.840211 
-4.789611 0 3.242088 
3.06452 0 -1.854446 
-0.7202378 0 -3.624618 
2.533013 0 -0.8822767 
1.194531 0 -2.060802 
-3.796977 0 0.695514 
-4.2567 0 2.945771 
-0.3684413 0 2.61533 
2.013426 0 -2.722544 
3.787972 0 -2.830317 
2.49515 0 -1.912542 
-2.610644 0 1.685767 
0.5431423 0 1.620942 
-1.6312 0 -1.773295 
1.204919 0 4.21336 
3.120023 0 0.8206155 
4.573741 0 0.5445777 
-1.915705 0 2.294952 
1.250267 0 -1.864558 
2.729102 0 1.440371 
-2.815275 0 3.127266 
3.021141 0 3.503168 
4.671664 0 3.63135 
4.657434 0 4.197243 
-0.3375211 0 -3.703549 
2.879181 0 3.05591 
1.18449 0 -4.90937 
-0.7967107 0 4.737267 
4.657277 0 3.089727 
-4.365438 0 2.715236 
2.174441 0 0.1875635 
4.430068 0 4.943233 
3.229882 0 3.569448 
-4.072772 0 4.390759 
4.917183 0 -1.761548 
2.417554 0 -2.200386 
-0.0548711 0 -2.274388 
3.834247 0 2.85469 
0.1564556 0 1.999411 
4.175976 0 1.545956 
-2.912737 0 4.940274 
0.5939006 0 4.507231 
3.328692 0 4.92339 
-1.251695 0 -0.1301185 
3.032244 0 4.722113 
-1.354223 0 3.054828 
-3.729612 0 -0.03824575 
1.055492 0 1.358478 
2.882273 0 0.246449 
-0.04669378 0 -4.878227 
2.580263 0 4.092574 
4.041444 0 -2.82293 
-1.421474 0 3.953526 
1.147332 0 4.566483 
2.620526 0 -3.085303 
-4.608129 0 -1.347778 
-4.491622 0 1.831021 
4.030541 0 -0.2615015 
-4.246305 0 3.801267 
-1.406002 0 0.5681552 
-3.934367 0 -4.100208 
3.986108 0 -4.186674 
-1.031301 0 0.004349742 
0.7775001 0 -3.641251 
2.110708 0 2.829598 
-1.777448 0 -2.553911 
4.009011 0 -3.233785 
3.821947 0 3.678401 
1.838702 0 1.729571 
-4.959581 0 2.246539 
4.253465 0 3.436869 
-4.004561 0 -3.79004 
1.308962 0 -0.4373047 
1.941905 0 3.407199 
0.7928296 0 2.921026 
-3.151233 0 -4.040491 
3.171191 0 3.1972 
4.348272 0 -0.1445256 
-2.311453 0 0.4953778 
3.090425 0 1.313325 
-4.68587 0 3.430697 
-2.032486 0 4.930787 
-1.388792 0 2.854863 
-4.389066 0 -3.130771 
-1.22471 0 0.03419089 
4.775369 0 1.670126 
4.240479 0 4.009526 
4.194037 0 4.599867 
3.738747 0 3.888974 
3.722201 0 -1.360777 
-1.586429 0 -4.268102 
-0.4070916 0 4.40741 
4.937228 0 -4.433415 
-1.109466 0 1.945701 
3.692128 0 0.9077215 
-1.513934 0 4.458711 
-0.3942807 0 3.573398 
-2.578646 0 3.470777 
-4.050733 0 3.330148 
3.816869 0 2.484674 
-1.751512 0 2.792473 
0.0572943 0 -0.6030116 
1.982536 0 -0.05946199 
-4.182475 0 -3.363054 
-2.891067 0 4.90356 
-3.339311 0 3.77022 
3.492675 0 3.306081 
-2.944232 0 -3.774662 
-3.083978 0 -4.806532 
4.448202 0 -1.899555 
3.477667 0 -0.7368733 
2.328536 0 -2.112179 
-0.9133304 0 -3.214099 
3.232373 0 2.074117 
-2.697675 0 -3.831816 
3.297903 0 -4.657757 
1.246248 0 0.2091287 
-4.83987 0 -3.934297 
0.9744228 0 2.997354 
-3.341651 0 4.474995 
-1.760465 0 4.674832 
-4.784681 0 -2.606229 
4.107859 0 4.807947 
-0.8218633 0 -3.567399 
4.719764 0 -4.908082 
2.391582 0 -2.921655 
-0.9498246 0 2.08543 
-3.840452 0 2.373847 
-4.546254 0 0.4386123 
3.27746 0 -3.010229 
4.406691 0 -4.559397 
0.2507894 0 -1.429956 
-3.4356 0 0.06922375 
-0.5582011 0 -4.304758 
-1.915665 0 -0.7382795 
-0.5807821 0 -4.468658 
-3.005013 0 0.5567522 
-1.799381 0 -3.146007 
-4.910238 0 -0.6547361 
-4.861238 0 -0.9460964 
4.578073 0 1.275522 
4.898141 0 -4.739708 
-2.592952 -0.003099837 -2.813038 
0.5978041 0 -3.052939 
1.743106 0 -2.055157 
-2.09601 0 -0.1077111 
2.677017 0 -4.142824 
2.37171 0 0.01078778 
2.316632 -0.0005774652 1.277439 
-1.932709 0 4.412195 
2.878263 0 -3.393363 
-3.728059 0 4.726042 
0.5945637 0 1.768154 
-3.834481 0 1.788558 
0.73976 0 -0.6650011 
0.07406593 0 -3.670776 
1.7403 0 -1.292665 
2.065464 0 -4.483934 
4.450205 0 -1.042166 
-3.734025 0 1.195309 
-0.4811787 0 -3.540449 
2.594396 0 0.7379005 
3.929689 0 -2.557631 
4.051532 0 3.560764 
-4.745455 0 1.309637 
4.929837 0 3.609375 
2.760553 0 0.8103009 
-4.291735 0 3.695936 
1.391819 0 -3.495606 
2.696399 0 -3.65543 
-4.852377 0 4.877523 
3.907228 0 4.77311 
-1.572107 0 -2.8243 
0.5360454 0 -2.378773 
-3.149089 0 0.6853936 
1.823654 0 -4.763293 
1.244192 0 -2.548282 
4.79846 0 -0.03557805 
-2.114249 0 -4.055662 
-4.012484 0 -3.119768 
-2.427366 0 -0.8086026 
-2.818531 0 3.816564 
-0.815071 0 -2.875156 
0.2664861 0 3.383995 
-2.646308 0 4.347871 
2.804887 0 2.505906 
-0.7558138 -0.001681546 -1.27312 
2.959321 0 0.3190074 
1.533693 0 -2.784116 
0.5173781 0 -4.210845 
-2.126898 0 2.610702 
-4.886103 0 -0.8573605 
4.037807 0 2.049748 
-2.463494 0 -1.958592 
-4.527804 0 4.687097 
-0.923046 0 -0.3560992 
4.334017 0 -4.502099 
-0.4480729 0 -3.449248 
-2.027513 0 1.175608 
-3.319167 0 -2.339666 
-3.490231 0 -1.474823 
-3.455112 0 0.8046421 
-0.1411331 0 4.009818 
3.573506 0 -4.693666 
2.311378 0 -4.400829 
-0.09939159 0 4.442033 
0.7342502 0 -2.055806 
3.41253 0 -0.1291823 
1.34453 0 -4.458251 
-3.164524 0 0.2232263 
-4.189908 0 3.568075 
-0.6640494 0 -4.671318 
1.417859 -0.0007991195 0.393521 
1.882035 0 1.997978 
-2.442595 0 4.658385 
2.195509 0 -3.713034 
-3.44837 0 0.1397822 
-0.8577717 0 -4.700485 
1.682662 0 -1.233177 
-2.22242 0 0.6011559 
-4.60738 0 -2.598084 
2.514422 0 -3.915688 
1.354112 0 -3.452233 
3.239683 0 1.648377 
-2.913881 0 -4.664477 
-2.640401 0 0.2899492 
2.689564 0 3.828744 
-1.344074 0 -1.458112 
-0.9585736 0 1.446907 
-0.8216475 -0.0007047963 -1.165197 
2.670875 0 1.252816 
-1.754699 0 -1.735197 
-1.196886 0 -0.313626 
1.11787 0 0.7735493 
-1.089678 0 -0.557338 
0.5704223 0 4.885601 
1.554767 0 0.9715239 
2.238339 0 -3.018175 
1.554329 0 1.211155 
1.213177 0 2.874091 
0.4936905 0 4.99844 
1.502956 0 -4.566358 
-0.3496352 -3.131264e-08 -1.043902 
-0.6402672 0 -4.360502 
-0.6599665 0 2.415205 
-3.952411 0 -3.787455 
-4.600408 0 -2.220456 
0.6088874 0 -0.779713 
-0.2611251 0 2.793694 
-4.041057 0 3.293591 
-3.091459 0 -1.907731 
-4.213577 0 2.596174 
-3.932893 0 -4.031743 
1.479089 0 -2.871631 
1.903564 0 0.6884623 
4.214602 0 2.879387 
2.624078 0 -3.217126 
-1.804853 0 -4.425491 
-4.059501 0 0.05859644 
-0.8349102 0 -3.783785 
2.234395 0 4.096755 
-3.581189 0 3.712751 
-0.4184582 0 3.103504 
2.829455 0 0.6027301 
-0.4533382 0 -1.376227 
2.263087 0 -4.430829 
0.4397635 0 3.639315 
2.079235 0 4.231239 
-2.732175 0 1.05613 
1.598939 0 1.204775 
1.026815 0 -0.2942356 
0.07169424 0 -1.689447 
3.197417 0 -2.354568 
3.68514 0 0.3403534 
-3.895112 0 0.6518176 
-0.2453443 0 -0.4221672 
-0.359943 0 4.034505 
3.951542 0 2.808642 
3.474372 0 -3.12508 
-1.358495 0 -3.723908 
1.665979 0 -4.409614 
-4.558777 0 -0.9251019 
-3.817682 0 1.391123 
-2.416091 0 -4.164085 
-4.92971 0 -1.811715 
2.790784 0 -2.859236 
3.45908 0 -2.772677 
0.8657712 0 1.100499 
-1.583215 0 2.084569 
-0.06201296 0 -1.427095 
0.2253628 0 1.618241 
4.537482 0 -3.371957 
4.292027 0 -1.787462 
0.2661802 0 2.659786 
-0.941287 0 -1.842544 
-2.313158 0 -0.5708786 
-3.984283 0 -0.2677063 
-1.92297 0 3.202939 
-0.7134876 0 -3.508943 
-3.985293 0 3.060107 
-0.2419277 0 4.159439 
-0.03101446 0 -3.690528 
-1.016588 0 1.053345 
4.778316 0 -0.8081406 
4.273199 0 -2.549225 
1.433142 0 2.419315 
-1.627438 0 3.185432 
4.281887 0 -0.5670055 
-0.1312409 0 1.707554 
2.083081 0 2.58669 
3.320983 0 -0.5256085 
-0.1028031 0 0.7540368 
-3.700793 0 -1.804286 
2.237548 0 -3.678407 
-2.745843 0 -1.672976 
-2.989368 0 0.2151807 
-4.721229 0 2.195728 
-3.563157 0 3.801189 
0.5087219 0 -2.415612 
-2.005532 0 -2.116089 
-1.778857 0 -2.589117 
3.313061 0 0.5027017 
-4.657355 0 -3.894479 
-4.264217 0 -2.858133 
1.246076 0 0.1117276 
-4.401591 0 -0.05034006 
-0.4648666 0 -2.058333 
2.429182 0 -0.7835838 
-0.8896416 0 -1.440222 
-4.542621 0 -4.386759 
-0.3794385 0 2.832268 
-0.8657329 0 -0.5159117 
1.012471 0 -1.920844 
-0.5296693 0 4.827707 
0.8596175 0 -1.132495 
2.338935 0 -2.049109 
4.849009 0 -2.677577 
-4.35625 0 4.672982 
-2.796588 0 1.973097 
-1.48114 0 0.7394765 
-1.196456 0 1.686827 
4.670087 0 -2.013632 
1.610506 0 -2.71881 
-1.787498 0 2.68628 
-4.24463 0 4.598241 
4.739704 0 -2.322037 
1.279441 0 4.686459 
3.582483 0 -2.036304 
0.1343353 0 4.279745 
3.553846 0 2.55201 
2.83474 0 -4.824864 
-1.971997 0 -2.96317 
-4.590688 0 1.070059 
-1.764201 0 -4.372967 
-4.088416 0 4.565385 
-1.694736 0 -4.506095 
-0.1747214 0 -4.451774 
-0.4988762 0 1.14466 
-1.407094 0 3.652937 
-4.192421 0 2.218725 
-0.1056923 0 4.816406 
4.237017 0 2.683205 
1.462007 0 2.316257 
4.781872 0 2.169577 
-4.905183 0 3.451982 
-4.795902 0 3.694993 
-1.009424 0 -4.541631 
2.467918 0 -2.464405 
2.758923 0 0.3164043 
-3.2178 0 -1.911146 
-0.1570821 0 -2.005419 
-4.069343 0 -4.578448 
1.237767 0 -4.238886 
3.154838 0 1.961695 
1.367849 0 -3.900966 
3.729721 0 -3.728992 
-4.028252 0 -1.253042 
2.452276 0 -3.427452 
-3.933635 0 -0.7940211 
-2.554435 -0.001547496 -2.833336 
1.882893 0 3.336083 
4.51726 0 3.50617 
-1.025994 0 0.08835512 
2.000762 0 -4.189791 
3.823922 0 -0.4457492 
-4.215523 0 1.301978 
-1.661929 0 1.446178 
0.1859215 0 0.6876993 
2.103436 0 -3.576366 
1.960378 0 -4.561635 
1.825956 0 -2.499036 
-1.926362 0 2.537155 
-2.876363 0 0.06583276 
-3.036082 0 -2.977906 
-1.721487 0 0.480115 
2.295068 0 -4.869989 
-1.431055 0 0.3830437 
1.044937 0 2.721161 
0.9095682 0 -0.3021526 
-0.4545298 0 1.813596 
2.601546 0 3.554484 
-2.343454 0 1.020401 
-0.9377679 0 2.080537 
-3.587564 0 3.184732 
4.763599 0 -3.540531 
-3.413547 0 2.704487 
-3.625627 0 0.5232049 
-2.40285 0 -1.779864 
4.387732 0 -2.32526 
-4.382617 0 -3.469586 
0.5065267 0 3.675322 
1.564292 0 0.320697 
4.600121 0 -0.02944483 
-4.376976 0 -0.1830583 
0.698022 0 0.1975664 
2.322707 0 0.8422625 
-2.835656 0 -0.416788 
-2.142569 0 0.1662306 
1.402644 0 2.687611 
-1.443084 0 -4.552902 
-2.92956 0 -0.5395925 
-1.689605 0 3.739254 
1.390602 0 2.866115 
1.583847 0 -1.112228 
-1.831917 0 0.3139959 
-4.746231 0 1.194144 
-4.919207 0 1.389307 
3.306112 0 0.8096966 
1.805016 0 -0.3217783 
3.25121 0 -2.299687 
-1.191536 0 4.380857 
0.2154923 0 -2.662899 
4.813137 0 1.28228 
-4.442263 0 2.913003 
4.097404 0 4.61549 
-1.483692 0 -0.4888744 
3.374156 0 -4.297221 
-2.768923 0 2.737659 
2.032735 0 -1.681527 
-1.305661 0 2.657582 
-4.845955 0 2.964216 
4.144792 0 1.703421 
-4.632166 0 -1.584279 
3.151298 0 -1.542978 
-1.463483 0 -4.490933 
1.344109 0 2.010645 
4.418662 0 3.104949 
2.531717 0 -0.3275142 
-2.307274 0 3.387069 
0.7281431 0 1.728961 
1.334069 0 -4.844431 
2.676677 0 -0.1023418 
-2.084749 0 0.6866852 
-1.293127 0 -3.971389 
-2.760699 0 1.310058 
0.8155903 0 -4.165668 
0.5571078 0 -1.680338 
-0.4545085 0 -3.105791 
-3.429621 0 -3.995303 
-1.407265 0 -0.3181053 
3.588147 0 -4.061518 
0.7908912 0 -2.495241 
0.1039557 0 -1.866832 
-1.610147 0 -1.340663 
-1.862964 0 -1.524689 
4.412008 0 -1.511215 
0.9525747 0 2.488508 
-4.824708 0 -2.116347 
-2.627208 0 2.653968 
-3.441699 0 -4.941701 
4.240191 0 -0.5280468 
-1.448048 0 -1.596916 
-4.103472 0 1.111067 
-3.561135 0 -3.161354 
0.2258369 0 3.470931 
1.465499 0 -0.9941937 
4.544673 0 -2.107156 
-2.91676 0 -3.703481 
2.779985 0 0.2494571 
3.085537 0 0.4262294 
-2.651644 0 3.566545 
-1.862385 0 -1.875507 
-1.592123 0 2.572833 
-0.01520053 0 -0.1834285 
0.2102384 0 -1.493321 
2.614623 0 2.196687 
1.405207 0 1.750315 
1.083057 0 -2.441314 
3.459911 0 -2.543403 
3.469255 0 -3.041857 
2.754866 0 3.337293 
2.56189 0 -2.823402 
4.051566 0 2.080732 
2.771753 0 -2.551157 
-2.580435 0 3.104985 
-1.204318 0 4.565964 
4.119587 0 -1.978059 
-3.560964 0 -1.084619 
-1.350448 0 -2.248477 
1.693252 0 -3.998593 
-2.90849 0 -4.44923 
4.898481 0 4.135261 
-3.693162 0 -3.472743 
0.02910768 0 1.023137 
2.625042 0 -2.672641 
1.819471 0 -1.814309 
3.767094 0 -4.541894 
2.809871 0 -3.050419 
-2.98001 0 4.476213 
3.461878 0 3.726887 
2.751539 0 2.778708 
-1.607368 0 -3.785522 
0.05346014 0 -2.270519 
-2.042662 0 -1.730609 
-3.985002 0 3.874306 
-1.727414 0 -4.120496 
-1.806215 0 1.332911 
-1.693249 0 3.830873 
4.85033 0 1.015211 
1.040095 0 0.9145378 
1.708454 0 1.805183 
2.884697 0 -2.432631 
2.61912 0 0.9238955 
-4.49943 0 4.143011 
-0.7403308 0 1.537587 
0.8182233 0 3.003295 
3.626723 0 4.79701 
2.628616 0 2.507092 
-1.984372 0 0.4017831 
-4.364499 0 -2.71772 
-0.4587936 0 1.119694 
3.992688 0 -0.622269 
1.328496 0 4.187757 
4.461369 0 -3.1747 
1.96814 0 -4.72558 
1.244946 -0.001189986 0.385652 
-1.062973 0 -1.206373 
-1.658637 0 0.07279664 
-3.717846 0 0.9850502 
4.085769 0 2.975272 
-2.056991 0 -4.736764 
-1.296195 0 -2.820006 
-0.2184101 0 -4.643184 
-2.234104 0 1.036583 
-2.693349 0 -2.058713 
0.1235626 0 0.1924491 
2.268926 0 3.66749 
1.623105 0 -2.224127 
4.979355 0 -4.620627 
-0.2334684 0 4.290926 
-2.643483 0 4.028912 
4.841917 0 1.433925 
1.477923 0 -2.085734 
4.594695 0 0.8916488 
0.5909902 0 0.6477945 
-1.108282 0 -4.608278 
3.254648 0 2.136379 
3.497572 0 -1.37991 
2.892316 0 1.202138 
-3.409365 0 -4.89603 
-2.656587 0 -1.182215 
-2.766231 -0.0001887158 -2.966571 
0.6308904 0 0.6567757 
2.351599 0 3.477207 
1.081114 0 -2.393701 
0.5609193 0 -2.583601 
-3.224113 0 -3.607274 
4.432345 0 3.181587 
3.632333 0 -3.099704 
-1.725652 0 -3.823372 
3.383881 0 -4.598598 
-2.151935 0 -0.1822901 
-4.931618 0 2.60415 
-4.797824 0 4.926301 
2.79581 0 2.788599 
2.914636 0 -2.789762 
4.980092 0 3.099516 
-2.741987 0 -3.576199 
-0.5711783 0 -4.408828 
-4.833947 0 -4.892097 
-1.797139 0 1.641541 
-2.385373 0 -4.765263 
1.672972 0 4.90414 
-0.5390519 0 -3.427658 
-0.2006254 0 -1.263004 
0.9565338 0 -4.683632 
-2.077142 0 -0.5712662 
0.1283548 0 3.856979 
4.610423 0 2.71665 
-1.814958 0 -1.865463 
1.06224 0 3.653145 
-2.640787 0 1.142892 
-2.286401 0 -4.217106 
-2.762239 0 -0.9593016 
2.471364 0 -0.3712229 
-1.754366 0 2.486302 
0.6150933 0 -3.319494 
1.44286 0 2.175614 
2.922548 -0.0001170832 2.601909 
2.419563 0 4.961305 
-2.73285 0 3.150141 
-3.827694 0 0.9700379 
0.005837366 0 1.186123 
2.476947 0 -4.050666 
3.348106 0 4.010614 
1.146884 0 -3.218631 
-3.002669 0 1.490771 
2.343707 0 1.874223 
-2.107784 0 -0.5565374 
-2.70154 0 -2.127997 
-0.07445781 0 3.928677 
-4.532913 0 -0.1725762 
1.095199 0 1.088437 
-1.369687 0 -0.3952881 
-4.601161 0 4.868216 
-1.041128 0 4.804313 
3.22436 0 1.12414 
-3.905642 0 -3.849859 
-1.910213 0 3.968187 
-1.30124 0 2.681337 
1.44984 0 2.596143 
3.893094 0 -1.903195 
3.136366 0 -1.429626 
-4.688476 0 0.4754937 
2.937208 0 1.426242 
-0.1506777 0 -0.5101109 
-1.607162 0 -0.2603318 
-4.903772 0 -4.049679 
-3.005595 0 -4.593671 
2.619906 0 -4.699605 
-1.430165 0 1.464038 
3.989945 0 2.518249 
-4.281786 0 2.681086 
-1.817754 0 -4.454048 
3.985219 0 -2.337367 
1.017766 0 4.94965 
1.089786 0 -0.117922 
-1.140304 0 -4.428908 
-2.909413 0 3.947159 
4.907644 0 -0.5446122 
0.9989702 0 -4.59849 
-3.303387 0 4.098406 
-2.034931 -0.003412506 -2.349158 
0.01509459 0 -2.63566 
1.978121 0 1.973377 
1.672257 0 4.865501 
0.1205454 0 -4.120589 
-4.0348 0 3.154155 
2.58388 0 -0.3617873 
-2.614877 0 -4.298764 
-1.850557 -0.0005965906 -2.046262 
3.994795 0 0.2622212 
-0.2094294 0 0.8728038 
-1.782768 0 -4.761724 
-2.161023 0 -4.468151 
4.369846 0 2.834888 
2.64521 0 1.350858 
-4.373965 0 -4.407742 
-3.427563 0 -1.229488 
-3.283345 0 0.5882142 
-2.646099 0 4.902185 
-3.815364 0 4.114394 
2.317548 0 -1.680372 
3.118434 0 2.8565 
-2.844887 0 -2.627805 
1.560085 0 -3.778103 
4.943281 0 0.9250762 
1.396955 0 -1.636097 
2.767967 0 3.540988 
3.861718 0 -4.332236 
-4.31653 0 -2.363144 
3.845981 0 -0.02114909 
-2.255439 -0.002230311 -2.563932 
1.375587 0 -0.6899869 
-4.17337 0 4.928606 
-3.035388 0 4.386269 
-1.111602 0 -4.677338 
3.651294 0 3.194295 
-1.450283 0 -2.833772 
-4.031768 0 -3.040162 
-3.478862 0 -4.833761 
-2.895519 0 -2.000601 
-2.523765 0 1.585696 
-2.951455 0 -4.844078 
-4.060178 0 -0.5194691 
-4.640108 0 2.124527 
-2.48651 0 3.903829 
2.267118 0 1.929141 
-4.383985 0 0.8068448 
0.3268446 -0.004878066 -0.2370329 
-0.1694129 0 1.628216 
-1.864676 0 2.152694 
-4.563206 0 0.2275366 
-1.747595 0 -0.7651256 
-0.9086613 0 -4.618134 
-2.364411 0 -3.587224 
3.260409 0 -3.327698 
-1.877164 0 2.792943 
-2.989372 0 -3.6137 
-2.480217 0 -3.821407 
-3.084203 0 1.149535 
-4.940921 0 4.194716 
1.068332 0 -0.3652975 
-1.590756 0 -2.842771 
-1.942578 0 -3.807515 
-4.910154 0 -1.960043 
-2.467156 0 1.547542 
2.178243 0 4.263478 
2.224382 0 -3.956226 
-3.207818 0 2.750605 
2.361777 0 -0.9274511 
-2.350976 0 2.903266 
3.991155 0 0.3608533 
2.735409 0 -0.2291956 
-4.004239 0 4.155228 
1.232325 0 0.07000355 
2.237956 0 -0.0969828 
-0.2787468 0 2.060958 
3.626242 0 1.627542 
-1.715138 0 -0.5771046 
2.50482 0 -2.822376 
-3.34371 0 4.952773 
2.100884 0 1.466383 
3.27371 0 -2.478899 
0.9047993 0 -3.272413 
-0.6110963 0 4.788733 
-0.7487783 0 -2.998162 
2.123912 0 -2.979835 
0.9146312 0 -2.264235 
0.5399097 0 -3.190579 
-4.978276 0 -3.603014 
0.6862642 0 0.8440316 
-4.294883 0 1.617245 
-3.917738 0 -2.23857 
-4.574989 0 -2.627828 
-2.082541 0 1.123079 
-2.736525 0 -4.75367 
-4.148107 0 2.964851 
4.624023 0 -4.898484 
2.430679 0 -4.416342 
0.1536093 0 3.84869 
-4.760326 0 -4.124639 
3.283806 0 -0.4800073 
4.940314 0 4.420865 
-1.327925 0 1.034005 
0.8133408 0 -2.555828 
-2.9696 0 4.039354 
-2.408126 0 -2.872568 
-1.303935 0 -3.739003 
4.166522 0 3.063148 
0.8287106 -0.004801301 0.1715265 
0.9741378 0 4.630201 
-4.750346 0 -2.93684 
-3.264163 0 2.766091 
1.086402 0 2.82879 
-0.7356393 0 -0.1355505 
-4.204972 0 -3.835295 
2.20348 0 -1.539583 
-3.152183 -0.004267504 -3.202785 
1.464052 0 -0.05969821 
2.787734 0 -4.55673 
1.755574 0 -0.518905 
-0.7546504 0 3.039218 
3.47953 0 1.279213 
-0.2400519 0 -2.496137 
3.968327 0 -4.581678 
-1.18786 0 -2.063064 
-3.610707 0 1.23803 
2.460102 0 -0.6376466 
-0.3443744 0 2.595452 
0.4903735 -3.633347e-06 -0.3165559 
-2.300047 0 3.91097 
3.420307 0 -2.171807 
2.580107 0 -3.619897 
-0.6808102 0 -3.001233 
-4.393328 0 -4.453096 
-4.117999 0 0.3228789 
0.04997322 0 -3.538658 
-4.318402 0 -3.527599 
4.186652 0 3.839283 
2.706238 0 0.3914151 
-4.812313 0 4.000293 
0.6391808 0 -0.5542493 
3.105396 0 3.01773 
3.33256 0 4.76657 
1.866656 0 -2.482921 
-4.385216 0 0.2164968 
-1.900701 0 -3.294438 
-3.030476 0 -0.1119036 
1.589371 0 -2.775614 
3.110027 0 0.4438909 
0.9279277 0 -3.319401 
-3.472155 0 1.704215 
1.316717 0 -4.422842 
0.6571476 0 4.48693 
2.487586 0 -4.299572 
-4.414558 0 1.059981 
1.275238 0 3.583375 
-4.979071 0 -3.490129 
-3.307057 0 -4.555804 
3.312402 0 3.756124 
-1.53869 0 4.796463 
-1.014136 0 0.2830271 
4.045721 0 0.6429975 
0.5598382 0 0.647531 
-1.161325 0 0.1101088 
-1.904318 0 -4.319473 
1.194323 0 -0.0811598 
2.500504 0 -1.885209 
3.164443 0 -4.168438 
-4.393786 0 -4.680939 
-0.1813717 0 4.1721 
-2.262159 0 4.985803 
2.958801 0 -1.103726 
0.3805606 0 -3.360597 
1.664426 0 -1.098666 
-1.99163 -0.0001977111 -2.137142 
-0.6653957 0 4.518553 
0.2619373 0 -3.291417 
-3.02225 0 0.6267445 
-3.409462 0 2.939907 
-1.067879 0 -2.907803 
-2.640554 0 -3.785892 
-3.266118 0 -2.737225 
3.998114 0 -1.945645 
-2.041364 0 4.270248 
-4.090684 0 -3.572924 
1.730414 0 0.5033541 
3.591086 0 -4.952268 
-0.6172868 0 -3.55207 
-0.3623041 0 -2.206007 
1.030138 0 -0.9413131 
-3.1144 0 1.991665 
1.57506 0 4.387127 
1.59155 0 2.044559 
-0.1910883 -0.0008469869 -0.8259696 
4.802162 0 -0.6340183 
2.084313 0 0.6117096 
4.689799 0 -4.404351 
-4.742993 0 -2.355274 
1.331536 0 3.779088 
4.667039 0 3.42497 
1.259967 0 3.766228 
-1.446391 0 -2.447407 
-2.291488 0 2.383376 
4.929748 0 3.269876 
-0.2953704 0 0.5038469 
2.845077 0 -0.7710335 
-2.109565 0 -3.53946 
1.585338 0 1.037563 
1.756149 0 1.939216 
-0.7806984 0 -0.4189997 
0.1708784 0 -0.06464453 
-1.582413 0 1.075064 
-0.6920246 0 -1.460719 
-2.32276 0 4.66075 
-0.5932127 0 4.550579 
-3.366351 0 1.173353 
-2.944906 0 -1.781282 
2.826526 0 -2.775117 
2.410504 0 -3.020373 
0.3896938 0 -2.88797 
-2.62241 0 1.885784 
2.345265 0 2.270815 
3.412404 0 -0.6464758 
-1.65366 0 -2.252572 
-2.386926 0 0.04823473 
-1.348936 0 -2.463022 
-2.549172 0 3.458911 
3.219013 0 -4.720774 
1.064611 0 4.50705 
1.741716 0 -4.636515 
3.609804 0 -0.007077456 
-4.283883 0 0.8401419 
0.3044234 0 -4.140106 
-2.242161 0 4.942848 
-1.401781 0 -3.745619 
3.633151 0 3.885446 
-2.439857 0 -3.651918 
-0.6765887 0 -4.477859 
0.4308468 0 1.891879 
2.998692 0 1.069174 
-2.42214 0 -3.42784 
-1.023666 0 -1.222492 
-4.781421 0 1.49057 
-4.242826 0 1.306373 
-4.423616 0 1.721063 
-1.659539 0 0.9873128 
-0.8332368 0 3.344889 
0.7661347 0 0.9396955 
2.968318 0 -1.325091 
-1.558977 0 -4.518677 
-2.648974 0 2.161401 
-1.385037 0 0.9452599 
4.308863 0 2.092056 
2.133018 0 4.965783 
-1.429765 0 4.053999 
-0.4950717 0 -1.263929 
2.596272 0 4.18742 
-3.82006 0 -2.013821 
4.248688 0 -2.1897 
-0.402359 0 1.33487 
-4.339454 0 4.073955 
4.126398 0 3.629854 
-3.346668 0 -3.768229 
-0.1932643 0 1.203826 
3.15125 0 -1.094319 
1.631335 0 -3.664823 
4.131931 0 -2.076317 
-0.7874345 0 -3.203183 
-2.936299 0 -1.88687 
-3.520495 0 0.06676693 
4.526063 0 3.715322 
1.986295 0 3.105591 
0.1477288 -0.003972367 -0.418436 
-0.2471678 0 2.967675 
3.187769 0 -0.9302122 
-0.9680581 0 3.319705 
-4.708745 0 1.202485 
0.09259364 0 -4.088902 
-0.6051393 0 -4.901794 
1.244193 0 -4.415453 
2.479039 0 -1.418417 
-3.819214 0 4.659354 
-4.733831 0 -0.4387113 
0.323211 0 2.533893 
-0.1565569 0 1.956295 
2.823087 0 -1.667816 
1.506728 0 -0.8809596 
2.40172 0 2.903063 
-3.034071 0 -3.436281 
4.848782 0 3.694841 
-4.310809 0 -2.313936 
4.051202 0 -4.289145 
-4.751995 0 1.100133 
-2.911566 0 -1.012427 
0.1211746 0 -4.642827 
0.277336 0 -3.614953 
-1.148079 0 -3.881906 
-0.1474245 0 0.9047055 
3.97951 0 2.21618 
-1.84065 0 -3.891258 
1.245918 0 -1.350088 
-0.9456608 0 -3.156547 
-0.6648743 0 4.295946 
4.912423 0 2.285436 
-0.1136343 0 -0.8085774 
-4.075244 0 -3.687452 
-0.05276716 0 0.8563051 
1.090039 0 -0.5912926 
3.823707 0 -2.64422 
1.030393 0 1.166363 
1.65571 0 4.414622 
1.222167 0 1.365979 
2.243236 0 3.905428 
2.99598 0 -3.960091 
1.857755 0 -2.93026 
-0.1406115 0 -0.08367835 
-1.847545 0 2.181535 
0.5581768 0 -1.572131 
-4.176876 0 -0.8269991 
4.221487 0 2.762756 
-1.718775 0 0.6938649 
1.088906 0 -4.890517 
1.716771 0 -2.72457 
4.68847 0 -1.989438 
2.214112 0 -0.7670354 
-3.608602 0 0.00519882 
-3.921746 0 -3.231154 
-4.87107 0 3.796794 
4.342381 0 3.202147 
-3.619423 0 0.04338839 
-1.428718 0 2.50118 
0.350972 0 2.241367 
3.362755 0 4.100602 
-2.64856 0 3.677216 
-3.062915 0 -1.037238 
-2.020139 0 -3.02194 
-1.032085 0 3.50872 
1.362394 0 -0.5951391 
-4.485592 0 -2.162299 
2.976548 0 -0.4880801 
-1.882812 0 -3.637337 
-3.620245 0 1.750879 
-0.04795051 0 -0.103458 
0.7146217 0 -0.646812 
-2.110648 0 4.32303 
-0.9163953 0 -1.945624 
2.957577 0 -3.740777 
1.011332 0 1.631636 
1.024451 0 3.281628 
0.9780193 0 -3.512589 
1.062341 0 -2.433042 
-1.612942 0 -4.536483 
-1.949016 0 -4.003559 
0.1686203 0 2.866484 
-2.475878 0 3.993247 
-0.3653052 0 -4.133795 
4.480749 0 -3.177248 
-3.865827 0 0.4897427 
1.705515 0 0.2811789 
-1.760474 0 -3.485442 
-1.028151 0 0.5402584 
-4.271619 0 -1.252566 
4.441829 0 -2.313107 
2.139688 0 2.00982 
0.5716649 0 3.424361 
0.6122497 0 0.2445918 
2.956996 0 0.6884937 
2.225875 0 -4.089561 
0.738753 0 3.900425 
1.881847 0 0.0182315 
-1.904407 0 0.4209303 
1.244544 0 4.780434 
4.818197 0 3.691046 
-3.598374 0 -4.227009 
1.784715 0 1.188694 
3.584993 0 3.671974 
-2.071059 0 0.3807063 
-4.997346 0 3.261832 
4.743816 0 -4.18444 
0.9658329 0 4.296982 
-3.128265 0 -1.828337 
4.381109 0 -4.789114 
-2.854121 0 -0.530659 
1.125794 0 2.680286 
2.538778 0 -3.414989 
-0.6344655 0 4.167977 
-3.39569 0 -4.801391 
4.687747 0 0.1172677 
-2.481781 0 3.667665 
3.518927 0 -1.622157 
2.916642 0 3.443914 
-3.390029 0 3.246149 
-0.9300781 0 0.680865 
4.376376 0 4.986771 
-3.302965 0 2.356562 
4.68725 0 -1.787038 
-2.461024 0 2.168244 
0.6948344 0 2.999157 
-0.3441861 0 -1.624599 
-3.3315 0 1.683969 
-0.3350543 0 4.207919 
-0.1144156 0 3.330418 
-2.802951 0 0.6176893 
-2.719804 0 3.771925 
-3.463102 0 -1.457638 
-1.83669 0 3.853931 
3.862917 0 -2.987448 
-1.043796 0 -2.478265 
1.13528 0 -2.861333 
4.123151 0 -0.9273218 
3.665768 0 3.191209 
1.211534 0 -2.470253 
-2.560132 0 -2.395348 
-0.4587258 0 1.417692 
-2.929663 0 0.7234821 
-0.9060842 0 3.775908 
-3.717616 0 3.723534 
-4.594517 0 -0.1205156 
-2.399229 0 4.965867 
1.300028 0 -1.566987 
1.664712 0 4.833392 
-0.04067259 0 -1.733571 
-1.384567 0 0.4856694 
4.398949 0 -2.697554 
-2.486779 0 1.040697 
-3.625648 0 0.8215463 
0.02886108 0 -4.95624 
0.5539505 0 -1.354146 
0.241079 0 2.881867 
0.4554245 0 4.298278 
1.556016 0 4.441741 
-0.818118 0 -0.9843411 
2.964193 0 0.3931282 
-4.771384 0 -0.0009894045 
-3.411273 0 4.882098 
2.596243 0 -3.295649 
-3.214526 0 -4.071057 
2.617521 0 3.610172 
-4.932616 0 4.698779 
2.502881 0 -0.7775271 
-2.427908 0 -0.5957353 
-3.850533 0 -2.109375 
-3.289058 0 4.102122 
-2.711967 0 -0.05535843 
1.76308 0 1.97256 
4.664266 0 1.02202 
-0.0538597 0 0.4072787 
-0.8489435 0 -3.018111 
-1.337504 0 1.808375 
-4.09065 0 -3.704556 
0.1079986 0 -4.127196 
-4.556596 0 -2.689155 
-1.630266 0 -4.628024 
-2.910749 0 -4.475356 
3.413132 0 -2.264991 
4.836943 0 1.764985 
-4.302386 0 -4.4069 
-4.959522 0 2.393596 
3.01441 0 -3.202294 
-1.890713 0 1.201618 
2.9309 0 -2.546824 
3.786031 0 -3.872726 
3.693576 0 0.4993995 
0.3508131 0 3.451763 
-3.545371 0 2.325762 
-4.818495 0 1.700489 
4.255709 0 -3.916288 
0.5139349 0 -3.114418 
3.739763 0 -0.1790489 
-3.411979 0 3.65391 
0.06418917 0 4.89236 
4.590681 0 -2.850704 
2.15274 0 -1.667234 
3.833106 0 -4.9962 
0.7716776 0 -1.88148 
-4.777059 0 -3.392758 
-1.927341 0 4.649899 
-3.639437 0 0.9410205 
0.27602 0 0.1891347 
1.403653 0 -1.924799 
2.716191 0 3.577692 
1.897012 0 3.799919 
1.129387 0 1.019833 
-3.575709 0 -4.248144 
-4.475323 0 4.936455 
-2.676103 -0.0004891926 -2.895479 
-1.662382 0 3.259882 
3.392766 0 -3.707787 
-3.576729 0 -3.142515 
3.925424 0 -3.209379 
-0.4581591 0 3.386734 
2.551912 0 -1.857902 
4.362044 0 -1.698223 
-1.371096 0 3.594992 
1.964041 0 1.659701 
-0.2365371 0 -3.979842 
1.13808 0 0.9382564 
1.887503 0 4.63799 
-3.249591 0 3.872063 
-4.826553 0 0.4535178 
-3.719689 0 -2.838876 
-3.855267 0 1.095633 
-4.021269 0 -0.6212441 
4.30168 0 1.089664 
3.763818 0 1.153805 
0.6068732 0 -2.013549 
2.865702 0 3.322407 
1.048556 0 -4.260459 
-1.66657 0 1.528422 
2.502836 0 1.323908 
1.98068 0 -3.648769 
-3.925088 0 2.138063 
-4.870235 0 1.98027 
0.8908874 0 -3.575479 
-2.988915 0 4.290691 
-3.42494 0 0.422263 
-4.949069 0 -1.97845 
-0.2968324 0 1.793711 
-3.367168 0 3.894899 
-2.093758 0 2.447228 
-0.5526313 0 -3.629474 
1.246277 0 -3.096846 
2.528067 0 -2.629323 
-4.695704 0 0.3115519 
0.6697946 0 1.42532 
-1.967492 0 4.256141 
2.664127 -0.004153875 2.012119 
1.506873 0 -3.631569 
1.140021 0 0.1995024 
-4.834544 0 4.784377 
1.885017 0 3.557146 
-0.4365153 0 1.653407 
-2.534766 0 -4.982452 
1.968971 0 -4.957486 
-0.8315033 0 -4.115112 
3.372196 0 3.6601 
-3.235598 0 -0.205165 
-4.527044 0 0.9557729 
1.875193 0 2.252718 
0.723107 0 -0.1834957 
-3.677936 0 -0.5981128 
4.008997 0 -3.222799 
-4.998574 0 1.181086 
-2.073786 0 -0.1062398 
-1.855903 0 -3.428587 
-4.239964 0 -2.676286 
4.504106 0 1.971435 
2.21954 0 1.577088 
-3.50243 0 -3.957881 
0.2505938 -0.0001887275 -0.1722253 
3.488974 0 1.290281 
-4.656468 0 -3.087602 
-0.4276812 0 -3.55716 
1.378457 0 1.896204 
3.935954 0 -1.693484 
4.123483 0 -0.9125972 
2.501858 0 2.921242 
0.4872976 0 -4.333252 
-2.729187 0 2.797407 
4.847755 0 4.994148 
-1.711908 0 -3.847305 
2.994915 0 -1.0398 
3.039412 0 -1.779275 
-4.611017 0 3.637524 
4.856898 0 4.715305 
1.484652 0 -3.458772 
-0.2704194 0 0.3396069 
1.215705 0 3.773072 
1.217123 0 -1.940651 
4.951035 0 -3.741205 
0.8175824 0 3.446922 
3.81269 0 1.343015 
-3.532581 0 0.4134932 
-2.315016 0 -3.267761 
-4.204026 0 -0.4911386 
3.503829 0 2.681456 
3.996027 0 3.400381 
2.682219 0 -1.090411 
-1.791232 0 -1.298699 
3.040763 0 3.663697 
-4.694414 0 4.305235 
-2.8995 0 1.610897 
-1.116036 0 -1.837783 
-3.17358 0 -2.476185 
2.397816 0 0.3321879 
-1.087315 0 -4.802612 
3.040935 0 -1.331987 
-2.012269 0 -4.342544 
-2.055081 0 -1.717243 
-3.084417 -0.0007278076 -3.057451 
0.3986436 0 2.812981 
0.306206 0 2.204742 
0.1273108 0 0.7627441 
0.8073343 0 -1.076421 
1.874448 0 -2.411435 
1.728998 0 2.80646 
-4.743258 0 -3.447568 
-2.268793 0 3.444799 
3.544286 0 -2.41984 
-2.263301 0 -0.05303781 
-1.292738 0 -2.205016 
-1.83912 0 0.8457168 
1.220539 0 2.485348 
-0.4871882 0 -0.6693857 
4.761013 0 -0.5896456 
0.7357036 0 -2.847226 
1.404059 0 -0.8711991 
0.2095135 0 -2.399885 
3.996151 0 -3.11365 
3.914639 0 -1.263521 
-2.478986 0 0.3676856 
-4.52523 0 -4.26054 
3.951077 0 1.212106 
2.974339 0 -3.224399 
4.681695 0 4.727501 
2.404401 0 -1.95242 
0.8928572 0 -4.833465 
-1.000148 0 2.569633 
-2.049191 0 -3.779868 
4.794943 0 0.436973 
0.9343911 0 -3.770037 
-3.001655 0 1.069127 
-2.868014 0 3.794806 
-2.095409 0 -1.620255 
-1.995449 0 -2.65154 
4.518587 0 2.302308 
-0.09635717 0 -3.305701 
3.728657 0 4.239936 
-1.604889 0 3.877553 
-2.394266 0 -3.308423 
-2.771648 0 -4.344914 
3.963505 0 -3.540053 
-0.3102548 -0.004240513 -0.8470324 
-4.669649 0 -1.903971 
-0.942296 0 2.958756 
0.5429273 0 3.649036 
0.7514786 0 0.8820113 
2.997248 0 -1.565024 
-3.137159 0 2.931653 
3.538463 0 0.9793635 
3.873921 0 4.161952 
0.7030015 0 -0.2658175 
-0.3735235 0 -3.810755 
-1.736703 0 4.635918 
-3.769141 0 -1.645533 
-0.071996 -0.001658034 -0.5455651 
3.253987 0 1.739242 
-3.731828 0 3.889017 
3.84596 0 -0.2132856 
2.252171 0 2.055085 
3.26492 -2.89724e-05 2.625184 
4.57242 0 2.941854 
3.021655 0 -3.404737 
-3.981602 0 0.8498947 
-4.193128 0 -1.505441 
0.3190826 0 0.07571516 
-1.22093 0 -0.6395725 
-1.044423 0 -0.2782226 
-4.82381 0 -2.236066 
-1.968738 0 -3.618441 
4.258097 0 0.1341886 
0.01166637 0 -0.1132419 
-1.348003 0 2.938929 
-3.274104 0 -1.8748 
4.815614 0 -1.018889 
-2.208001 0 4.635203 
-4.233464 0 -1.719646 
-4.404656 0 0.4532178 
4.661308 0 3.205275 
2.12637 0 3.692217 
0.6571402 0 4.796525 
-2.742389 0 -1.63373 
-0.2832651 0 0.7862213 
-2.117265 0 -3.617762 
-2.518122 0 2.137318 
-2.8191 0 -0.1278136 
-2.640899 0 4.980701 
1.540275 0 -0.9736135 
3.816967 0 2.754667 
0.06927112 0 1.439622 
-2.020615 0 2.62477 
0.1338859 0 1.032905 
-1.77276 0 -2.659442 
3.256487 0 -2.87685 
-1.918565 0 3.210148 
4.268032 0 -0.9517985 
0.4900305 0 4.974232 
2.816652 0 1.447135 
1.233081 0 -4.916983 
-1.553754 0 2.156045 
-4.30409 0 -0.1163104 
-0.9931166 0 -3.732056 
-3.126277 0 -3.946311 
3.585549 0 -2.499906 
-4.157016 0 3.700554 
1.977267 0 2.059018 
0.2184949 0 1.59968 
2.879498 0 -2.616178 
-1.680389 0 -3.036458 
4.235159 0 -2.142233 
-2.511084 0 -1.155853 
-4.567511 0 3.122324 
-0.261484 0 4.636819 
2.653578 0 -4.442662 
-2.051629 0 -1.014867 
2.998511 0 -3.716191 
-0.8313495 0 1.002977 
-4.749023 0 1.141189 
-4.071014 0 2.231746 
2.470436 0 -0.5342678 
1.718426 0 -2.751093 
1.516944 0 -3.17316 
3.780292 0 -0.8449061 
-3.786629 0 0.3186254 
1.840381 0 -0.5409017 
0.4788523 0 -1.346061 
3.220213 0 2.40349 
-4.223684 0 -0.3503801 
-4.13096 0 -1.670002 
4.957047 0 2.579157 
-2.066887 0 4.813548 
0.6988856 0 1.860924 
3.260174 0 -1.560358 
-1.021389 0 4.538259 
3.497616 0 -3.050153 
-4.788967 0 4.201789 
4.338501 0 -0.5213956 
0.8934041 0 4.499446 
-1.768303 0 3.48836 
4.534867 0 -3.875509 
-2.934056 0 -0.2325678 
-3.802038 0 -0.2319033 
-3.230514 0 0.6595308 
4.057254 0 -1.845561 
2.506511 0 -1.148186 
1.585721 0 -4.26803 
-0.7514556 0 -2.151368 
-4.46761 0 4.554304 
4.913205 0 -0.3302683 
1.921549 0 -2.62764 
0.1305946 0 3.244193 
3.051122 0 1.764057 
-4.420917 0 0.5313836 
-3.877112 0 -2.196572 
-3.672167 0 -3.153499 
-0.2937085 0 -0.5781965 
3.92877 0 -3.021754 
-4.25351 0 -1.988811 
-2.475693 0 -2.321334 
0.0005115792 0 0.792055 
-1.171593 0 1.688365 
-1.919969 0 2.773729 
-2.457937 0 -1.530267 
2.827009 0 3.892712 
2.703592 0 -4.432989 
4.486041 0 -3.336689 
0.6710921 0 0.6536288 
1.027317 0 -4.430131 
2.237 0 3.915966 
4.954787 0 -1.159154 
1.406629 0 -2.763785 
-1.2678 0 2.191275 
-2.776643 -0.0007518472 -2.863321 
-3.580803 0 -3.129097 
-2.952002 0 3.322723 
-4.622765 0 1.005904 
4.846841 0 -0.03340212 
1.734166 0 -3.178891 
0.1322386 0 -3.938521 
2.915694 0 -1.305916 
4.697296 0 1.34382 
4.831254 0 -3.033152 
-4.345352 0 -0.2677276 
-1.854416 0 2.394708 
-0.4375196 0 -2.900651 
2.137913 0 -1.389545 
-1.550432 0 2.768268 
-1.032239 0 0.9833494 
-0.5543441 0 2.593169 
-1.109648 0 -1.75512 
0.740919 0 4.351499 
-1.037843 0 -2.049243 
2.663846 0 2.737605 
2.146633 0 4.983956 
-1.701444 0 -2.617125 
-1.046699 0 -4.413101 
-4.932021 0 0.4870566 
-1.374187 0 2.749293 
0.9944581 0 3.526783 
-1.34447 0 0.3361093 
-1.214701 0 -3.549521 
-4.269076 0 -1.968132 
3.122153 0 1.169487 
2.097792 0 3.37818 
-2.042835 0 3.787219 
2.776928 0 0.2109438 
-2.59407 0 -1.326257 
-1.271963 0 1.565637 
3.995072 0 -3.89808 
2.974273 0 -2.597785 
-4.644222 0 3.745636 
4.774346 0 -3.158354 
-4.596689 0 4.176868 
2.914368 0 -4.491254 
0.9970598 0 0.4961512 
0.6745696 0 -3.633391 
-2.995329 0 1.641455 
-1.035761 0 1.895002 
3.385189 0 -4.761702 
-1.343616 0 -2.755328 
-0.125298 0 3.062603 
0.7913981 0 4.89026 
-2.428308 0 2.971952 
4.286704 0 -0.6748367 
4.652225 0 2.120083 
3.238132 0 -1.59753 
-3.262925 0 -4.819211 
-4.241064 0 4.271233 
0.4605428 0 -2.6496 
2.833972 0 0.84603 
-1.034707 0 -3.922281 
-2.209172 0 -4.310366 
-2.713882 0 4.391448 
-3.387289 0 4.78917 
-4.158107 0 -3.33496 
-2.320395 0 -0.5555933 
0.6134293 0 1.225473 
-3.880674 0 -3.906029 
1.48718 0 -0.07163172 
-0.5599161 0 1.751504 
1.399093 0 -1.984104 
4.901378 0 0.7018528 
-0.8729122 0 -2.331584 
-0.798189 0 0.1058457 
-3.039597 0 2.016858 
-2.890908 0 -4.571622 
-2.838077 0 -4.861395 
-0.1466114 0 3.28294 
2.083048 0 -2.279546 
-4.073359 0 1.22869 
0.2786058 0 3.173494 
2.209022 0 2.018044 
0.6266156 0 -4.981313 
-3.308035 0 1.403771 
3.994809 0 1.914885 
0.7119077 0 -3.359647 
-2.930569 0 2.262197 
3.88258 0 0.7145877 
0.8932739 0 -4.146274 
0.1519535 0 0.4714542 
-1.812056 0 3.93305 
-1.94237 0 2.026527 
1.387965 0 3.821027 
-0.2138651 0 2.253993 
-4.900801 0 -1.211169 
-0.07395708 0 3.899095 
-0.6450433 0 3.601627 
1.625928 -4.687024e-05 0.8409318 
-1.83358 0 -3.316736 
4.611336 0 -4.596197 
1.490148 0 1.63525 
-3.638909 0 -1.229766 
-4.497865 0 2.397189 
-4.657229 0 -3.437325 
-2.743936 0 3.22402 
-4.190194 0 -0.1807747 
-2.199069 0 -1.13938 
-4.438736 0 -1.244437 
4.366906 0 -2.486875 
-2.428356 0 4.082802 
3.917254 0 -3.339712 
-3.976802 0 0.9868385 
1.470049 0 -3.276563 
-3.559506 0 -2.667065 
4.590784 0 2.801877 
-4.479294 0 3.97068 
0.01150061 0 4.598788 
1.524829 0 -0.5757031 
-2.318786 0 1.79666 
-1.047109 0 2.232388 
-2.479853 0 -0.8121878 
-0.2968542 0 0.03647508 
-1.686003 0 2.955163 
-2.352736 0 0.6270345 
4.797637 0 -0.116237 
2.550209 0 -3.580421 
-3.694317 0 -3.866691 
-4.407066 0 4.603519 
-2.71657 0 -3.437181 
-2.317216 0 -1.177244 
-1.773899 0 0.0819363 
-2.090191 0 -0.9879054 
-2.943581 0 -1.092771 
-4.882305 0 -4.294518 
-4.851326 0 1.335668 
-1.690171 0 -4.398782 
-0.5390043 0 -4.774513 
4.0814 0 -1.438979 
-1.119392 0 0.2077043 
-1.307216 0 -0.8202358 
2.519457 0 4.066755 
0.9030567 0 -3.183802 
-3.088417 0 1.623787 
2.346738 0 -4.119214 
-2.079673 0 3.85175 
3.833924 0 -0.1791761 
-3.402676 0 -4.030553 
4.0256 0 0.1113916 
-3.195097 0 -1.907396 
1.509882 0 1.687433 
1.829131 0 1.115569 
0.006163657 0 -0.27176 
2.259841 0 2.713698 
-2.84226 0 -0.8632225 
-2.862136 0 -1.246394 
0.4355905 0 4.335824 
4.950476 0 -0.04983629 
-3.582505 0 -3.558046 
2.022623 0 1.311357 
1.975179 0 4.590511 
-2.15347 0 -4.645782 
-0.7003839 0 2.382159 
0.2411537 0 -4.017872 
4.397292 0 0.06191587 
-0.8311337 0 -2.128214 
-4.97757 0 3.218372 
-3.469413 0 -2.722396 
-0.6933673 0 -4.717922 
2.70882 0 4.386004 
0.8327327 0 4.279772 
-2.455971 0 4.504799 
1.054505 0 -4.094049 
1.676609 0 -2.96577 
0.2806595 0 -1.632983 
2.6613 0 3.924441 
3.793056 0 2.149462 
-1.853308 0 -1.184026 
-4.844065 0 -0.2603436 
-0.04122671 0 -2.863006 
4.065507 0 -0.1188327 
2.094642 0 -1.899518 
4.17749 0 1.573398 
-1.216722 0 4.116706 
-3.982631 0 1.780967 
2.722926 0 1.00105 
-0.5299006 0 4.131804 
3.510307 0 -3.636953 
-0.281299 0 -1.3732 
-3.540286 0 -3.194104 
0.1866825 0 -1.061072 
1.014539 0 3.276113 
-0.1313228 0 1.371238 
-4.395394 0 1.124974 
-4.929256 0 1.454872 
3.280432 0 4.329512 
-1.481833 0 -3.111362 
1.509361 0 -0.5230235 
-1.343847 0 1.803411 
3.197608 0 3.582031 
-0.285234 0 -1.473001 
-4.968618 0 4.790392 
2.274401 -0.002253201 1.277033 
-0.6055722 0 0.4831856 
-0.7215654 0 3.272942 
0.5258843 0 -1.535514 
-4.419762 0 1.695755 
-1.096587 0 4.385617 
3.120682 0 3.702622 
-2.14362 0 4.163588 
-1.324803 0 3.225866 
2.941577 0 3.69128 
3.930735 0 -1.946847 
0.3694322 -0.001476731 -0.3225217 
0.9174917 0 -3.608086 
-1.240991 0 2.855363 
-4.114183 0 1.131564 
-0.09464079 0 4.739341 
3.202806 0 -0.6281643 
-2.877472 0 0.01402513 
