ply
format ascii 1.0
element vertex 1535
property float x
property float y
property float z
end_header
-11.309606 -8.313519 23.214042
-10.611137 -8.401955 23.344643
-10.274545 -7.612955 24.049195
-9.500267 -6.990435 24.157621
-8.111529 -6.143930 25.304027
-7.697176 -6.191372 25.214530
-6.890705 -4.719077 25.423774
-6.161389 -5.213030 25.786365
-5.903003 -4.318145 26.179415
-5.187625 -4.032905 25.758484
-4.946236 -3.319649 26.709850
-4.553116 -2.670888 26.550050
-3.224628 -3.168396 26.760506
-2.406519 -1.731944 27.518859
-2.277507 -1.144861 26.987724
-1.527598 -1.322628 26.648430
-0.846826 -0.386889 27.080388
-0.531315 -0.348541 26.600806
0.005316 0.229789 -27.466102
-0.824713 -0.621923 -27.082578
-1.097511 -0.646837 -28.057447
-1.274084 -1.266180 -26.225560
-2.731400 -2.446432 -27.089108
-2.928814 -2.220566 -26.676718
-3.950750 -2.712260 -26.840614
-5.112638 -4.305241 -26.370201
-5.129489 -4.441137 -26.196559
-5.576917 -4.421151 -26.532480
-6.444005 -5.463181 -26.743750
-6.773461 -5.940594 -25.765505
-7.284003 -6.150984 -25.269123
-8.735185 -5.431469 -24.811924
-8.439617 -6.891501 -24.151764
-9.755746 -7.732311 -24.355319
-9.791182 -8.232337 -23.433752
-10.032786 -8.964652 -23.599696
-11.450347 -9.803015 -22.582324
-11.046137 -10.447393 -22.563518
-11.841643 -9.603241 -21.659639
-12.239393 -10.402197 -21.886869
-13.114058 -10.469143 -20.717041
-13.802222 -11.508579 -20.792472
-13.402177 -11.442515 -19.671607
-14.917415 -12.640131 -18.853085
-15.273065 -11.851163 -18.836468
-15.646454 -13.126843 -17.280381
-16.526126 -13.209351 -17.254234
-16.292366 -13.287186 -16.729408
-16.809276 -14.461501 -15.848481
-16.737840 -13.564555 -15.004125
-17.295444 -14.582456 -14.616853
-18.089372 -14.612431 -13.678771
-18.274024 -15.553883 -13.247800
-18.313485 -15.284076 -12.334849
-18.666016 -15.615383 -12.176918
-18.759693 -15.700466 -10.387981
-19.237973 -16.608813 -10.116511
-19.976638 -16.313236 -9.756189
-20.034074 -16.137134 -8.348189
-20.241849 -16.397388 -7.918715
-19.355265 -17.457732 -6.170666
-20.350687 -16.786269 -6.219528
-19.739561 -17.031874 -5.239378
-20.359951 -17.067877 -3.835891
-20.585745 -16.692849 -3.760983
-20.403740 -17.110331 -2.810760
-21.175797 -17.440422 -1.560863
-21.034320 -16.980483 -1.701006
-20.957793 -17.339822 0.605929
-20.901738 -17.491579 0.632563
-20.931939 -17.042301 2.082538
-20.816899 -17.443841 2.108852
-20.561144 -17.614562 2.869598
-20.131466 -16.701480 4.670700
-20.966062 -16.741814 5.010411
-20.619892 -16.742247 5.784451
-20.883506 -16.677011 6.155323
-19.966609 -16.446071 7.717217
-19.649744 -16.930868 7.949679
-19.817618 -16.724243 9.433810
-19.462923 -16.620612 10.277259
-18.575720 -16.418063 10.410549
-18.944323 -15.099890 12.114474
-18.568153 -15.387978 12.011774
-18.268434 -15.878318 13.067172
-18.362164 -14.545778 13.899275
-17.239248 -14.824447 14.645127
-16.942760 -14.139468 15.099714
-17.139928 -14.173705 15.818434
-16.372711 -13.251492 16.554952
-15.537009 -13.063380 17.520446
-15.694718 -12.685207 18.755373
-15.176372 -12.719942 19.145023
-14.147820 -12.871383 18.918928
-14.416770 -11.930222 19.670518
-13.644970 -11.039173 20.381397
-13.365121 -10.373404 20.629120
-12.605921 -9.542858 20.683178
-12.926835 -10.763378 21.544766
-11.457094 -9.646275 22.067361
-10.561804 -9.070683 22.014900
-10.325611 -8.464353 22.945688
-11.044273 -7.831958 24.258239
-10.087196 -7.433994 23.691652
-8.849972 -7.161632 24.132294
-8.227717 -7.021336 24.732782
-7.720826 -6.544925 25.070356
-7.075112 -5.768705 25.398176
-6.675831 -5.138216 24.955124
-6.297225 -4.883779 25.752328
-4.535119 -4.952997 26.434607
-4.557291 -4.119019 26.177704
-3.810553 -3.272389 26.930412
-2.947445 -3.417881 25.879243
-3.475113 -1.914493 27.174298
-1.790721 -1.047746 27.364204
-1.599384 -0.807224 27.682432
0.092496 0.236831 26.746296
0.755956 -0.261324 27.002714
0.454360 -0.530604 -26.853273
-0.374961 -0.744572 -26.754382
-1.294227 -0.851526 -27.171120
-1.526774 -1.318812 -27.362361
-1.894904 -1.459666 -27.054267
-2.714667 -2.755161 -26.761317
-4.358657 -3.837966 -26.550817
-4.137037 -3.643338 -25.983749
-5.137234 -4.047481 -26.707262
-5.202493 -4.845385 -26.987521
-6.394236 -5.297360 -25.250181
-6.630764 -6.124541 -25.682806
-7.054948 -7.199506 -25.700361
-7.672329 -6.963178 -24.849951
-8.363502 -8.351077 -24.474652
-9.320422 -8.805956 -23.699479
-10.122903 -9.218542 -22.772134
-10.258752 -10.254641 -22.937196
-10.733167 -10.519883 -23.958132
-11.224280 -11.162875 -22.548491
-11.331001 -11.223158 -21.608792
-12.234307 -11.766599 -21.758917
-13.388265 -12.197656 -21.058294
-12.925359 -11.946935 -20.358599
-12.408985 -12.416032 -19.193696
-13.968584 -13.040535 -19.042659
-14.575385 -14.268919 -19.115163
-14.960598 -13.978088 -17.682102
-14.827076 -14.054123 -16.891945
-15.155232 -14.515255 -17.205258
-15.514765 -14.455666 -15.590250
-16.623060 -16.062478 -15.254916
-16.555485 -15.867317 -14.800034
-17.556226 -16.188415 -13.804064
-16.881572 -15.741806 -13.010798
-17.593506 -16.707206 -12.225490
-17.976280 -16.839905 -11.166851
-18.350616 -17.020113 -11.624166
-18.406135 -17.418177 -9.678945
-18.417791 -17.072947 -8.355788
-19.582071 -17.451123 -8.254604
-19.383762 -18.343811 -7.883557
-20.225348 -18.056024 -7.028285
-19.591501 -18.836810 -5.526337
-19.350740 -18.003060 -5.881238
-19.528336 -18.975299 -3.854830
-19.629795 -18.038067 -3.314468
-19.340306 -18.142339 -3.050176
-19.826434 -18.627475 -1.923943
-20.009664 -18.133852 -1.073126
-19.434577 -18.999446 0.055456
-20.554478 -18.254585 1.040112
-20.307270 -19.565868 1.901322
-19.279489 -18.368967 2.291616
-19.521986 -18.282365 3.467619
-20.146595 -18.017602 4.062061
-18.616876 -18.533618 4.871126
-18.757753 -18.012203 5.566418
-18.647752 -18.409198 6.480029
-18.993991 -17.508922 7.214508
-18.508757 -17.765291 8.227820
-18.955214 -17.332053 9.371219
-18.678929 -16.611346 10.146877
-18.301664 -17.041310 11.041667
-17.456534 -16.765543 11.690835
-17.397059 -16.513693 11.711217
-17.373149 -16.402912 13.575779
-16.932023 -16.013742 13.949889
-16.293383 -15.695773 14.081014
-15.991378 -16.447962 15.608313
-16.702134 -14.628116 15.985428
-16.031572 -15.282809 16.500872
-15.501386 -15.018260 17.487368
-14.711442 -13.542725 18.199920
-14.454653 -14.131724 18.022499
-13.875631 -13.089155 19.298161
-13.641532 -12.540325 20.599069
-13.662714 -11.436850 20.560842
-12.653240 -11.700700 21.170698
-11.799024 -11.511341 21.560701
-11.983853 -11.475560 21.390150
-11.346205 -10.477539 23.162023
-11.069589 -9.694257 22.634593
-10.175840 -9.338384 23.121865
-8.630179 -9.518513 23.959346
-8.666921 -8.674604 24.655546
-8.569951 -7.770871 24.485516
-8.251632 -7.115180 24.506442
-6.986350 -7.451656 25.395018
-7.112026 -6.084193 25.912046
-6.623019 -5.779306 25.226819
-5.351567 -5.524575 25.784867
-5.422072 -4.194649 26.364292
-4.465167 -5.159329 26.522684
-4.186207 -3.450031 25.789181
-2.671300 -2.148728 26.364197
-2.481529 -1.869320 26.529956
-1.672301 -1.603014 26.388591
-1.933163 -1.462262 27.496617
-0.960863 -0.648000 26.768200
0.258538 -0.070378 27.796331
-0.302136 -0.390734 -26.844682
-0.904076 -1.217081 -26.948692
-1.026161 -1.693749 -26.521389
-2.377979 -1.729292 -26.361029
-1.875490 -2.608571 -27.561429
-1.853804 -2.637651 -26.786792
-2.857782 -3.457697 -26.402754
-3.567064 -3.933630 -26.231226
-4.747974 -5.071983 -27.138655
-4.660061 -5.495543 -25.753913
-5.509148 -6.457915 -25.793895
-6.751853 -6.269973 -25.351861
-6.943820 -7.262145 -25.579799
-7.290928 -7.415452 -24.808893
-8.047177 -8.863467 -24.278987
-8.355929 -8.464008 -25.230648
-9.138496 -10.281217 -22.984614
-9.202064 -10.345595 -23.035554
-9.930529 -10.798280 -22.681445
-10.755281 -12.172130 -22.506843
-11.341749 -11.077316 -21.921120
-11.041342 -12.225488 -21.165566
-11.802274 -12.872853 -20.454237
-11.859892 -13.276910 -20.268311
-12.779122 -13.121948 -19.841500
-12.880369 -14.100170 -19.000557
-13.398983 -13.629270 -18.360213
-13.835083 -14.861950 -17.558658
-14.448352 -15.065133 -17.397666
-14.352375 -16.169864 -16.397620
-15.494205 -16.587537 -15.850643
-15.586462 -16.493894 -15.064158
-14.943972 -17.075346 -14.847530
-16.250745 -17.053130 -14.172794
-16.697430 -16.894358 -13.407815
-15.579675 -17.691007 -12.316899
-16.964260 -17.789590 -11.724885
-16.685891 -17.450804 -10.166569
-17.218422 -18.082326 -10.093633
-17.303455 -18.590704 -8.840167
-17.888299 -18.483787 -9.551002
-17.955999 -19.067190 -7.545983
-18.266558 -18.851163 -6.726043
-18.694248 -19.629944 -6.485957
-18.046642 -19.148700 -5.258841
-17.952518 -19.927305 -4.675276
-17.876268 -19.643816 -3.350271
-18.893407 -19.633044 -2.892585
-18.634992 -18.690389 -1.157896
-18.170493 -20.268790 -1.238189
-18.872603 -19.760526 -0.724784
-18.859738 -19.914297 1.406999
-18.330699 -19.895606 2.419631
-18.045355 -19.936782 2.629565
-18.101906 -18.558183 2.827332
-18.233780 -18.825131 4.255852
-18.022544 -19.934140 5.875927
-18.229485 -18.896535 6.162801
-18.432335 -19.172237 6.782767
-17.473999 -18.759265 8.324068
-17.861576 -19.515529 8.139086
-17.587211 -18.489442 9.019000
-17.653339 -18.675022 9.918582
-17.247952 -17.873525 10.126809
-17.409423 -18.162468 11.517061
-16.342827 -16.989886 11.744399
-17.160063 -17.527888 13.092297
-16.029759 -17.288343 14.421350
-14.960403 -16.628333 13.615410
-15.892273 -17.131310 15.105522
-14.804694 -16.264881 15.603775
-15.210444 -15.897820 16.897473
-13.644840 -15.122997 17.518468
-14.276044 -15.110165 17.795754
-13.236485 -13.953714 19.357198
-13.029777 -14.165643 20.098082
-12.473566 -13.107546 20.696894
-11.593581 -13.627777 19.710872
-12.349957 -12.388906 20.696494
-11.278086 -12.591576 21.245655
-10.042900 -12.018712 22.335735
-10.352065 -10.649324 22.506780
-9.471138 -10.935551 22.720881
-9.489281 -9.295009 23.500687
-9.303844 -9.299979 23.157297
-8.342260 -8.676538 24.125270
-7.477502 -8.530669 24.441125
-7.237067 -7.410089 24.851371
-7.291287 -7.797749 24.492273
-6.162590 -6.823127 25.255142
-5.594805 -6.039127 25.280956
-5.474337 -5.310438 25.581198
-4.579548 -4.927571 26.413625
-3.290125 -4.225059 26.030668
-3.166707 -3.632574 26.793484
-2.823642 -2.707997 26.327860
-2.455839 -2.936468 27.426559
-1.521956 -2.215494 27.774274
-1.285407 -0.694069 26.764923
-0.219722 -0.670840 27.701835
-0.306309 0.138144 26.926918
-0.157005 0.111571 -26.770825
-1.026862 0.225335 -26.565274
-1.446443 -1.186524 -27.266772
-2.431756 -1.523152 -26.839481
-2.061306 -2.783233 -27.453399
-2.396349 -3.640802 -26.955588
-3.352586 -4.616466 -27.201979
-4.135224 -4.353623 -26.908006
-4.946689 -4.741033 -26.031678
-5.223295 -5.049522 -25.567823
-6.197450 -7.246842 -25.356240
-5.463527 -7.281127 -25.662556
-6.088705 -8.207438 -25.421607
-6.880290 -8.270689 -25.257651
-7.572502 -8.743746 -25.028349
-7.764252 -9.600796 -24.946810
-9.088360 -10.178751 -23.700535
-8.980420 -10.263836 -23.171639
-9.494427 -11.185713 -22.125581
-10.463450 -12.429422 -21.843986
-9.721420 -11.915358 -21.842722
-10.534589 -12.311514 -20.850941
-10.992547 -13.081936 -20.306116
-11.572833 -14.305982 -20.817232
-11.916803 -13.987947 -19.321446
-12.594849 -14.752614 -19.198276
-12.656399 -15.234417 -18.381308
-12.373508 -15.939519 -18.591526
-13.289206 -15.861401 -17.879862
-13.470183 -16.364632 -16.404920
-14.229025 -17.173961 -15.867797
-14.187460 -17.080198 -14.880914
-15.290933 -17.286713 -14.635146
-14.780515 -18.276985 -13.484426
-15.301067 -19.181548 -12.817939
-15.749280 -17.989915 -13.107492
-15.582737 -19.661099 -11.796165
-16.270304 -18.749554 -10.721060
-16.437882 -19.625752 -9.919604
-16.143893 -18.853132 -9.595143
-16.592721 -19.324256 -8.763425
-15.982282 -19.264050 -7.369450
-17.493953 -19.795178 -6.744976
-16.838284 -20.737183 -5.608250
-17.741744 -20.676073 -5.381126
-17.311211 -19.995225 -4.245454
-17.323903 -21.113513 -2.987133
-17.884723 -20.943486 -2.559872
-17.453926 -21.191235 -1.428501
-18.266427 -21.046328 0.002847
-17.868023 -20.636917 -0.058310
-17.923257 -20.985847 0.887541
-17.180982 -20.114637 2.166607
-17.178964 -20.781195 2.679185
-16.910695 -21.224209 3.911309
-16.778264 -20.791281 4.030195
-16.625424 -20.887833 5.160215
-17.098419 -20.215043 6.205994
-16.519148 -19.775321 6.265174
-16.499324 -20.183274 7.417571
-16.065871 -19.710475 8.375901
-16.261334 -20.031716 8.614570
-16.301568 -19.792324 10.062310
-15.819787 -18.961640 11.113745
-16.536319 -19.352129 11.728531
-15.589168 -18.605862 13.063653
-15.072589 -18.516054 13.021904
-14.894574 -17.627796 13.992227
-14.275956 -17.473842 14.602028
-13.688604 -17.294544 15.391147
-14.133476 -16.478804 15.194754
-14.245552 -16.500227 17.036013
-13.221651 -16.357679 17.349594
-12.034272 -15.357764 17.939257
-13.039996 -15.241269 18.008630
-11.736445 -14.546385 19.216964
-11.552247 -13.607360 19.656516
-12.590170 -14.151648 20.479257
-11.164858 -13.811138 20.610112
-10.306323 -12.032575 21.128987
-9.938643 -12.955134 22.177633
-10.136871 -11.424058 22.629578
-10.264617 -10.966095 22.998530
-8.475418 -10.463719 23.138869
-8.450643 -10.150979 23.692735
-7.931416 -9.644823 23.815760
-7.763799 -8.668899 25.059750
-6.583475 -8.051377 25.229826
-6.850194 -7.397836 25.152449
-4.944013 -7.645376 26.222336
-5.737282 -6.958276 26.344312
-4.955629 -6.149611 26.718809
-5.103077 -4.656712 26.089548
-3.428274 -4.613368 26.248714
-3.373818 -3.769240 26.676554
-2.771201 -4.223799 27.149538
-2.713188 -2.719221 26.633721
-1.227783 -1.728477 27.097037
-0.808885 -1.273832 26.644591
-0.556515 -0.852996 27.175809
0.194612 0.508639 26.859095
0.274478 0.151664 -26.639961
-0.966058 -0.291988 -27.747151
-1.138043 -1.130441 -27.531036
-1.590496 -1.557700 -26.807482
-2.108453 -3.506125 -26.502513
-2.279548 -3.738412 -26.672446
-3.042331 -3.579205 -26.577246
-3.875487 -5.067050 -26.891083
-4.147374 -5.216017 -25.986050
-4.320255 -5.691321 -25.687310
-5.488882 -7.046587 -25.975552
-5.809760 -7.120910 -25.483367
-5.994858 -8.411234 -25.352062
-6.471062 -8.369866 -24.980517
-6.584498 -9.464982 -24.767338
-6.998220 -10.221386 -24.535484
-7.466033 -10.180421 -23.604242
-7.566625 -11.235845 -22.925301
-7.644388 -11.843613 -23.131632
-8.314562 -11.919211 -22.452550
-9.710875 -12.760897 -21.503679
-10.357440 -12.888109 -21.598018
-10.614407 -14.265434 -20.663115
-10.392772 -14.372368 -20.485258
-11.116034 -15.116618 -19.837009
-11.709003 -15.700886 -19.219584
-11.737817 -15.094618 -18.819374
-12.569002 -16.145992 -17.555602
-12.079545 -16.794837 -16.614153
-12.846995 -17.295650 -16.897154
-12.961136 -18.091679 -16.195935
-13.046485 -18.741509 -15.758925
-14.108288 -18.625052 -14.922439
-14.041063 -18.443808 -14.076924
-13.951291 -18.802959 -12.644268
-13.911796 -19.775594 -12.414011
-14.610896 -20.303046 -11.531322
-14.608878 -20.438052 -11.240535
-15.160947 -20.018561 -10.040669
-14.486733 -20.003238 -8.594640
-14.761025 -21.031648 -8.071961
-14.051076 -21.011489 -8.171112
-15.603429 -20.859782 -7.451595
-16.134338 -20.803089 -5.803178
-15.915891 -21.604247 -4.876142
-15.616076 -21.608668 -4.445961
-16.040937 -21.840614 -2.985431
-17.373712 -21.389652 -2.802289
-15.470973 -21.127394 -1.547979
-15.704689 -21.882338 -0.813233
-15.692560 -21.416309 -0.112180
-16.446000 -22.634084 1.271240
-15.552223 -22.017247 2.369931
-15.733130 -21.515710 2.696600
-15.130777 -21.703670 3.148428
-15.445204 -22.500224 4.212343
-15.250436 -22.174849 4.957542
-15.582600 -21.689379 6.279863
-15.007972 -20.813421 6.649916
-15.211995 -21.529428 7.352020
-15.156253 -20.788126 8.115975
-15.027555 -20.229905 9.566733
-14.054439 -20.305202 9.906076
-14.765659 -20.060757 10.663182
-14.811550 -20.166973 11.972833
-13.663615 -19.756391 12.731205
-13.763670 -19.726050 13.612744
-13.656843 -18.924094 14.111998
-13.495582 -18.446755 14.728246
-13.076725 -18.309385 15.327187
-12.921967 -17.989640 15.447279
-12.183756 -17.429394 16.455977
-12.273168 -16.810808 17.100763
-12.314966 -16.455359 17.597654
-12.179030 -16.003515 18.229402
-12.135335 -16.060280 19.057665
-11.328470 -15.266262 19.420718
-10.153185 -14.573717 20.792225
-10.485129 -14.287623 20.739348
-10.318677 -13.076453 21.527106
-9.583992 -12.584511 21.424769
-8.487282 -12.783668 22.691251
-8.626211 -11.059160 23.089257
-8.284371 -11.418862 22.577862
-8.020919 -10.165068 23.628612
-7.137350 -10.122439 24.320492
-6.601154 -9.922736 25.057723
-6.808885 -8.398147 24.504719
-5.507698 -7.574572 25.172056
-5.544537 -7.441004 25.314083
-4.690029 -7.563130 25.549526
-4.652717 -6.128612 25.990283
-4.090923 -5.430616 26.352298
-2.913585 -4.368060 26.413549
-2.744072 -3.724135 27.143650
-2.136543 -3.442429 26.868420
-1.989047 -2.794137 26.559778
-1.402621 -2.061680 27.498446
-1.132025 -1.857202 27.395469
-0.316155 -1.304438 26.871265
0.152978 0.139725 27.169271
-0.439092 -0.081967 -27.255959
-0.800161 -0.614391 -27.108714
-0.831320 -1.572000 -27.706985
-1.249981 -2.451941 -28.550202
-2.568529 -2.872075 -27.045609
-2.228376 -3.734370 -26.410749
-2.301455 -4.710782 -27.171704
-3.600256 -4.430158 -26.352443
-4.089318 -5.693896 -26.544407
-4.541921 -6.379076 -26.442723
-4.793968 -7.237851 -25.880542
-4.608070 -7.858751 -25.420084
-5.180627 -8.273839 -25.566599
-6.157891 -9.481773 -25.547627
-6.258709 -9.481606 -24.264396
-6.274697 -10.762923 -23.028703
-7.158990 -10.314331 -23.865138
-6.808427 -10.971753 -23.318517
-8.199277 -12.157119 -22.803218
-8.535465 -12.625053 -22.445526
-8.579474 -14.186897 -22.161427
-9.139197 -14.147778 -21.216219
-9.638515 -14.403004 -20.640339
-9.331368 -14.530821 -20.381798
-10.493482 -15.297172 -20.195467
-10.237831 -16.743648 -19.241715
-11.291770 -17.606494 -19.235279
-10.874949 -17.288081 -17.180108
-10.951169 -18.008073 -17.900855
-11.256082 -19.273899 -16.882122
-12.155850 -18.524088 -16.128922
-11.941173 -18.858810 -15.639025
-11.834678 -19.344401 -14.716509
-12.836509 -19.845043 -13.905263
-13.338902 -20.053985 -12.619214
-13.019882 -20.164008 -12.467395
-12.816163 -20.211818 -11.836715
-13.257011 -21.154011 -10.376116
-13.807976 -21.189285 -9.965201
-14.228010 -22.236199 -9.055413
-14.521229 -22.848103 -8.426170
-14.049640 -22.425144 -7.411575
-14.115581 -22.151780 -7.090290
-14.106704 -22.130539 -5.389642
-14.452472 -21.858049 -4.503986
-14.084401 -22.239510 -3.842292
-14.380752 -22.891086 -3.685319
-14.433189 -22.585557 -1.981977
-14.669173 -22.735882 -1.943588
-14.400667 -22.307809 -0.609133
-14.490271 -22.424240 0.423502
-14.712644 -22.044332 1.212377
-14.299166 -23.085129 1.269185
-15.270676 -22.342322 3.146242
-13.911122 -22.788074 3.845029
-13.831576 -22.540550 3.405480
-14.208688 -22.890875 4.741308
-13.895120 -22.547606 6.139051
-13.698138 -22.492955 7.428068
-14.030011 -21.814049 7.170191
-13.905867 -22.138776 8.655531
-13.381528 -20.927358 9.066803
-14.172154 -21.385588 10.030030
-13.295432 -21.193593 10.619626
-13.248582 -20.922926 10.880858
-12.935032 -20.240400 12.130156
-13.045787 -20.194649 13.138223
-12.624482 -19.998495 14.292307
-12.818136 -19.820348 14.995592
-11.829369 -18.920171 15.905675
-11.292804 -19.066384 15.718317
-11.938883 -18.148452 16.892334
-10.719855 -17.662674 17.034841
-11.169003 -16.985702 18.033948
-10.509029 -16.762298 18.732324
-10.477588 -16.760323 19.282418
-9.904255 -15.392979 20.019066
-9.235654 -15.393400 20.352166
-9.659633 -15.195580 21.701850
-8.802539 -14.259053 21.099509
-8.052458 -13.544566 21.411235
-8.130055 -13.224652 22.365279
-7.262877 -12.154426 23.334843
-7.549062 -11.938835 23.804480
-7.648754 -11.116696 24.085176
-6.129841 -10.690454 24.344019
-5.790920 -9.852615 23.886234
-5.645964 -9.106106 24.905378
-5.153954 -8.619628 24.422471
-5.434435 -7.772736 25.343059
-4.838704 -7.563578 26.054625
-3.967503 -6.358752 24.872289
-3.876525 -5.883632 26.330798
-2.390900 -4.965306 25.451388
-3.215217 -4.364974 26.470585
-2.068467 -2.798535 27.378171
-1.783340 -3.452555 26.865379
-2.095844 -1.091141 27.326310
-0.683445 -0.383649 26.924487
-0.879538 0.048503 27.234010
-0.318456 -0.063480 26.921562
-0.244876 -0.341757 -26.690561
-0.355443 -0.660595 -27.204791
-0.775576 -0.774505 -28.079602
-1.463712 -2.439039 -26.953918
-1.260047 -3.336527 -26.853543
-2.044781 -3.718041 -27.233497
-3.356299 -4.611489 -26.891508
-2.130232 -5.164903 -26.970810
-3.833498 -5.885547 -26.020453
-3.533369 -5.743298 -26.221918
-4.438539 -7.159128 -26.343671
-5.346864 -8.410370 -25.967884
-4.731661 -8.714341 -24.921526
-5.414811 -9.223228 -25.062076
-5.570104 -9.430629 -24.519559
-6.323150 -10.920416 -23.546822
-6.456233 -11.876578 -23.583745
-6.761182 -12.327191 -22.900991
-6.764036 -12.806198 -23.667574
-7.265459 -14.054956 -22.548707
-7.751346 -13.342479 -21.417180
-7.582588 -14.359025 -21.755163
-7.752385 -14.583193 -20.205315
-8.422513 -16.165515 -20.642249
-8.635821 -16.906294 -20.362790
-8.850333 -16.455268 -19.376099
-9.275807 -18.452633 -18.854635
-9.670908 -17.194926 -17.996855
-9.494040 -18.638884 -17.957107
-10.004416 -18.494566 -16.830914
-10.775036 -18.561948 -15.845236
-10.797671 -20.161441 -14.750578
-11.565265 -20.265822 -14.871541
-11.681184 -20.490008 -13.619909
-11.595006 -20.758599 -13.526728
-11.594446 -21.248023 -13.092059
-11.679287 -21.540825 -11.794672
-11.955208 -22.063274 -10.452884
-11.676183 -22.507038 -10.550036
-12.305845 -22.001000 -9.828232
-12.525271 -22.846271 -8.430583
-12.403523 -23.495989 -7.375659
-12.076611 -23.389976 -6.686344
-12.942529 -23.440997 -5.204036
-12.975390 -22.871235 -4.524029
-12.951279 -23.812503 -4.311058
-13.391779 -23.860201 -3.083027
-12.967125 -23.602388 -2.701837
-13.992255 -24.046025 -2.174881
-13.137482 -23.801886 -1.290231
-13.442540 -23.575015 -0.095806
-13.426384 -24.197553 1.247347
-13.105095 -23.425178 1.706199
-13.641109 -23.810359 2.894829
-12.317002 -23.620725 3.436374
-12.894936 -23.561371 4.055017
-13.344549 -23.363644 5.402951
-12.713830 -23.240263 6.379914
-12.368116 -22.827568 7.132223
-12.530021 -22.172305 7.147208
-13.440116 -22.779104 8.900254
-12.097236 -22.340102 9.442813
-11.542044 -21.740584 9.717608
-12.466087 -21.767469 10.606419
-12.219250 -21.902410 11.557587
-12.187816 -20.846337 11.544987
-11.622225 -20.378557 13.413068
-11.320238 -20.405014 13.681971
-11.195783 -20.304629 13.406558
-10.540076 -19.275876 15.458204
-10.274650 -18.667927 15.879261
-10.355038 -18.286134 16.477324
-9.962494 -17.936922 17.197154
-10.048312 -18.037979 18.331566
-9.609290 -17.353443 18.167986
-9.622094 -17.384307 19.568555
-8.839566 -16.114453 20.174546
-8.224230 -15.547733 19.729100
-8.622163 -15.187493 21.295297
-7.897093 -15.614153 21.782859
-7.272968 -13.649652 22.527263
-8.142918 -13.039459 22.364000
-7.102152 -12.847826 23.099496
-7.326630 -11.840708 23.736560
-5.702687 -11.377045 23.414924
-5.515784 -10.392691 24.383602
-6.028675 -9.573257 24.668430
-5.226286 -9.410086 24.571945
-4.311368 -8.818846 24.996613
-4.084167 -7.726152 25.596882
-4.617578 -7.540308 26.154396
-3.842421 -6.367805 25.995780
-3.013474 -5.729913 26.073027
-3.104835 -5.292067 26.846700
-2.803272 -3.869625 26.615509
-1.937517 -4.287457 26.358287
-1.017358 -2.933433 26.786266
-1.439782 -2.420689 27.037497
-0.548937 -1.186545 27.209649
-0.602283 -0.909069 26.834123
-0.014260 0.072406 26.833184
0.481936 -0.363650 -27.128208
-0.305068 -0.891902 -27.052575
-0.604911 -1.597028 -26.553370
-1.435971 -2.270641 -27.219076
-0.882196 -4.057709 -27.763488
-2.280341 -3.270685 -27.103534
-2.102205 -4.975253 -26.770778
-2.212111 -5.210937 -26.595771
-2.849191 -6.423393 -26.313924
-2.794954 -6.524109 -26.421678
-3.979600 -7.127492 -25.935544
-3.798559 -7.868383 -25.753171
-4.457395 -9.887511 -25.299497
-4.230098 -9.820413 -24.497107
-5.306090 -10.889835 -24.469407
-5.658355 -10.961930 -24.647167
-5.651885 -12.054027 -24.221427
-6.877379 -12.173232 -23.459744
-6.138381 -12.812835 -22.242631
-6.246519 -14.121659 -23.519390
-6.517765 -14.320794 -21.970728
-7.128930 -15.400513 -21.171281
-7.023483 -15.597295 -20.510814
-7.931937 -17.022129 -20.409510
-7.524349 -16.755927 -18.777882
-7.923927 -17.210769 -18.950361
-8.128455 -18.403142 -17.875235
-8.758143 -18.527120 -17.765724
-8.686538 -19.719335 -16.968876
-9.500349 -18.776382 -16.675623
-8.666834 -19.822603 -15.622146
-10.102068 -20.369549 -15.802137
-9.778483 -20.844976 -14.504725
-9.970403 -20.750896 -13.973874
-10.123854 -21.576219 -12.514523
-9.914962 -21.778978 -12.109501
-10.121536 -22.567912 -11.313037
-11.102143 -22.367996 -10.124680
-10.851223 -22.532509 -9.683278
-10.627784 -23.373538 -9.029623
-10.670830 -22.913819 -8.614866
-10.733453 -22.989291 -7.078442
-11.660774 -23.296358 -6.949229
-10.797285 -23.787077 -6.055971
-11.859478 -24.193258 -5.422532
-11.050725 -24.489633 -4.214167
-10.786802 -24.402932 -3.861634
-10.889816 -24.711905 -2.300456
-11.643781 -24.610700 -1.359011
-11.679844 -24.450089 -1.143073
-11.137169 -25.091819 -0.055962
-11.809187 -24.061831 0.712268
-11.532795 -24.587998 1.196639
-10.885570 -24.951193 2.205867
-11.778732 -24.202138 3.546070
-11.595624 -24.138394 3.961175
-10.260903 -23.773866 4.833476
-11.513649 -24.249644 5.636600
-10.874167 -24.348036 6.615149
-11.431772 -23.722736 7.747426
-10.522014 -22.788429 8.776845
-10.662135 -23.376743 8.950707
-10.319477 -22.591305 9.299540
-10.721242 -22.331832 11.068620
-10.312326 -22.662726 11.319513
-10.378254 -22.297505 12.546936
-11.027478 -21.365744 13.202112
-10.488301 -21.303404 13.681501
-9.820781 -20.363924 14.940696
-9.210912 -19.975327 15.860557
-9.225636 -19.402695 15.982520
-9.111198 -19.173397 16.277761
-9.176803 -18.357359 17.435000
-9.293608 -18.642585 17.672087
-8.415105 -17.476085 17.897513
-7.810374 -16.753525 19.855053
-8.326705 -16.527039 19.698369
-7.679023 -17.087988 20.130550
-7.358578 -16.113560 20.941032
-7.416146 -14.941915 21.513670
-7.147850 -14.642780 21.688936
-6.600660 -14.127137 22.701773
-5.072040 -13.051528 22.933410
-5.782873 -12.046392 23.523613
-4.597028 -11.775832 23.692478
-5.388337 -11.179904 24.576669
-5.189472 -10.686666 24.388838
-5.070546 -9.656626 25.190402
-4.481173 -9.193187 25.591055
-3.546451 -8.118947 25.683889
-3.401026 -7.413866 25.837740
-2.718003 -7.696094 26.160070
-3.808173 -6.754437 26.361863
-2.308298 -5.017921 26.175668
-2.010961 -4.610351 25.993720
-2.615409 -4.098628 26.483648
-1.979094 -3.261807 27.528474
-0.314691 -3.085050 26.956688
-0.518791 -1.854898 26.992361
-0.062510 -0.925400 27.436649
0.221009 -0.625419 27.208918
-0.275527 0.176221 -26.607439
-1.501299 -0.814674 -27.209040
-0.931274 -1.547616 -27.470972
-0.149234 -1.365975 -27.150368
-1.091917 -3.216995 -26.842297
-1.937941 -3.904953 -26.625850
-1.958314 -4.443653 -26.306749
-2.409092 -5.795903 -26.458926
-2.245580 -5.936130 -26.875355
-3.074434 -6.913386 -26.181442
-3.153978 -7.538126 -25.643134
-3.315966 -8.422953 -25.150376
-3.584751 -10.300541 -25.759950
-4.090491 -10.184749 -25.011578
-3.992705 -9.972623 -24.960523
-5.682427 -11.101454 -24.500029
-4.174670 -11.787438 -24.964655
-4.708283 -12.495526 -23.793645
-5.832113 -13.926905 -23.174743
-5.585033 -13.137465 -22.176373
-6.164104 -15.015340 -21.967360
-5.661341 -15.105291 -21.696363
-6.314491 -15.704450 -20.761466
-6.497797 -16.363049 -21.315859
-6.708581 -17.656930 -19.627663
-7.446632 -17.834335 -19.133399
-7.544135 -17.890107 -19.358962
-7.824930 -18.857485 -18.043223
-7.707664 -19.506208 -17.584399
-7.418304 -20.607445 -16.740554
-8.537371 -20.376658 -16.127067
-8.639449 -21.661706 -15.065381
-9.552834 -20.789965 -14.643887
-8.076385 -21.135247 -13.876538
-8.923363 -21.960767 -13.352844
-8.628648 -22.169761 -11.978340
-9.511890 -23.246026 -11.278126
-9.177000 -22.927839 -10.493068
-9.719836 -24.122344 -9.603835
-9.914467 -23.628418 -9.155642
-9.268983 -23.208181 -8.204214
-9.926522 -24.215495 -7.516074
-10.041438 -23.889220 -6.659273
-10.079564 -24.960707 -5.583972
-10.321112 -24.051185 -4.712785
-10.285099 -25.109181 -5.110360
-11.061892 -25.120280 -2.704613
-10.053393 -25.149930 -2.358513
-10.213067 -25.256465 -2.115833
-9.701678 -25.383509 -0.422652
-10.479919 -25.658000 0.111352
-10.719164 -24.376757 0.217057
-9.755970 -25.669022 2.000139
-9.622302 -25.216937 2.269737
-10.544446 -25.297708 3.851428
-8.986569 -24.641946 3.350209
-9.782697 -24.477802 4.806573
-9.708776 -24.985845 5.109100
-10.164002 -24.686712 6.957078
-9.115187 -24.246337 7.611728
-9.302004 -23.751645 7.649912
-10.179272 -23.653038 9.332858
-10.055872 -23.009206 10.241358
-8.573908 -23.361263 10.864559
-9.337548 -22.982876 11.737446
-8.769365 -22.726203 11.973403
-9.305831 -22.167235 13.021620
-8.563722 -21.532727 13.893494
-8.205630 -21.896173 14.651384
-8.127829 -20.794329 15.360717
-8.688130 -20.117168 14.879083
-7.808394 -19.429211 17.501712
-6.994957 -18.808479 17.495530
-7.492586 -19.074021 17.295131
-7.615113 -18.603469 18.555097
-6.713472 -18.028865 18.963392
-6.985063 -17.327535 20.048748
-6.509392 -16.205794 21.061768
-6.255954 -16.859706 20.541780
-6.536067 -15.639861 21.132104
-5.749159 -15.189559 21.977233
-5.639206 -14.591095 22.451351
-5.058323 -13.680570 22.562162
-5.150059 -13.359018 24.244347
-4.581591 -12.491092 23.829400
-4.437736 -11.754237 24.137606
-4.018400 -10.948953 24.047256
-4.000064 -10.045094 24.950714
-3.806835 -8.661108 24.235500
-3.245398 -8.552849 25.220521
-3.120144 -8.650377 25.583743
-3.057201 -6.533101 25.709852
-2.572884 -6.335047 26.894663
-2.266298 -5.495799 26.664826
-1.902514 -4.396590 26.008404
-1.095727 -4.525169 26.973735
-1.389874 -3.571571 27.165771
-1.439163 -2.190222 26.676942
-0.029646 -1.698098 26.667707
-0.021075 -1.715656 27.353715
-0.441231 -0.304840 27.708377
0.287911 0.117953 -26.876705
-0.027904 -0.795222 -26.722601
-1.116043 -2.223236 -27.185939
-1.211331 -2.636627 -26.829813
-0.980942 -2.906727 -26.657621
-1.357611 -3.461924 -27.271887
-2.131001 -5.098284 -26.957900
-1.821847 -5.613869 -26.160088
-2.757306 -6.407972 -26.154738
-3.308979 -7.736960 -26.423179
-2.956809 -7.755620 -26.220990
-3.199544 -8.757521 -24.976915
-3.182861 -9.737045 -24.727586
-3.386377 -9.855530 -24.361792
-3.532269 -12.060346 -25.011289
-2.968395 -12.290973 -24.015446
-3.750997 -11.835872 -24.455569
-3.630294 -13.089015 -23.439165
-4.226444 -13.610366 -23.460740
-5.624559 -14.070866 -23.072877
-4.230353 -16.103996 -21.667095
-4.386802 -16.142387 -21.215264
-5.316729 -16.744289 -21.136374
-5.353746 -17.044499 -20.385989
-5.620334 -17.343626 -19.852437
-6.287630 -18.034617 -18.859736
-6.339214 -18.574872 -19.013999
-5.758465 -18.977667 -18.750151
-6.620994 -19.229934 -16.629172
-6.209841 -20.069526 -16.640367
-6.847485 -20.706235 -15.633347
-6.399966 -21.585652 -14.971172
-7.624825 -21.917836 -14.072564
-6.374815 -21.969829 -13.171919
-7.059899 -22.378435 -12.973975
-7.668333 -23.702070 -12.516778
-7.761868 -23.356777 -12.365872
-7.220627 -23.485214 -10.643434
-7.350344 -23.891467 -9.496536
-7.995528 -24.766535 -9.298636
-8.064301 -25.296310 -9.119673
-7.779589 -24.194055 -7.343510
-7.684716 -25.675174 -7.293783
-8.228534 -24.540747 -5.096008
-8.361951 -24.798583 -4.677358
-8.210690 -25.564629 -4.979343
-8.529950 -25.750895 -3.208862
-8.619363 -25.728520 -2.451925
-8.636740 -25.650302 -1.700375
-7.912101 -26.061510 -1.417275
-8.612121 -26.185694 -0.860738
-8.360404 -26.478020 1.382241
-8.440784 -25.756540 1.780940
-7.845579 -26.105916 2.739946
-8.919577 -25.569601 2.989597
-7.574098 -25.347528 4.099166
-8.328501 -25.572024 5.441629
-8.253740 -24.947502 5.966603
-8.473156 -24.573397 6.300075
-7.821065 -24.987925 7.513269
-8.329432 -24.725627 8.420213
-7.261661 -24.123272 8.972956
-7.998134 -23.942554 9.811305
-7.613146 -23.387691 10.989713
-7.918694 -22.377574 12.072289
-7.459451 -22.985883 11.766058
-8.091239 -22.644014 12.454840
-6.913274 -22.051118 14.276516
-7.138244 -22.271048 14.104648
-7.244306 -21.532688 15.687428
-6.324981 -20.452000 16.781395
-6.925128 -20.857379 15.901260
-6.966659 -19.902339 17.823941
-6.278942 -19.076893 18.253481
-5.994440 -19.121546 17.939149
-5.441939 -18.278348 19.478956
-5.299775 -17.801707 19.141441
-5.917117 -16.526661 19.767788
-5.286443 -15.769053 20.723407
-4.886481 -15.149273 21.398962
-4.968084 -14.638205 21.422031
-4.512377 -14.847801 22.532950
-3.977319 -14.623706 23.071815
-4.477788 -13.290356 23.129303
-4.286466 -12.565152 23.237072
-3.470213 -11.575353 23.715419
-3.871941 -10.906633 24.757204
-3.612345 -10.163930 24.549036
-3.462914 -10.436969 25.095255
-2.250877 -8.376258 24.868009
-2.678407 -8.343791 25.800082
-2.592738 -5.826279 25.574422
-1.757475 -6.054960 26.346193
-2.095357 -5.493866 26.120826
-1.325916 -4.403072 26.341887
-0.720682 -4.344048 26.276735
-0.781133 -3.499773 26.671224
-1.228314 -2.433519 26.522806
-0.340594 -2.132767 27.811494
0.181831 -0.949652 27.061225
-0.121156 0.645106 27.174665
0.271029 0.652259 -26.666627
-0.563594 -1.199564 -27.035459
-0.358629 -1.465620 -26.962490
-0.695305 -2.547729 -27.344633
-0.859827 -3.556101 -27.364322
-1.048202 -4.956272 -26.604179
-0.546134 -5.130044 -26.721138
-1.657894 -6.342452 -26.858993
-2.072016 -6.892684 -25.784631
-1.981982 -7.650587 -25.814379
-2.165847 -8.061979 -25.847047
-1.897897 -9.188562 -25.093410
-1.708125 -10.225104 -25.152628
-3.188726 -10.692689 -25.393074
-3.206846 -10.472208 -24.147359
-2.088386 -11.876791 -24.488094
-2.646733 -13.395351 -24.103499
-2.623010 -12.854362 -23.175613
-3.295657 -13.834054 -23.087206
-4.054454 -14.870993 -21.932956
-4.029793 -15.284701 -21.388403
-3.628166 -15.601226 -20.697149
-4.336517 -16.156243 -20.520215
-4.204707 -18.142206 -20.295883
-4.070161 -17.827158 -19.484988
-4.887342 -19.011440 -18.597132
-5.039737 -19.022245 -18.561744
-5.251912 -20.287609 -18.070284
-5.730229 -20.017649 -16.904073
-4.952957 -20.309418 -16.530166
-5.668454 -20.833967 -16.376624
-4.967160 -21.701270 -14.978944
-6.091184 -22.348909 -14.438512
-5.786462 -23.223103 -13.471868
-5.849870 -23.280082 -12.535406
-6.236679 -23.589165 -11.567056
-6.372655 -23.960927 -11.454196
-5.863565 -23.552586 -10.431926
-6.467159 -25.808506 -10.414501
-6.243834 -25.513144 -8.215960
-6.424208 -24.813771 -8.155497
-7.227478 -25.026592 -7.403735
-6.316401 -25.259550 -7.401172
-5.937445 -25.162680 -5.968290
-6.311515 -25.557068 -5.376476
-7.161158 -25.780562 -3.948054
-7.482137 -24.770868 -3.627274
-6.562987 -26.383535 -2.337383
-5.737492 -26.268523 -1.636270
-6.404043 -26.837681 -1.284615
-6.796653 -26.331227 -0.275071
-7.027422 -25.749979 1.066913
-6.641699 -26.379376 1.985809
-7.026810 -25.974517 2.114748
-6.638551 -25.619501 3.190464
-7.600732 -26.166315 3.921270
-6.139159 -26.445353 5.077762
-6.371858 -25.972300 5.577004
-6.718326 -25.347735 6.604368
-5.889087 -25.593511 7.778702
-6.777650 -24.762352 8.092886
-5.728737 -25.160347 9.300044
-6.658101 -24.037948 9.584060
-5.729601 -23.774403 11.028631
-6.378628 -23.875054 11.225414
-6.611964 -22.321696 12.505437
-6.518861 -23.208194 12.454022
-6.352680 -23.086302 13.205946
-5.258896 -22.472694 14.626793
-5.611595 -21.860564 15.203859
-5.384675 -21.316204 15.982755
-5.392527 -20.363713 16.962256
-5.556165 -20.495886 17.541920
-5.167117 -19.591512 18.322046
-4.995361 -19.026842 18.775426
-4.846277 -18.545742 18.702882
-4.340490 -17.414834 19.786103
-3.887370 -17.455938 20.341627
-4.020849 -17.050804 21.431373
-4.532357 -16.045575 22.057527
-3.413991 -16.471531 22.279555
-3.652167 -14.363755 22.491708
-3.695905 -13.980927 23.614955
-2.626790 -13.766341 23.914835
-2.872132 -12.814466 23.963574
-1.551155 -12.371967 24.291134
-3.091557 -11.605809 24.100628
-2.067449 -10.660979 24.892167
-3.060229 -9.489814 25.629030
-1.669418 -8.327380 25.831939
-1.732318 -7.893502 26.014650
-1.554196 -7.602060 26.387522
-1.400413 -7.076028 26.001516
-1.694885 -5.681597 26.799204
-1.166216 -5.439725 26.679945
-1.229878 -3.470261 26.018006
-0.710868 -3.798072 26.649897
-0.675043 -2.667893 26.896009
-0.570028 -1.673085 27.655473
-0.197301 -0.624553 26.824199
0.088519 0.531802 27.264860
-0.087240 -0.702832 -26.989615
-1.518793 -1.250588 -27.398093
-0.779665 -2.245739 -26.765372
0.182275 -2.304543 -26.861255
-0.398090 -3.185444 -26.809825
-0.324557 -4.261998 -26.494299
-0.486557 -5.119255 -27.392404
-1.225921 -5.786037 -26.588603
-1.103163 -7.223731 -26.663607
-1.129709 -7.296454 -26.256632
-1.375838 -8.391582 -25.532183
-1.938375 -8.926741 -25.037715
-1.888917 -9.334699 -24.796798
-2.020135 -10.814514 -24.682275
-1.796929 -11.188697 -24.311247
-2.388050 -11.955893 -24.368737
-2.775726 -13.042953 -24.310109
-2.905316 -13.496365 -23.924422
-3.450260 -14.384324 -22.817514
-3.327839 -14.318575 -22.415449
-2.600994 -15.965493 -22.112775
-3.402629 -16.470970 -21.523548
-3.145316 -16.936463 -20.958261
-3.155271 -17.744260 -20.555300
-3.288005 -17.589204 -19.445724
-4.114881 -20.028633 -19.527166
-3.422679 -19.406228 -18.002202
-3.647079 -20.209881 -18.349490
-4.649299 -19.889256 -16.812867
-3.719809 -21.080438 -16.807456
-4.360260 -21.464010 -16.784474
-4.111205 -21.153772 -15.683556
-4.094641 -22.450804 -15.404665
-4.499214 -21.985908 -13.679507
-4.147082 -23.241321 -12.736713
-5.241392 -23.564723 -12.373473
-4.546288 -23.755215 -11.567250
-4.222797 -23.809908 -10.993336
-4.345125 -24.270011 -10.649172
-5.174581 -25.343202 -9.360002
-4.649830 -24.769871 -8.065038
-4.553477 -25.575521 -7.498020
-5.062657 -26.061179 -7.023480
-4.950428 -26.247334 -5.559852
-4.945877 -25.955872 -5.401000
-4.723573 -26.310164 -4.367872
-4.832654 -26.193225 -3.431572
-5.064605 -26.623237 -2.313454
-5.407339 -26.934439 -1.702679
-5.082673 -26.180590 -0.700648
-4.830092 -26.202240 0.513459
-5.795500 -26.053166 1.151274
-4.904360 -26.105598 1.312576
-5.268422 -26.981977 3.045202
-5.156238 -27.136503 3.207454
-5.341641 -26.484607 4.390939
-5.067797 -25.932064 5.086138
-4.372664 -25.540335 5.740468
-4.469558 -26.068125 7.006450
-5.157027 -26.395568 7.261174
-5.134441 -25.509512 7.842464
-5.006425 -25.588220 9.413626
-4.843856 -24.477373 9.764010
-4.175773 -24.403955 11.214059
-4.335729 -24.029975 11.607108
-3.960773 -23.912978 12.845858
-4.324790 -23.765514 13.062541
-4.188599 -23.728164 13.552738
-3.862473 -22.112015 14.586104
-3.794093 -22.189659 15.519731
-4.128261 -21.753769 15.946788
-4.074351 -21.298396 16.994976
-3.932209 -20.844460 17.317935
-3.050320 -20.094248 18.370376
-3.012324 -19.136278 18.264759
-4.366130 -18.583156 19.757049
-3.604420 -17.980059 19.322543
-2.483829 -18.141151 19.930884
-3.204353 -16.722239 20.582671
-3.396358 -15.997279 20.920703
-3.155912 -15.776137 22.189963
-2.432619 -15.281751 22.439169
-2.036243 -14.455097 23.193593
-1.966328 -13.836302 23.773818
-1.756825 -12.697208 23.374236
-2.341199 -12.003587 24.644861
-2.420427 -11.075598 25.228851
-1.599751 -10.633083 25.224905
-2.121593 -9.974625 24.868068
-1.657295 -9.624318 24.779003
-1.310289 -8.526828 25.946107
-0.814102 -7.841501 26.400709
-1.519134 -6.899588 25.773866
-1.248221 -5.989563 27.057482
-0.872549 -4.638283 26.803434
-0.514728 -4.105849 26.650100
-1.575325 -2.999448 26.904839
-0.610657 -2.669888 27.364970
-0.470409 -1.301134 27.456263
-0.213113 -0.863771 27.700653
0.218773 0.282281 27.225577
0.290963 0.132385 -26.940456
-0.226317 -1.137880 -26.203836
-0.049116 -1.870764 -27.080400
0.348413 -2.673314 -26.586865
-0.938071 -2.928664 -27.502325
-0.518867 -3.834282 -26.277357
-0.588305 -5.201611 -26.575382
-0.793006 -6.257699 -25.813510
-0.838923 -6.784964 -26.904329
-0.811842 -6.843075 -26.320783
-0.687586 -8.515653 -25.951966
-1.241372 -8.929883 -24.861577
-0.878894 -9.900641 -25.339012
-1.197043 -10.454172 -24.890907
-1.071623 -11.732755 -24.808206
-1.790505 -11.807074 -24.357166
-1.403468 -12.710146 -24.157102
-1.428006 -13.649638 -23.431381
-2.593692 -15.168105 -22.872639
-1.696727 -14.778167 -22.500268
-1.850383 -15.674508 -21.607102
-2.319771 -15.647264 -22.023919
-2.820858 -17.552120 -21.084864
-2.421726 -17.227655 -20.305837
-2.856173 -18.181679 -18.759286
-2.946168 -18.512685 -18.927451
-2.065531 -19.671469 -19.153269
-2.092523 -20.600254 -17.918392
-3.148081 -20.744840 -17.163614
-2.739073 -21.075144 -16.841304
-2.258535 -21.359636 -15.891325
-3.241390 -22.258861 -15.311196
-3.186140 -22.481819 -14.394669
-2.705531 -23.064924 -13.588304
-3.863331 -23.751125 -13.148996
-2.790434 -24.451532 -12.291538
-2.873153 -24.520623 -11.478653
-3.057639 -24.399748 -10.745625
-3.734782 -25.086031 -9.222031
-3.185957 -25.674012 -9.853855
-3.266974 -25.576964 -8.522736
-3.236831 -26.333894 -7.411960
-3.042205 -26.066888 -6.736841
-3.108345 -26.112308 -6.317995
-3.350336 -26.097697 -4.750143
-2.906775 -27.339452 -4.435351
-3.555343 -27.007034 -3.547230
-2.976288 -26.690465 -2.927781
-3.051761 -26.431859 -1.344273
-4.256338 -27.041718 -0.891733
-3.183786 -25.973183 0.033841
-3.447847 -26.844190 -0.334525
-3.193211 -26.757629 2.169056
-3.205456 -26.846396 3.504541
-2.987172 -26.693987 3.779516
-2.320658 -26.643943 3.948834
-3.348766 -26.640537 5.100519
-2.728764 -26.258022 5.529851
-2.936825 -26.072864 6.683504
-3.666206 -25.938464 7.590900
-3.010454 -25.687293 8.819433
-3.024244 -26.068958 8.985782
-3.223698 -25.607599 10.015410
-2.838624 -24.945597 11.272528
-3.447571 -24.164500 11.343059
-2.496876 -23.984281 12.866167
-3.142956 -23.752978 12.529898
-2.019178 -22.949384 14.134635
-2.096498 -22.260432 14.372895
-2.399728 -22.570310 15.151348
-2.990881 -21.316550 15.885385
-2.754492 -22.098677 16.943540
-2.545365 -20.613766 17.032167
-2.843483 -19.779306 17.817112
-2.609237 -19.583483 18.368503
-2.003294 -19.400946 18.633195
-2.589916 -18.791491 19.658598
-2.344043 -17.691598 20.497551
-1.751568 -17.497011 21.205514
-2.732911 -15.845727 21.406248
-1.656080 -16.069159 22.059309
-1.976356 -15.745884 22.578864
-2.256743 -15.267625 23.482185
-1.134883 -13.522726 23.525981
-0.995712 -12.640225 24.291100
-1.088119 -12.773748 24.220432
-1.697956 -11.708138 24.189063
-1.399170 -10.809433 24.600703
-1.368795 -10.050306 25.492104
-1.149251 -9.456012 25.788262
-1.165677 -8.085141 26.293925
-0.598156 -7.669745 25.762496
-1.014027 -7.000233 26.140281
-0.853776 -5.819461 26.761484
-0.424048 -5.032150 26.223248
-0.415544 -4.366267 27.416517
-0.848829 -3.502963 26.986573
-0.536571 -2.603173 26.407940
-0.373865 -1.743167 26.686167
0.389023 -1.587344 27.921990
-0.363752 -0.073450 27.488704
0.130686 0.397349 -26.833650
-0.502794 -1.051979 -27.601156
0.353489 -2.055456 -27.023354
0.221708 -2.531740 -26.364172
-0.086304 -3.839656 -26.947472
-0.441697 -4.135198 -26.863936
-0.193723 -4.925063 -26.682424
-0.878335 -5.137251 -26.382770
-0.443270 -6.868947 -26.095456
-0.269909 -7.779512 -26.058943
-0.341115 -7.923010 -25.397970
-0.311412 -8.968379 -25.594985
-0.164440 -10.163681 -25.854850
-0.595686 -10.974895 -24.992855
-0.575352 -12.474492 -24.901268
-0.682889 -13.305273 -24.034114
-0.998236 -12.764898 -22.909964
-0.736873 -14.068834 -23.486121
-0.410394 -14.463790 -23.918299
-1.050546 -14.598229 -23.032830
-1.407197 -15.441258 -22.686164
-0.779868 -16.358147 -21.054379
-0.585359 -17.299791 -20.959749
-1.358407 -18.683611 -20.453808
-1.695081 -19.257213 -19.568420
-1.393021 -19.435457 -19.351825
-2.096888 -20.027855 -18.783767
-1.211113 -20.175587 -18.063200
-0.682192 -21.075325 -16.610397
-1.463758 -20.748689 -16.082936
-0.886609 -22.212652 -16.066225
-2.211984 -22.495217 -16.061420
-1.299199 -23.048712 -14.669765
-1.658667 -23.630809 -13.880023
-1.260045 -24.266731 -13.267723
-0.856908 -24.470762 -12.485243
-1.629023 -24.009261 -11.840890
-1.927179 -24.913540 -11.022132
-1.214260 -25.207309 -9.449381
-1.367704 -26.019337 -8.891648
-1.196684 -25.797815 -7.844044
-2.323743 -26.368481 -7.566198
-1.493824 -26.732481 -6.595986
-0.909077 -26.933394 -6.033726
-2.377976 -26.459750 -4.642169
-1.887311 -25.723735 -4.404204
-1.531689 -26.200312 -3.450929
-1.992117 -27.305191 -2.090985
-1.525883 -26.929789 -1.658521
-1.119206 -26.965811 -1.020756
-1.674541 -27.291500 -0.136521
-1.824990 -26.476328 0.826780
-2.324757 -27.628647 1.448550
-1.373712 -26.191248 2.421589
-1.948331 -26.584812 3.415998
-2.039833 -27.256250 3.992427
-1.595432 -26.279271 4.655395
-2.028786 -26.409216 5.871874
-1.775116 -26.855868 6.601325
-2.207656 -26.298398 6.781006
-0.789268 -26.141083 8.206541
-2.007731 -24.898627 9.021709
-1.488674 -25.279018 10.750926
-1.716911 -24.594463 10.405101
-0.897355 -24.414794 11.245776
-1.106695 -24.269180 11.987161
-0.798513 -23.464663 12.234987
-1.402147 -23.481722 14.156253
-1.825516 -22.657128 14.761295
-2.093947 -22.260996 14.665889
-1.255410 -22.590144 16.091977
-0.853684 -20.874289 16.607713
-1.249264 -21.228200 17.704303
-1.265255 -20.299486 17.924214
-0.320517 -19.858758 18.973992
-0.393958 -19.213180 19.738400
-0.569690 -19.293421 20.040800
-0.864432 -18.538540 20.579960
-1.300804 -16.939295 20.525762
-1.149324 -15.861505 20.996440
-1.475833 -15.993737 22.337124
-0.322421 -15.160045 22.597012
-0.342191 -15.159927 22.466615
-0.676374 -13.423107 23.795059
-1.071764 -12.505604 24.054365
-0.687080 -12.378475 24.393305
-1.011203 -11.758969 24.594319
-0.314872 -11.251518 25.049350
-0.266941 -9.827823 25.372171
-0.663911 -8.991937 25.139540
-1.038207 -8.704990 25.467559
0.086141 -7.810683 26.078837
-0.566451 -7.120142 26.472801
-0.258545 -5.649881 25.707044
-0.349380 -5.086004 26.479556
-0.399614 -4.463090 26.778209
-0.237884 -3.162897 27.020114
0.348459 -2.904518 26.756817
-0.232610 -1.182991 27.347039
0.031149 -0.715778 26.683371
-0.500110 1.040378 26.692495
0.548857 0.357618 -27.339818
-0.044263 -1.826210 -26.734522
-0.493624 -1.685311 -27.184599
-0.064594 -2.699598 -27.239158
-0.003691 -3.144617 -26.859915
-0.338085 -4.529507 -27.459467
0.606552 -5.207601 -26.748597
-0.107762 -5.860376 -26.056267
-0.142095 -6.064851 -25.949902
0.331050 -8.085807 -26.451099
0.267176 -9.071695 -25.014772
0.049670 -9.253644 -25.379897
-0.531885 -9.595145 -25.691636
0.613241 -10.655885 -23.874164
0.284931 -11.686935 -24.249097
0.511109 -12.139694 -23.723479
0.479306 -12.583938 -23.747777
0.226431 -13.669674 -23.648001
0.296407 -15.079590 -22.834436
-0.195554 -15.591106 -23.423844
-0.067272 -16.159426 -21.585619
-0.519280 -17.143636 -21.319840
-0.102667 -17.228370 -21.041441
-0.129244 -18.782410 -20.498997
-0.049300 -18.243198 -20.266448
-0.348413 -19.793586 -19.005965
-0.003515 -19.339749 -18.372079
0.262678 -19.592757 -17.664933
0.033607 -20.802309 -17.145137
-0.854551 -21.635168 -16.310771
0.182645 -22.360766 -15.881309
1.092382 -22.493444 -15.371213
-0.090643 -23.212474 -14.236841
-0.271084 -23.140518 -13.154377
0.415451 -23.138018 -13.684014
-0.515271 -23.867890 -12.117403
0.156035 -24.218839 -10.833011
0.104540 -25.079469 -11.165072
-0.042121 -25.272554 -9.328686
0.123504 -25.591091 -9.625621
0.080163 -25.922586 -8.304428
0.365499 -25.630357 -7.777741
-0.659128 -27.178705 -6.873657
0.182085 -27.143650 -6.297517
-0.084698 -25.980864 -5.573490
0.058798 -26.900743 -4.584900
-0.368183 -27.569668 -3.630463
0.599755 -27.520751 -2.140927
0.373628 -27.408401 -2.199145
0.468097 -26.162352 -0.859119
-0.112926 -27.044622 0.061514
0.004508 -27.210753 0.787673
0.577358 -27.684278 1.278257
-0.517011 -26.873047 1.865950
-0.076002 -27.441457 3.310846
0.181472 -26.514074 3.662698
-0.395103 -26.482480 4.463996
-0.057951 -26.267538 6.172869
0.173236 -26.207991 6.738846
-0.132537 -26.496992 6.862705
0.056247 -26.033505 8.742819
0.048769 -25.351617 9.372468
0.332068 -25.830278 9.299633
0.324146 -25.174819 10.889631
-0.136078 -24.227019 11.606645
-0.268384 -24.171807 12.619315
0.194159 -22.708429 12.630430
0.350063 -23.011743 14.536535
-0.258121 -22.246222 14.579315
0.501349 -22.256763 14.383297
0.496602 -22.366551 15.870207
-0.268589 -21.202543 16.384523
-0.054749 -20.776153 18.018609
0.222165 -20.995026 18.420176
0.481541 -19.935769 18.874203
0.146746 -19.732851 19.172193
-0.466660 -18.887543 19.411799
-0.711165 -17.578158 20.765743
-0.224694 -17.420030 20.599555
0.392670 -17.004545 21.128325
-0.034437 -15.804172 21.773864
-0.261194 -15.000789 22.286739
-0.024153 -14.362331 22.492146
-0.254793 -13.209239 23.104555
0.200577 -13.465566 23.787378
0.471804 -11.995872 23.629328
-1.080338 -11.408501 24.644009
-0.362621 -10.665533 24.628580
-0.078652 -9.524845 25.742954
1.212009 -9.163904 25.301314
0.066153 -7.819388 26.497503
-0.319986 -7.680311 26.264801
0.479985 -6.038979 26.060085
0.315028 -5.997248 26.974159
-0.147235 -5.592138 27.069315
-0.103419 -3.364098 27.600978
0.462821 -3.008042 26.412430
0.099385 -3.306363 27.151115
-0.362747 -1.684571 27.214653
-0.140806 -0.409983 27.019373
0.230675 -0.399311 27.154058
-0.101759 0.240097 -27.039040
-0.196214 -1.046748 -26.976732
