ply
format ascii 1.0
element vertex 1634
property float x
property float y
property float z
end_header
23.349440 12.836463 5.082860
23.198010 12.753214 5.917300
23.023687 12.657379 6.745901
22.826642 12.549053 7.567844
22.607070 12.428342 8.382319
22.365188 12.295366 9.188522
22.101234 12.150256 9.985657
21.815469 11.993155 10.772937
21.508174 11.824219 11.549585
21.179653 11.643613 12.314835
20.830231 11.451516 13.067932
20.460252 11.248119 13.808133
20.070081 11.033620 14.534707
19.660103 10.808233 15.246936
19.230723 10.572179 15.944119
18.782364 10.325692 16.625567
18.315470 10.069015 17.290607
17.830501 9.802401 17.938584
17.327935 9.526113 18.568857
16.808268 9.240424 19.180806
16.272014 8.945615 19.773825
15.719701 8.641979 20.347329
15.151875 8.329814 20.900754
14.569095 8.009428 21.433552
13.971938 7.681138 21.945197
13.360992 7.345268 22.435185
12.736860 7.002148 22.903033
12.100159 6.652119 23.348278
11.451516 6.295524 23.770481
10.791572 5.932717 24.169225
10.120978 5.564055 24.544117
9.440396 5.189902 24.894787
8.750498 4.810627 25.220889
8.051963 4.426604 25.522102
7.345482 4.038213 25.798126
6.631753 3.645837 26.048692
5.911478 3.249863 26.273550
5.185370 2.850681 26.472479
4.454144 2.448686 26.645284
3.718522 2.044275 26.791792
2.979231 1.637846 26.911861
2.237000 1.229801 27.005370
1.492561 0.820542 27.072229
0.746649 0.410474 27.112370
0.000000 0.000000 27.125755
0.000000 0.000000 -27.125755
0.719402 0.456546 -27.112370
1.438093 0.912642 -27.072229
2.155366 1.367837 -27.005370
2.870511 1.821682 -26.911861
3.582824 2.273729 -26.791792
4.291600 2.723532 -26.645284
4.996142 3.170648 -26.472479
5.695753 3.614635 -26.273550
6.389742 4.055054 -26.048692
7.077426 4.491471 -25.798126
7.758126 4.923456 -25.522102
8.431169 5.350582 -25.220889
9.095891 5.772428 -24.894787
9.751637 6.188577 -24.544117
10.397759 6.598619 -24.169225
11.033620 7.002148 -23.770481
11.658592 7.398768 -23.348278
12.272059 7.788085 -22.903033
12.873414 8.169717 -22.435185
13.462065 8.543286 -21.945197
14.037430 8.908424 -21.433552
14.598943 9.264771 -20.900754
15.146047 9.611974 -20.347329
15.678205 9.949691 -19.773825
16.194890 10.277590 -19.180806
16.695592 10.595345 -18.568857
17.179818 10.902644 -17.938584
17.647090 11.199184 -17.290607
18.096946 11.484671 -16.625567
18.528943 11.758825 -15.944119
18.942653 12.021373 -15.246936
19.337670 12.272059 -14.534707
19.713603 12.510633 -13.808133
20.070081 12.736860 -13.067932
20.406752 12.950518 -12.314835
20.723284 13.151396 -11.549585
21.019364 13.339294 -10.772937
21.294701 13.514028 -9.985657
21.549023 13.675426 -9.188522
21.782079 13.823327 -8.382319
21.993638 13.957587 -7.567844
22.183492 14.078072 -6.745901
22.351454 14.184664 -5.917300
22.497357 14.277257 -5.082860
22.621058 14.355760 -4.243403
22.722435 14.420096 -3.399759
22.801388 14.470201 -2.552759
22.857839 14.506026 -1.703240
22.891731 14.527535 -0.852041
22.903033 14.534707 0.000000
22.891731 14.527535 0.852041
22.857839 14.506026 1.703240
22.801388 14.470201 2.552759
22.722435 14.420096 3.399759
22.621058 14.355760 4.243403
22.497357 14.277257 5.082860
22.351454 14.184664 5.917300
22.183492 14.078072 6.745901
21.993638 13.957587 7.567844
21.782079 13.823327 8.382319
21.549023 13.675426 9.188522
21.294701 13.514028 9.985657
21.019364 13.339294 10.772937
20.723284 13.151396 11.549585
20.406752 12.950518 12.314835
20.070081 12.736860 13.067932
19.713603 12.510633 13.808133
19.337670 12.272059 14.534707
18.942653 12.021373 15.246936
18.528943 11.758825 15.944119
18.096946 11.484671 16.625567
17.647090 11.199184 17.290607
17.179818 10.902644 17.938584
16.695592 10.595345 18.568857
16.194890 10.277590 19.180806
15.678205 9.949691 19.773825
15.146047 9.611974 20.347329
14.598943 9.264771 20.900754
14.037430 8.908424 21.433552
13.462065 8.543286 21.945197
12.873414 8.169717 22.435185
12.272059 7.788085 22.903033
11.658592 7.398768 23.348278
11.033620 7.002148 23.770481
10.397759 6.598619 24.169225
9.751637 6.188577 24.544117
9.095891 5.772428 24.894787
8.431169 5.350582 25.220889
7.758126 4.923456 25.522102
7.077426 4.491471 25.798126
6.389742 4.055054 26.048692
5.695753 3.614635 26.273550
4.996142 3.170648 26.472479
4.291600 2.723532 26.645284
3.582824 2.273729 26.791792
2.870511 1.821682 26.911861
2.155366 1.367837 27.005370
1.438093 0.912642 27.072229
0.719402 0.456546 27.112370
0.000000 0.000000 27.125755
0.000000 0.000000 -27.125755
0.689315 0.500817 -27.112370
1.377950 1.001140 -27.072229
2.065225 1.500474 -27.005370
2.750463 1.998328 -26.911861
3.432985 2.494210 -26.791792
4.112120 2.987630 -26.645284
4.787196 3.478102 -26.472479
5.457549 3.965141 -26.273550
6.122515 4.448267 -26.048692
6.781439 4.927004 -25.798126
7.433670 5.400878 -25.522102
8.078566 5.869422 -25.220889
8.715489 6.332173 -24.894787
9.343810 6.788676 -24.544117
9.962911 7.238479 -24.169225
10.572179 7.681138 -23.770481
11.171014 8.116217 -23.348278
11.758825 8.543286 -22.903033
12.335030 8.961924 -22.435185
12.899063 9.371718 -21.945197
13.450366 9.772263 -21.433552
13.988395 10.163164 -20.900754
14.512619 10.544035 -20.347329
15.022521 10.914500 -19.773825
15.517598 11.274195 -19.180806
15.997360 11.622763 -18.568857
16.461335 11.959860 -17.938584
16.909065 12.285155 -17.290607
17.340107 12.598326 -16.625567
17.754037 12.899063 -15.944119
18.150446 13.187071 -15.246936
18.528943 13.462065 -14.534707
18.889153 13.723773 -13.808133
19.230723 13.971938 -13.067932
19.553314 14.206314 -12.314835
19.856608 14.426670 -11.549585
20.140306 14.632789 -10.772937
20.404128 14.824467 -9.985657
20.647814 15.001515 -9.188522
20.871123 15.163758 -8.382319
21.073834 15.311037 -7.567844
21.255748 15.443205 -6.745901
21.416686 15.560133 -5.917300
21.556487 15.661705 -5.082860
21.675015 15.747820 -4.243403
21.772153 15.818395 -3.399759
21.847804 15.873358 -2.552759
21.901893 15.912657 -1.703240
21.934368 15.936251 -0.852041
21.945197 15.944119 0.000000
21.934368 15.936251 0.852041
21.901893 15.912657 1.703240
21.847804 15.873358 2.552759
21.772153 15.818395 3.399759
21.675015 15.747820 4.243403
21.556487 15.661705 5.082860
21.416686 15.560133 5.917300
21.255748 15.443205 6.745901
21.073834 15.311037 7.567844
20.871123 15.163758 8.382319
20.647814 15.001515 9.188522
20.404128 14.824467 9.985657
20.140306 14.632789 10.772937
19.856608 14.426670 11.549585
19.553314 14.206314 12.314835
19.230723 13.971938 13.067932
18.889153 13.723773 13.808133
18.528943 13.462065 14.534707
18.150446 13.187071 15.246936
17.754037 12.899063 15.944119
17.340107 12.598326 16.625567
16.909065 12.285155 17.290607
16.461335 11.959860 17.938584
15.997360 11.622763 18.568857
15.517598 11.274195 19.180806
15.022521 10.914500 19.773825
14.512619 10.544035 20.347329
13.988395 10.163164 20.900754
13.450366 9.772263 21.433552
12.899063 9.371718 21.945197
12.335030 8.961924 22.435185
11.758825 8.543286 22.903033
11.171014 8.116217 23.348278
10.572179 7.681138 23.770481
9.962911 7.238479 24.169225
9.343810 6.788676 24.544117
8.715489 6.332173 24.894787
8.078566 5.869422 25.220889
7.433670 5.400878 25.522102
6.781439 4.927004 25.798126
6.122515 4.448267 26.048692
5.457549 3.965141 26.273550
4.787196 3.478102 26.472479
4.112120 2.987630 26.645284
3.432985 2.494210 26.791792
2.750463 1.998328 26.911861
2.065225 1.500474 27.005370
1.377950 1.001140 27.072229
0.689315 0.500817 27.112370
0.000000 0.000000 27.125755
0.000000 0.000000 -27.125755
0.656509 0.543111 -27.112370
1.312369 1.085686 -27.072229
1.966935 1.627190 -27.005370
2.619559 2.167088 -26.911861
3.269598 2.704847 -26.791792
3.916411 3.239937 -26.645284
4.559358 3.771829 -26.472479
5.197806 4.299999 -26.273550
5.831124 4.823926 -26.048692
6.458688 5.343091 -25.798126
7.079878 5.856984 -25.522102
7.694081 6.365097 -25.220889
8.300690 6.866928 -24.894787
8.899108 7.361982 -24.544117
9.488744 7.849771 -24.169225
10.069015 8.329814 -23.770481
10.639349 8.801635 -23.348278
11.199184 9.264771 -22.903033
11.747966 9.718763 -22.435185
12.285155 10.163164 -21.945197
12.810219 10.597535 -21.433552
13.322642 11.021448 -20.900754
13.821916 11.434484 -20.347329
14.307550 11.836235 -19.773825
14.779065 12.226306 -19.180806
15.235994 12.604310 -18.568857
15.677887 12.969876 -17.938584
16.104308 13.322642 -17.290607
16.514835 13.662260 -16.625567
16.909065 13.988395 -15.944119
17.286607 14.300725 -15.246936
17.647090 14.598943 -14.534707
17.990157 14.882752 -13.808133
18.315470 15.151875 -13.067932
18.622708 15.406044 -12.314835
18.911567 15.645009 -11.549585
19.181763 15.868535 -10.772937
19.433029 16.076400 -9.985657
19.665117 16.268400 -9.188522
19.877798 16.444345 -8.382319
20.070862 16.604061 -7.567844
20.244118 16.747391 -6.745901
20.397396 16.874193 -5.917300
20.530544 16.984343 -5.082860
20.643431 17.077731 -4.243403
20.735945 17.154266 -3.399759
20.807995 17.213871 -2.552759
20.859511 17.256488 -1.703240
20.890440 17.282075 -0.852041
20.900754 17.290607 0.000000
20.890440 17.282075 0.852041
20.859511 17.256488 1.703240
20.807995 17.213871 2.552759
20.735945 17.154266 3.399759
20.643431 17.077731 4.243403
20.530544 16.984343 5.082860
20.397396 16.874193 5.917300
20.244118 16.747391 6.745901
20.070862 16.604061 7.567844
19.877798 16.444345 8.382319
19.665117 16.268400 9.188522
19.433029 16.076400 9.985657
19.181763 15.868535 10.772937
18.911567 15.645009 11.549585
18.622708 15.406044 12.314835
18.315470 15.151875 13.067932
17.990157 14.882752 13.808133
17.647090 14.598943 14.534707
17.286607 14.300725 15.246936
16.909065 13.988395 15.944119
16.514835 13.662260 16.625567
16.104308 13.322642 17.290607
15.677887 12.969876 17.938584
15.235994 12.604310 18.568857
14.779065 12.226306 19.180806
14.307550 11.836235 19.773825
13.821916 11.434484 20.347329
13.322642 11.021448 20.900754
12.810219 10.597535 21.433552
12.285155 10.163164 21.945197
11.747966 9.718763 22.435185
11.199184 9.264771 22.903033
10.639349 8.801635 23.348278
10.069015 8.329814 23.770481
9.488744 7.849771 24.169225
8.899108 7.361982 24.544117
8.300690 6.866928 24.894787
7.694081 6.365097 25.220889
7.079878 5.856984 25.522102
6.458688 5.343091 25.798126
5.831124 4.823926 26.048692
5.197806 4.299999 26.273550
4.559358 3.771829 26.472479
3.916411 3.239937 26.645284
3.269598 2.704847 26.791792
2.619559 2.167088 26.911861
1.966935 1.627190 27.005370
1.312369 1.085686 27.072229
0.656509 0.543111 27.112370
0.000000 0.000000 27.125755
0.000000 0.000000 -27.125755
0.621111 0.583262 -27.112370
1.241609 1.165948 -27.072229
1.860881 1.747484 -27.005370
2.478317 2.327295 -26.911861
3.093308 2.904809 -26.791792
3.705245 3.479457 -26.645284
4.313526 4.050671 -26.472479
4.917550 4.617887 -26.273550
5.516721 5.180546 -26.048692
6.110448 5.738092 -25.798126
6.698144 6.289976 -25.522102
7.279230 6.835652 -25.220889
7.853133 7.374583 -24.894787
8.419285 7.906235 -24.544117
8.977129 8.430085 -24.169225
9.526113 8.945615 -23.770481
10.065696 9.452317 -23.348278
10.595345 9.949691 -22.903033
11.114538 10.437246 -22.435185
11.622763 10.914500 -21.945197
12.119517 11.380984 -21.433552
12.604310 11.836235 -20.900754
13.076665 12.279806 -20.347329
13.536114 12.711258 -19.773825
13.982206 13.130165 -19.180806
14.414498 13.536114 -18.568857
14.832565 13.928705 -17.938584
15.235994 14.307550 -17.290607
15.624387 14.672276 -16.625567
15.997360 15.022521 -15.944119
16.354546 15.357941 -15.246936
16.695592 15.678205 -14.534707
17.020162 15.982996 -13.808133
17.327935 16.272014 -13.067932
17.618607 16.544973 -12.314835
17.891891 16.801604 -11.549585
18.147519 17.041655 -10.772937
18.385237 17.264887 -9.985657
18.604811 17.471081 -9.188522
18.806025 17.660033 -8.382319
18.988679 17.831556 -7.567844
19.152594 17.985483 -6.745901
19.297607 18.121659 -5.917300
19.423576 18.239952 -5.082860
19.530376 18.340244 -4.243403
19.617902 18.422436 -3.399759
19.686068 18.486448 -2.552759
19.734806 18.532216 -1.703240
19.764067 18.559695 -0.852041
19.773825 18.568857 0.000000
19.764067 18.559695 0.852041
19.734806 18.532216 1.703240
19.686068 18.486448 2.552759
19.617902 18.422436 3.399759
19.530376 18.340244 4.243403
19.423576 18.239952 5.082860
19.297607 18.121659 5.917300
19.152594 17.985483 6.745901
18.988679 17.831556 7.567844
18.806025 17.660033 8.382319
18.604811 17.471081 9.188522
18.385237 17.264887 9.985657
18.147519 17.041655 10.772937
17.891891 16.801604 11.549585
17.618607 16.544973 12.314835
17.327935 16.272014 13.067932
17.020162 15.982996 13.808133
16.695592 15.678205 14.534707
16.354546 15.357941 15.246936
15.997360 15.022521 15.944119
15.624387 14.672276 16.625567
15.235994 14.307550 17.290607
14.832565 13.928705 17.938584
14.414498 13.536114 18.568857
13.982206 13.130165 19.180806
13.536114 12.711258 19.773825
13.076665 12.279806 20.347329
12.604310 11.836235 20.900754
12.119517 11.380984 21.433552
11.622763 10.914500 21.945197
11.114538 10.437246 22.435185
10.595345 9.949691 22.903033
10.065696 9.452317 23.348278
9.526113 8.945615 23.770481
8.977129 8.430085 24.169225
8.419285 7.906235 24.544117
7.853133 7.374583 24.894787
7.279230 6.835652 25.220889
6.698144 6.289976 25.522102
6.110448 5.738092 25.798126
5.516721 5.180546 26.048692
4.917550 4.617887 26.273550
4.313526 4.050671 26.472479
3.705245 3.479457 26.645284
3.093308 2.904809 26.791792
2.478317 2.327295 26.911861
1.860881 1.747484 27.005370
1.241609 1.165948 27.072229
0.621111 0.583262 27.112370
0.000000 0.000000 27.125755
0.000000 0.000000 -27.125755
0.583262 0.621111 -27.112370
1.165948 1.241609 -27.072229
1.747484 1.860881 -27.005370
2.327295 2.478317 -26.911861
2.904809 3.093308 -26.791792
3.479457 3.705245 -26.645284
4.050671 4.313526 -26.472479
4.617887 4.917550 -26.273550
5.180546 5.516721 -26.048692
5.738092 6.110448 -25.798126
6.289976 6.698144 -25.522102
6.835652 7.279230 -25.220889
7.374583 7.853133 -24.894787
7.906235 8.419285 -24.544117
8.430085 8.977129 -24.169225
8.945615 9.526113 -23.770481
9.452317 10.065696 -23.348278
9.949691 10.595345 -22.903033
10.437246 11.114538 -22.435185
10.914500 11.622763 -21.945197
11.380984 12.119517 -21.433552
11.836235 12.604310 -20.900754
12.279806 13.076665 -20.347329
12.711258 13.536114 -19.773825
13.130165 13.982206 -19.180806
13.536114 14.414498 -18.568857
13.928705 14.832565 -17.938584
14.307550 15.235994 -17.290607
14.672276 15.624387 -16.625567
15.022521 15.997360 -15.944119
15.357941 16.354546 -15.246936
15.678205 16.695592 -14.534707
15.982996 17.020162 -13.808133
16.272014 17.327935 -13.067932
16.544973 17.618607 -12.314835
16.801604 17.891891 -11.549585
17.041655 18.147519 -10.772937
17.264887 18.385237 -9.985657
17.471081 18.604811 -9.188522
17.660033 18.806025 -8.382319
17.831556 18.988679 -7.567844
17.985483 19.152594 -6.745901
18.121659 19.297607 -5.917300
18.239952 19.423576 -5.082860
18.340244 19.530376 -4.243403
18.422436 19.617902 -3.399759
18.486448 19.686068 -2.552759
18.532216 19.734806 -1.703240
18.559695 19.764067 -0.852041
18.568857 19.773825 0.000000
18.559695 19.764067 0.852041
18.532216 19.734806 1.703240
18.486448 19.686068 2.552759
18.422436 19.617902 3.399759
18.340244 19.530376 4.243403
18.239952 19.423576 5.082860
18.121659 19.297607 5.917300
17.985483 19.152594 6.745901
17.831556 18.988679 7.567844
17.660033 18.806025 8.382319
17.471081 18.604811 9.188522
17.264887 18.385237 9.985657
17.041655 18.147519 10.772937
16.801604 17.891891 11.549585
16.544973 17.618607 12.314835
16.272014 17.327935 13.067932
15.982996 17.020162 13.808133
15.678205 16.695592 14.534707
15.357941 16.354546 15.246936
15.022521 15.997360 15.944119
14.672276 15.624387 16.625567
14.307550 15.235994 17.290607
13.928705 14.832565 17.938584
13.536114 14.414498 18.568857
13.130165 13.982206 19.180806
12.711258 13.536114 19.773825
12.279806 13.076665 20.347329
11.836235 12.604310 20.900754
11.380984 12.119517 21.433552
10.914500 11.622763 21.945197
10.437246 11.114538 22.435185
9.949691 10.595345 22.903033
9.452317 10.065696 23.348278
8.945615 9.526113 23.770481
8.430085 8.977129 24.169225
7.906235 8.419285 24.544117
7.374583 7.853133 24.894787
6.835652 7.279230 25.220889
6.289976 6.698144 25.522102
5.738092 6.110448 25.798126
5.180546 5.516721 26.048692
4.617887 4.917550 26.273550
4.050671 4.313526 26.472479
3.479457 3.705245 26.645284
2.904809 3.093308 26.791792
2.327295 2.478317 26.911861
1.747484 1.860881 27.005370
1.165948 1.241609 27.072229
0.583262 0.621111 27.112370
0.000000 0.000000 27.125755
0.000000 0.000000 -27.125755
0.543111 0.656509 -27.112370
1.085686 1.312369 -27.072229
1.627190 1.966935 -27.005370
2.167088 2.619559 -26.911861
2.704847 3.269598 -26.791792
3.239937 3.916411 -26.645284
3.771829 4.559358 -26.472479
4.299999 5.197806 -26.273550
4.823926 5.831124 -26.048692
5.343091 6.458688 -25.798126
5.856984 7.079878 -25.522102
6.365097 7.694081 -25.220889
6.866928 8.300690 -24.894787
7.361982 8.899108 -24.544117
7.849771 9.488744 -24.169225
8.329814 10.069015 -23.770481
8.801635 10.639349 -23.348278
9.264771 11.199184 -22.903033
9.718763 11.747966 -22.435185
10.163164 12.285155 -21.945197
10.597535 12.810219 -21.433552
11.021448 13.322642 -20.900754
11.434484 13.821916 -20.347329
11.836235 14.307550 -19.773825
12.226306 14.779065 -19.180806
12.604310 15.235994 -18.568857
12.969876 15.677887 -17.938584
13.322642 16.104308 -17.290607
13.662260 16.514835 -16.625567
13.988395 16.909065 -15.944119
14.300725 17.286607 -15.246936
14.598943 17.647090 -14.534707
14.882752 17.990157 -13.808133
15.151875 18.315470 -13.067932
15.406044 18.622708 -12.314835
15.645009 18.911567 -11.549585
15.868535 19.181763 -10.772937
16.076400 19.433029 -9.985657
16.268400 19.665117 -9.188522
16.444345 19.877798 -8.382319
16.604061 20.070862 -7.567844
16.747391 20.244118 -6.745901
16.874193 20.397396 -5.917300
16.984343 20.530544 -5.082860
17.077731 20.643431 -4.243403
17.154266 20.735945 -3.399759
17.213871 20.807995 -2.552759
17.256488 20.859511 -1.703240
17.282075 20.890440 -0.852041
17.290607 20.900754 0.000000
17.282075 20.890440 0.852041
17.256488 20.859511 1.703240
17.213871 20.807995 2.552759
17.154266 20.735945 3.399759
17.077731 20.643431 4.243403
16.984343 20.530544 5.082860
16.874193 20.397396 5.917300
16.747391 20.244118 6.745901
16.604061 20.070862 7.567844
16.444345 19.877798 8.382319
16.268400 19.665117 9.188522
16.076400 19.433029 9.985657
15.868535 19.181763 10.772937
15.645009 18.911567 11.549585
15.406044 18.622708 12.314835
15.151875 18.315470 13.067932
14.882752 17.990157 13.808133
14.598943 17.647090 14.534707
14.300725 17.286607 15.246936
13.988395 16.909065 15.944119
13.662260 16.514835 16.625567
13.322642 16.104308 17.290607
12.969876 15.677887 17.938584
12.604310 15.235994 18.568857
12.226306 14.779065 19.180806
11.836235 14.307550 19.773825
11.434484 13.821916 20.347329
11.021448 13.322642 20.900754
10.597535 12.810219 21.433552
10.163164 12.285155 21.945197
9.718763 11.747966 22.435185
9.264771 11.199184 22.903033
8.801635 10.639349 23.348278
8.329814 10.069015 23.770481
7.849771 9.488744 24.169225
7.361982 8.899108 24.544117
6.866928 8.300690 24.894787
6.365097 7.694081 25.220889
5.856984 7.079878 25.522102
5.343091 6.458688 25.798126
4.823926 5.831124 26.048692
4.299999 5.197806 26.273550
3.771829 4.559358 26.472479
3.239937 3.916411 26.645284
2.704847 3.269598 26.791792
2.167088 2.619559 26.911861
1.627190 1.966935 27.005370
1.085686 1.312369 27.072229
0.543111 0.656509 27.112370
0.000000 0.000000 27.125755
0.000000 0.000000 -27.125755
0.500817 0.689315 -27.112370
1.001140 1.377950 -27.072229
1.500474 2.065225 -27.005370
1.998328 2.750463 -26.911861
2.494210 3.432985 -26.791792
2.987630 4.112120 -26.645284
3.478102 4.787196 -26.472479
3.965141 5.457549 -26.273550
4.448267 6.122515 -26.048692
4.927004 6.781439 -25.798126
5.400878 7.433670 -25.522102
5.869422 8.078566 -25.220889
6.332173 8.715489 -24.894787
6.788676 9.343810 -24.544117
7.238479 9.962911 -24.169225
7.681138 10.572179 -23.770481
8.116217 11.171014 -23.348278
8.543286 11.758825 -22.903033
8.961924 12.335030 -22.435185
9.371718 12.899063 -21.945197
9.772263 13.450366 -21.433552
10.163164 13.988395 -20.900754
10.544035 14.512619 -20.347329
10.914500 15.022521 -19.773825
11.274195 15.517598 -19.180806
11.622763 15.997360 -18.568857
11.959860 16.461335 -17.938584
12.285155 16.909065 -17.290607
12.598326 17.340107 -16.625567
12.899063 17.754037 -15.944119
13.187071 18.150446 -15.246936
13.462065 18.528943 -14.534707
13.723773 18.889153 -13.808133
13.971938 19.230723 -13.067932
14.206314 19.553314 -12.314835
14.426670 19.856608 -11.549585
14.632789 20.140306 -10.772937
14.824467 20.404128 -9.985657
15.001515 20.647814 -9.188522
15.163758 20.871123 -8.382319
15.311037 21.073834 -7.567844
15.443205 21.255748 -6.745901
15.560133 21.416686 -5.917300
15.661705 21.556487 -5.082860
15.747820 21.675015 -4.243403
15.818395 21.772153 -3.399759
15.873358 21.847804 -2.552759
15.912657 21.901893 -1.703240
15.936251 21.934368 -0.852041
15.944119 21.945197 0.000000
15.936251 21.934368 0.852041
15.912657 21.901893 1.703240
15.873358 21.847804 2.552759
15.818395 21.772153 3.399759
15.747820 21.675015 4.243403
15.661705 21.556487 5.082860
15.560133 21.416686 5.917300
15.443205 21.255748 6.745901
15.311037 21.073834 7.567844
15.163758 20.871123 8.382319
15.001515 20.647814 9.188522
14.824467 20.404128 9.985657
14.632789 20.140306 10.772937
14.426670 19.856608 11.549585
14.206314 19.553314 12.314835
13.971938 19.230723 13.067932
13.723773 18.889153 13.808133
13.462065 18.528943 14.534707
13.187071 18.150446 15.246936
12.899063 17.754037 15.944119
12.598326 17.340107 16.625567
12.285155 16.909065 17.290607
11.959860 16.461335 17.938584
11.622763 15.997360 18.568857
11.274195 15.517598 19.180806
10.914500 15.022521 19.773825
10.544035 14.512619 20.347329
10.163164 13.988395 20.900754
9.772263 13.450366 21.433552
9.371718 12.899063 21.945197
8.961924 12.335030 22.435185
8.543286 11.758825 22.903033
8.116217 11.171014 23.348278
7.681138 10.572179 23.770481
7.238479 9.962911 24.169225
6.788676 9.343810 24.544117
6.332173 8.715489 24.894787
5.869422 8.078566 25.220889
5.400878 7.433670 25.522102
4.927004 6.781439 25.798126
4.448267 6.122515 26.048692
3.965141 5.457549 26.273550
3.478102 4.787196 26.472479
2.987630 4.112120 26.645284
2.494210 3.432985 26.791792
1.998328 2.750463 26.911861
1.500474 2.065225 27.005370
1.001140 1.377950 27.072229
0.500817 0.689315 27.112370
0.000000 0.000000 27.125755
0.000000 0.000000 -27.125755
0.456546 0.719402 -27.112370
0.912642 1.438093 -27.072229
1.367837 2.155366 -27.005370
1.821682 2.870511 -26.911861
2.273729 3.582824 -26.791792
2.723532 4.291600 -26.645284
3.170648 4.996142 -26.472479
3.614635 5.695753 -26.273550
4.055054 6.389742 -26.048692
4.491471 7.077426 -25.798126
4.923456 7.758126 -25.522102
5.350582 8.431169 -25.220889
5.772428 9.095891 -24.894787
6.188577 9.751637 -24.544117
6.598619 10.397759 -24.169225
7.002148 11.033620 -23.770481
7.398768 11.658592 -23.348278
7.788085 12.272059 -22.903033
8.169717 12.873414 -22.435185
8.543286 13.462065 -21.945197
8.908424 14.037430 -21.433552
9.264771 14.598943 -20.900754
9.611974 15.146047 -20.347329
9.949691 15.678205 -19.773825
10.277590 16.194890 -19.180806
10.595345 16.695592 -18.568857
10.902644 17.179818 -17.938584
11.199184 17.647090 -17.290607
11.484671 18.096946 -16.625567
11.758825 18.528943 -15.944119
12.021373 18.942653 -15.246936
12.272059 19.337670 -14.534707
12.510633 19.713603 -13.808133
12.736860 20.070081 -13.067932
12.950518 20.406752 -12.314835
13.151396 20.723284 -11.549585
13.339294 21.019364 -10.772937
13.514028 21.294701 -9.985657
13.675426 21.549023 -9.188522
13.823327 21.782079 -8.382319
13.957587 21.993638 -7.567844
14.078072 22.183492 -6.745901
14.184664 22.351454 -5.917300
14.277257 22.497357 -5.082860
14.355760 22.621058 -4.243403
14.420096 22.722435 -3.399759
14.470201 22.801388 -2.552759
14.506026 22.857839 -1.703240
14.527535 22.891731 -0.852041
14.534707 22.903033 0.000000
14.527535 22.891731 0.852041
14.506026 22.857839 1.703240
14.470201 22.801388 2.552759
14.420096 22.722435 3.399759
14.355760 22.621058 4.243403
14.277257 22.497357 5.082860
14.184664 22.351454 5.917300
14.078072 22.183492 6.745901
13.957587 21.993638 7.567844
13.823327 21.782079 8.382319
13.675426 21.549023 9.188522
13.514028 21.294701 9.985657
13.339294 21.019364 10.772937
13.151396 20.723284 11.549585
12.950518 20.406752 12.314835
12.736860 20.070081 13.067932
12.510633 19.713603 13.808133
12.272059 19.337670 14.534707
12.021373 18.942653 15.246936
11.758825 18.528943 15.944119
11.484671 18.096946 16.625567
11.199184 17.647090 17.290607
10.902644 17.179818 17.938584
10.595345 16.695592 18.568857
10.277590 16.194890 19.180806
9.949691 15.678205 19.773825
9.611974 15.146047 20.347329
9.264771 14.598943 20.900754
8.908424 14.037430 21.433552
8.543286 13.462065 21.945197
8.169717 12.873414 22.435185
7.788085 12.272059 22.903033
7.398768 11.658592 23.348278
7.002148 11.033620 23.770481
6.598619 10.397759 24.169225
6.188577 9.751637 24.544117
5.772428 9.095891 24.894787
5.350582 8.431169 25.220889
4.923456 7.758126 25.522102
4.491471 7.077426 25.798126
4.055054 6.389742 26.048692
3.614635 5.695753 26.273550
3.170648 4.996142 26.472479
2.723532 4.291600 26.645284
2.273729 3.582824 26.791792
1.821682 2.870511 26.911861
1.367837 2.155366 27.005370
0.912642 1.438093 27.072229
0.456546 0.719402 27.112370
0.000000 0.000000 27.125755
0.000000 0.000000 -27.125755
0.410474 0.746649 -27.112370
0.820542 1.492561 -27.072229
1.229801 2.237000 -27.005370
1.637846 2.979231 -26.911861
2.044275 3.718522 -26.791792
2.448686 4.454144 -26.645284
2.850681 5.185370 -26.472479
3.249863 5.911478 -26.273550
3.645837 6.631753 -26.048692
4.038213 7.345482 -25.798126
4.426604 8.051963 -25.522102
4.810627 8.750498 -25.220889
5.189902 9.440396 -24.894787
5.564055 10.120978 -24.544117
5.932717 10.791572 -24.169225
6.295524 11.451516 -23.770481
6.652119 12.100159 -23.348278
7.002148 12.736860 -22.903033
7.345268 13.360992 -22.435185
7.681138 13.971938 -21.945197
8.009428 14.569095 -21.433552
8.329814 15.151875 -20.900754
8.641979 15.719701 -20.347329
8.945615 16.272014 -19.773825
9.240424 16.808268 -19.180806
9.526113 17.327935 -18.568857
9.802401 17.830501 -17.938584
10.069015 18.315470 -17.290607
10.325692 18.782364 -16.625567
10.572179 19.230723 -15.944119
10.808233 19.660103 -15.246936
11.033620 20.070081 -14.534707
11.248119 20.460252 -13.808133
11.451516 20.830231 -13.067932
11.643613 21.179653 -12.314835
11.824219 21.508174 -11.549585
11.993155 21.815469 -10.772937
12.150256 22.101234 -9.985657
12.295366 22.365188 -9.188522
12.428342 22.607070 -8.382319
12.549053 22.826642 -7.567844
12.657379 23.023687 -6.745901
12.753214 23.198010 -5.917300
12.836463 23.349440 -5.082860
12.907044 23.477827 -4.243403
12.964888 23.583043 -3.399759
13.009936 23.664986 -2.552759
13.042146 23.723575 -1.703240
13.061484 23.758751 -0.852041
13.067932 23.770481 0.000000
13.061484 23.758751 0.852041
13.042146 23.723575 1.703240
13.009936 23.664986 2.552759
12.964888 23.583043 3.399759
12.907044 23.477827 4.243403
12.836463 23.349440 5.082860
12.753214 23.198010 5.917300
12.657379 23.023687 6.745901
12.549053 22.826642 7.567844
12.428342 22.607070 8.382319
12.295366 22.365188 9.188522
12.150256 22.101234 9.985657
11.993155 21.815469 10.772937
11.824219 21.508174 11.549585
11.643613 21.179653 12.314835
11.451516 20.830231 13.067932
11.248119 20.460252 13.808133
11.033620 20.070081 14.534707
10.808233 19.660103 15.246936
10.572179 19.230723 15.944119
10.325692 18.782364 16.625567
10.069015 18.315470 17.290607
9.802401 17.830501 17.938584
9.526113 17.327935 18.568857
9.240424 16.808268 19.180806
8.945615 16.272014 19.773825
8.641979 15.719701 20.347329
8.329814 15.151875 20.900754
8.009428 14.569095 21.433552
7.681138 13.971938 21.945197
7.345268 13.360992 22.435185
7.002148 12.736860 22.903033
6.652119 12.100159 23.348278
6.295524 11.451516 23.770481
5.932717 10.791572 24.169225
5.564055 10.120978 24.544117
5.189902 9.440396 24.894787
4.810627 8.750498 25.220889
4.426604 8.051963 25.522102
4.038213 7.345482 25.798126
3.645837 6.631753 26.048692
3.249863 5.911478 26.273550
2.850681 5.185370 26.472479
2.448686 4.454144 26.645284
2.044275 3.718522 26.791792
1.637846 2.979231 26.911861
1.229801 2.237000 27.005370
0.820542 1.492561 27.072229
0.410474 0.746649 27.112370
0.000000 0.000000 27.125755
0.000000 0.000000 -27.125755
0.362781 0.770949 -27.112370
0.725204 1.541138 -27.072229
1.086912 2.309805 -27.005370
1.447547 3.076194 -26.911861
1.806753 3.839546 -26.791792
2.164176 4.599109 -26.645284
2.519464 5.354133 -26.472479
2.872265 6.103874 -26.273550
3.222231 6.847590 -26.048692
3.569018 7.584549 -25.798126
3.912282 8.314023 -25.522102
4.251686 9.035292 -25.220889
4.586893 9.747644 -24.894787
4.917574 10.450377 -24.544117
5.243402 11.142796 -24.169225
5.564055 11.824219 -23.770481
5.879217 12.493972 -23.348278
6.188577 13.151396 -22.903033
6.491830 13.795840 -22.435185
6.788676 14.426670 -21.945197
7.078822 15.043263 -21.433552
7.361982 15.645009 -20.900754
7.637878 16.231316 -20.347329
7.906235 16.801604 -19.773825
8.166790 17.355312 -19.180806
8.419285 17.891891 -18.568857
8.663471 18.410814 -17.938584
8.899108 18.911567 -17.290607
9.125962 19.393657 -16.625567
9.343810 19.856608 -15.944119
9.552437 20.299963 -15.246936
9.751637 20.723284 -14.534707
9.941213 21.126153 -13.808133
10.120978 21.508174 -13.067932
10.290755 21.868969 -12.314835
10.450377 22.208181 -11.549585
10.599685 22.525477 -10.772937
10.738532 22.820543 -9.985657
10.866782 23.093088 -9.188522
10.984308 23.342843 -8.382319
11.090993 23.569561 -7.567844
11.186733 23.773019 -6.745901
11.271433 23.953015 -5.917300
11.345010 24.109373 -5.082860
11.407390 24.241938 -4.243403
11.458513 24.350580 -3.399759
11.498327 24.435190 -2.552759
11.526794 24.495685 -1.703240
11.543886 24.532006 -0.852041
11.549585 24.544117 0.000000
11.543886 24.532006 0.852041
11.526794 24.495685 1.703240
11.498327 24.435190 2.552759
11.458513 24.350580 3.399759
11.407390 24.241938 4.243403
11.345010 24.109373 5.082860
11.271433 23.953015 5.917300
11.186733 23.773019 6.745901
11.090993 23.569561 7.567844
10.984308 23.342843 8.382319
10.866782 23.093088 9.188522
10.738532 22.820543 9.985657
10.599685 22.525477 10.772937
10.450377 22.208181 11.549585
10.290755 21.868969 12.314835
10.120978 21.508174 13.067932
9.941213 21.126153 13.808133
9.751637 20.723284 14.534707
9.552437 20.299963 15.246936
9.343810 19.856608 15.944119
9.125962 19.393657 16.625567
8.899108 18.911567 17.290607
8.663471 18.410814 17.938584
8.419285 17.891891 18.568857
8.166790 17.355312 19.180806
7.906235 16.801604 19.773825
7.637878 16.231316 20.347329
7.361982 15.645009 20.900754
7.078822 15.043263 21.433552
6.788676 14.426670 21.945197
6.491830 13.795840 22.435185
6.188577 13.151396 22.903033
5.879217 12.493972 23.348278
5.564055 11.824219 23.770481
5.243402 11.142796 24.169225
4.917574 10.450377 24.544117
4.586893 9.747644 24.894787
4.251686 9.035292 25.220889
3.912282 8.314023 25.522102
3.569018 7.584549 25.798126
3.222231 6.847590 26.048692
2.872265 6.103874 26.273550
2.519464 5.354133 26.472479
2.164176 4.599109 26.645284
1.806753 3.839546 26.791792
1.447547 3.076194 26.911861
1.086912 2.309805 27.005370
0.725204 1.541138 27.072229
0.362781 0.770949 27.112370
0.000000 0.000000 27.125755
0.000000 0.000000 -27.125755
0.313657 0.792207 -27.112370
0.627005 1.583633 -27.072229
0.939733 2.373495 -27.005370
1.251535 3.161016 -26.911861
1.562101 3.945416 -26.791792
1.871125 4.725923 -26.645284
2.178303 5.501767 -26.472479
2.483332 6.272180 -26.273550
2.785909 7.036404 -26.048692
3.085738 7.793683 -25.798126
3.382521 8.543272 -25.522102
3.675965 9.284429 -25.220889
3.965782 10.016423 -24.894787
4.251686 10.738532 -24.544117
4.533393 11.450044 -24.169225
4.810627 12.150256 -23.770481
5.083113 12.838477 -23.348278
5.350582 13.514028 -22.903033
5.612772 14.176243 -22.435185
5.869422 14.824467 -21.945197
6.120279 15.458061 -21.433552
6.365097 16.076400 -20.900754
6.603633 16.678873 -20.347329
6.835652 17.264887 -19.773825
7.060925 17.833862 -19.180806
7.279230 18.385237 -18.568857
7.490352 18.918468 -17.938584
7.694081 19.433029 -17.290607
7.890217 19.928412 -16.625567
8.078566 20.404128 -15.944119
8.258943 20.859708 -15.246936
8.431169 21.294701 -14.534707
8.595074 21.708680 -13.808133
8.750498 22.101234 -13.067932
8.897285 22.471977 -12.314835
9.035292 22.820543 -11.549585
9.164382 23.146588 -10.772937
9.284429 23.449790 -9.985657
9.395312 23.729850 -9.188522
9.496924 23.986491 -8.382319
9.589163 24.219461 -7.567844
9.671939 24.428529 -6.745901
9.745170 24.613489 -5.917300
9.808783 24.774158 -5.082860
9.862717 24.910378 -4.243403
9.906917 25.022015 -3.399759
9.941340 25.108958 -2.552759
9.965952 25.171122 -1.703240
9.980729 25.208445 -0.852041
9.985657 25.220889 0.000000
9.980729 25.208445 0.852041
9.965952 25.171122 1.703240
9.941340 25.108958 2.552759
9.906917 25.022015 3.399759
9.862717 24.910378 4.243403
9.808783 24.774158 5.082860
9.745170 24.613489 5.917300
9.671939 24.428529 6.745901
9.589163 24.219461 7.567844
9.496924 23.986491 8.382319
9.395312 23.729850 9.188522
9.284429 23.449790 9.985657
9.164382 23.146588 10.772937
9.035292 22.820543 11.549585
8.897285 22.471977 12.314835
8.750498 22.101234 13.067932
8.595074 21.708680 13.808133
8.431169 21.294701 14.534707
8.258943 20.859708 15.246936
8.078566 20.404128 15.944119
7.890217 19.928412 16.625567
7.694081 19.433029 17.290607
7.490352 18.918468 17.938584
7.279230 18.385237 18.568857
7.060925 17.833862 19.180806
6.835652 17.264887 19.773825
6.603633 16.678873 20.347329
6.365097 16.076400 20.900754
6.120279 15.458061 21.433552
5.869422 14.824467 21.945197
5.612772 14.176243 22.435185
5.350582 13.514028 22.903033
5.083113 12.838477 23.348278
4.810627 12.150256 23.770481
4.533393 11.450044 24.169225
4.251686 10.738532 24.544117
3.965782 10.016423 24.894787
3.675965 9.284429 25.220889
3.382521 8.543272 25.522102
3.085738 7.793683 25.798126
2.785909 7.036404 26.048692
2.483332 6.272180 26.273550
2.178303 5.501767 26.472479
1.871125 4.725923 26.645284
1.562101 3.945416 26.791792
1.251535 3.161016 26.911861
0.939733 2.373495 27.005370
0.627005 1.583633 27.072229
0.313657 0.792207 27.112370
0.000000 0.000000 27.125755
0.000000 0.000000 -27.125755
0.263295 0.810339 -27.112370
0.526330 1.619878 -27.072229
0.788846 2.427818 -27.005370
1.050583 3.233363 -26.911861
1.311284 4.035716 -26.791792
1.570690 4.834087 -26.645284
1.828546 5.627687 -26.472479
2.084598 6.415733 -26.273550
2.338593 7.197448 -26.048692
2.590279 7.972059 -25.798126
2.839409 8.738804 -25.522102
3.085738 9.496924 -25.220889
3.329020 10.245671 -24.894787
3.569018 10.984308 -24.544117
3.805493 11.712104 -24.169225
4.038213 12.428342 -23.770481
4.266948 13.132315 -23.348278
4.491471 13.823327 -22.903033
4.711562 14.500698 -22.435185
4.927004 15.163758 -21.945197
5.137583 15.811854 -21.433552
5.343091 16.444345 -20.900754
5.543327 17.060607 -20.347329
5.738092 17.660033 -19.773825
5.927195 18.242030 -19.180806
6.110448 18.806025 -18.568857
6.287671 19.351460 -17.938584
6.458688 19.877798 -17.290607
6.623332 20.384519 -16.625567
6.781439 20.871123 -15.944119
6.932854 21.337129 -15.246936
7.077426 21.782079 -14.534707
7.215015 22.205532 -13.808133
7.345482 22.607070 -13.067932
7.468701 22.986299 -12.314835
7.584549 23.342843 -11.549585
7.692912 23.676350 -10.772937
7.793683 23.986491 -9.985657
7.886763 24.272961 -9.188522
7.972059 24.535476 -8.382319
8.049488 24.773778 -7.567844
8.118973 24.987631 -6.745901
8.180446 25.176824 -5.917300
8.233845 25.341171 -5.082860
8.279119 25.480509 -4.243403
8.316222 25.594700 -3.399759
8.345118 25.683633 -2.552759
8.365779 25.747220 -1.703240
8.378183 25.785397 -0.852041
8.382319 25.798126 0.000000
8.378183 25.785397 0.852041
8.365779 25.747220 1.703240
8.345118 25.683633 2.552759
8.316222 25.594700 3.399759
8.279119 25.480509 4.243403
8.233845 25.341171 5.082860
8.180446 25.176824 5.917300
8.118973 24.987631 6.745901
8.049488 24.773778 7.567844
7.972059 24.535476 8.382319
7.886763 24.272961 9.188522
7.793683 23.986491 9.985657
7.692912 23.676350 10.772937
7.584549 23.342843 11.549585
7.468701 22.986299 12.314835
7.345482 22.607070 13.067932
7.215015 22.205532 13.808133
7.077426 21.782079 14.534707
6.932854 21.337129 15.246936
6.781439 20.871123 15.944119
6.623332 20.384519 16.625567
6.458688 19.877798 17.290607
6.287671 19.351460 17.938584
6.110448 18.806025 18.568857
5.927195 18.242030 19.180806
5.738092 17.660033 19.773825
5.543327 17.060607 20.347329
5.343091 16.444345 20.900754
5.137583 15.811854 21.433552
4.927004 15.163758 21.945197
4.711562 14.500698 22.435185
4.491471 13.823327 22.903033
4.266948 13.132315 23.348278
4.038213 12.428342 23.770481
3.805493 11.712104 24.169225
3.569018 10.984308 24.544117
3.329020 10.245671 24.894787
3.085738 9.496924 25.220889
2.839409 8.738804 25.522102
2.590279 7.972059 25.798126
2.338593 7.197448 26.048692
2.084598 6.415733 26.273550
1.828546 5.627687 26.472479
1.570690 4.834087 26.645284
1.311284 4.035716 26.791792
1.050583 3.233363 26.911861
0.788846 2.427818 27.005370
0.526330 1.619878 27.072229
0.263295 0.810339 27.112370
0.000000 0.000000 27.125755
0.000000 0.000000 -27.125755
0.211894 0.825272 -27.112370
0.423579 1.649730 -27.072229
0.634845 2.472559 -27.005370
0.845486 3.292949 -26.911861
1.055291 4.110089 -26.791792
1.264056 4.923172 -26.645284
1.471573 5.731397 -26.472479
1.677637 6.533966 -26.273550
1.882046 7.330087 -26.048692
2.084598 8.118973 -25.798126
2.285092 8.899848 -25.522102
2.483332 9.671939 -25.220889
2.679120 10.434485 -24.894787
2.872265 11.186733 -24.544117
3.062575 11.927942 -24.169225
3.249863 12.657379 -23.770481
3.433943 13.374325 -23.348278
3.614635 14.078072 -22.903033
3.791759 14.767926 -22.435185
3.965141 15.443205 -21.945197
4.134610 16.103244 -21.433552
4.299999 16.747391 -20.900754
4.461144 17.375010 -20.347329
4.617887 17.985483 -19.773825
4.770072 18.578205 -19.180806
4.917550 19.152594 -18.568857
5.060175 19.708081 -17.938584
5.197806 20.244118 -17.290607
5.330308 20.760177 -16.625567
5.457549 21.255748 -15.944119
5.579404 21.730343 -15.246936
5.695753 22.183492 -14.534707
5.806481 22.614749 -13.808133
5.911478 23.023687 -13.067932
6.010642 23.409904 -12.314835
6.103874 23.773019 -11.549585
6.191082 24.112672 -10.772937
6.272180 24.428529 -9.985657
6.347089 24.720278 -9.188522
6.415733 24.987631 -8.382319
6.478046 25.230324 -7.567844
6.533966 25.448118 -6.745901
6.583438 25.640798 -5.917300
6.626413 25.808173 -5.082860
6.662848 25.950079 -4.243403
6.692708 26.066375 -3.399759
6.715962 26.156947 -2.552759
6.732590 26.221705 -1.703240
6.742572 26.260585 -0.852041
6.745901 26.273550 0.000000
6.742572 26.260585 0.852041
6.732590 26.221705 1.703240
6.715962 26.156947 2.552759
6.692708 26.066375 3.399759
6.662848 25.950079 4.243403
6.626413 25.808173 5.082860
6.583438 25.640798 5.917300
6.533966 25.448118 6.745901
6.478046 25.230324 7.567844
6.415733 24.987631 8.382319
6.347089 24.720278 9.188522
6.272180 24.428529 9.985657
6.191082 24.112672 10.772937
6.103874 23.773019 11.549585
6.010642 23.409904 12.314835
5.911478 23.023687 13.067932
5.806481 22.614749 13.808133
5.695753 22.183492 14.534707
5.579404 21.730343 15.246936
5.457549 21.255748 15.944119
5.330308 20.760177 16.625567
5.197806 20.244118 17.290607
5.060175 19.708081 17.938584
4.917550 19.152594 18.568857
4.770072 18.578205 19.180806
4.617887 17.985483 19.773825
4.461144 17.375010 20.347329
4.299999 16.747391 20.900754
4.134610 16.103244 21.433552
3.965141 15.443205 21.945197
3.791759 14.767926 22.435185
3.614635 14.078072 22.903033
3.433943 13.374325 23.348278
3.249863 12.657379 23.770481
3.062575 11.927942 24.169225
2.872265 11.186733 24.544117
2.679120 10.434485 24.894787
2.483332 9.671939 25.220889
2.285092 8.899848 25.522102
2.084598 8.118973 25.798126
1.882046 7.330087 26.048692
1.677637 6.533966 26.273550
1.471573 5.731397 26.472479
1.264056 4.923172 26.645284
1.055291 4.110089 26.791792
0.845486 3.292949 26.911861
0.634845 2.472559 27.005370
0.423579 1.649730 27.072229
0.211894 0.825272 27.112370
0.000000 0.000000 27.125755
0.000000 0.000000 -27.125755
0.159656 0.836949 -27.112370
0.319155 1.673071 -27.072229
0.478339 2.507543 -27.005370
0.637051 3.339540 -26.911861
0.795134 4.168241 -26.791792
0.952433 4.992828 -26.645284
1.108791 5.812489 -26.472479
1.264056 6.626413 -26.273550
1.418073 7.433797 -26.048692
1.570690 8.233845 -25.798126
1.721757 9.025768 -25.522102
1.871125 9.808783 -25.220889
2.018647 10.582118 -24.894787
2.164176 11.345010 -24.544117
2.307570 12.096706 -24.169225
2.448686 12.836463 -23.770481
2.587386 13.563553 -23.348278
2.723532 14.277257 -22.903033
2.856991 14.976871 -22.435185
2.987630 15.661705 -21.945197
3.115321 16.331082 -21.433552
3.239937 16.984343 -20.900754
3.361355 17.620842 -20.347329
3.479457 18.239952 -19.773825
3.594125 18.841061 -19.180806
3.705245 19.423576 -18.568857
3.812709 19.986922 -17.938584
3.916411 20.530544 -17.290607
4.016247 21.053904 -16.625567
4.112120 21.556487 -15.944119
4.203935 22.037797 -15.246936
4.291600 22.497357 -14.534707
4.375031 22.934715 -13.808133
4.454144 23.349440 -13.067932
4.528861 23.741122 -12.314835
4.599109 24.109373 -11.549585
4.664818 24.453832 -10.772937
4.725923 24.774158 -9.985657
4.782365 25.070035 -9.188522
4.834087 25.341171 -8.382319
4.881038 25.587298 -7.567844
4.923172 25.808173 -6.745901
4.960448 26.003579 -5.917300
4.992828 26.173322 -5.082860
5.020281 26.317236 -4.243403
5.042780 26.435178 -3.399759
5.060302 26.527031 -2.552759
5.072830 26.592705 -1.703240
5.080352 26.632136 -0.852041
5.082860 26.645284 0.000000
5.080352 26.632136 0.852041
5.072830 26.592705 1.703240
5.060302 26.527031 2.552759
5.042780 26.435178 3.399759
5.020281 26.317236 4.243403
4.992828 26.173322 5.082860
4.960448 26.003579 5.917300
4.923172 25.808173 6.745901
4.881038 25.587298 7.567844
4.834087 25.341171 8.382319
4.782365 25.070035 9.188522
4.725923 24.774158 9.985657
4.664818 24.453832 10.772937
4.599109 24.109373 11.549585
4.528861 23.741122 12.314835
4.454144 23.349440 13.067932
4.375031 22.934715 13.808133
4.291600 22.497357 14.534707
4.203935 22.037797 15.246936
4.112120 21.556487 15.944119
4.016247 21.053904 16.625567
3.916411 20.530544 17.290607
3.812709 19.986922 17.938584
3.705245 19.423576 18.568857
3.594125 18.841061 19.180806
3.479457 18.239952 19.773825
3.361355 17.620842 20.347329
3.239937 16.984343 20.900754
3.115321 16.331082 21.433552
2.987630 15.661705 21.945197
2.856991 14.976871 22.435185
2.723532 14.277257 22.903033
2.587386 13.563553 23.348278
2.448686 12.836463 23.770481
2.307570 12.096706 24.169225
2.164176 11.345010 24.544117
2.018647 10.582118 24.894787
1.871125 9.808783 25.220889
1.721757 9.025768 25.522102
1.570690 8.233845 25.798126
1.418073 7.433797 26.048692
1.264056 6.626413 26.273550
1.108791 5.812489 26.472479
0.952433 4.992828 26.645284
0.795134 4.168241 26.791792
0.637051 3.339540 26.911861
0.478339 2.507543 27.005370
0.319155 1.673071 27.072229
0.159656 0.836949 27.112370
0.000000 0.000000 27.125755
0.000000 0.000000 -27.125755
0.106789 0.845322 -27.112370
0.213473 1.689810 -27.072229
0.319946 2.532630 -27.005370
0.426103 3.372951 -26.911861
0.531839 4.209943 -26.791792
0.637051 5.042780 -26.645284
0.741634 5.870641 -26.472479
0.845486 6.692708 -26.273550
0.948502 7.508170 -26.048692
1.050583 8.316222 -25.798126
1.151627 9.116068 -25.522102
1.251535 9.906917 -25.220889
1.350207 10.687989 -24.894787
1.447547 11.458513 -24.544117
1.543458 12.217729 -24.169225
1.637846 12.964888 -23.770481
1.730618 13.699252 -23.348278
1.821682 14.420096 -22.903033
1.910948 15.126710 -22.435185
1.998328 15.818395 -21.945197
2.083736 16.494469 -21.433552
2.167088 17.154266 -20.900754
2.248301 17.797133 -20.347329
2.327295 18.422436 -19.773825
2.403992 19.029559 -19.180806
2.478317 19.617902 -18.568857
2.550197 20.186885 -17.938584
2.619559 20.735945 -17.290607
2.686336 21.264542 -16.625567
2.750463 21.772153 -15.944119
2.811874 22.258277 -15.246936
2.870511 22.722435 -14.534707
2.926315 23.164170 -13.808133
2.979231 23.583043 -13.067932
3.029207 23.978643 -12.314835
3.076194 24.350580 -11.549585
3.120144 24.698485 -10.772937
3.161016 25.022015 -9.985657
3.198768 25.320852 -9.188522
3.233363 25.594700 -8.382319
3.264767 25.843290 -7.567844
3.292949 26.066375 -6.745901
3.317881 26.263736 -5.917300
3.339540 26.435178 -5.082860
3.357902 26.580531 -4.243403
3.372951 26.699653 -3.399759
3.384670 26.792425 -2.552759
3.393050 26.858756 -1.703240
3.398081 26.898581 -0.852041
3.399759 26.911861 0.000000
3.398081 26.898581 0.852041
3.393050 26.858756 1.703240
3.384670 26.792425 2.552759
3.372951 26.699653 3.399759
3.357902 26.580531 4.243403
3.339540 26.435178 5.082860
3.317881 26.263736 5.917300
3.292949 26.066375 6.745901
3.264767 25.843290 7.567844
3.233363 25.594700 8.382319
3.198768 25.320852 9.188522
3.161016 25.022015 9.985657
3.120144 24.698485 10.772937
3.076194 24.350580 11.549585
3.029207 23.978643 12.314835
2.979231 23.583043 13.067932
2.926315 23.164170 13.808133
2.870511 22.722435 14.534707
2.811874 22.258277 15.246936
2.750463 21.772153 15.944119
2.686336 21.264542 16.625567
2.619559 20.735945 17.290607
2.550197 20.186885 17.938584
2.478317 19.617902 18.568857
2.403992 19.029559 19.180806
2.327295 18.422436 19.773825
2.248301 17.797133 20.347329
2.167088 17.154266 20.900754
2.083736 16.494469 21.433552
1.998328 15.818395 21.945197
1.910948 15.126710 22.435185
1.821682 14.420096 22.903033
1.730618 13.699252 23.348278
1.637846 12.964888 23.770481
1.543458 12.217729 24.169225
1.447547 11.458513 24.544117
1.350207 10.687989 24.894787
1.251535 9.906917 25.220889
1.151627 9.116068 25.522102
1.050583 8.316222 25.798126
0.948502 7.508170 26.048692
0.845486 6.692708 26.273550
0.741634 5.870641 26.472479
0.637051 5.042780 26.645284
0.531839 4.209943 26.791792
0.426103 3.372951 26.911861
0.319946 2.532630 27.005370
0.213473 1.689810 27.072229
0.106789 0.845322 27.112370
0.000000 0.000000 27.125755
0.000000 0.000000 -27.125755
0.053500 0.850359 -27.112370
0.106947 1.699879 -27.072229
0.160289 2.547722 -27.005370
0.213473 3.393050 -26.911861
0.266445 4.235030 -26.791792
0.319155 5.072830 -26.645284
0.371550 5.905624 -26.472479
0.423579 6.732590 -26.273550
0.475189 7.552911 -26.048692
0.526330 8.365779 -25.798126
0.576952 9.170391 -25.522102
0.627005 9.965952 -25.220889
0.676438 10.751679 -24.894787
0.725204 11.526794 -24.544117
0.773255 12.290535 -24.169225
0.820542 13.042146 -23.770481
0.867020 13.780886 -23.348278
0.912642 14.506026 -22.903033
0.957363 15.216850 -22.435185
1.001140 15.912657 -21.945197
1.043928 16.592760 -21.433552
1.085686 17.256488 -20.900754
1.126373 17.903186 -20.347329
1.165948 18.532216 -19.773825
1.204373 19.142957 -19.180806
1.241609 19.734806 -18.568857
1.277619 20.307179 -17.938584
1.312369 20.859511 -17.290607
1.345824 21.391257 -16.625567
1.377950 21.901893 -15.944119
1.408717 22.390915 -15.246936
1.438093 22.857839 -14.534707
1.466050 23.302205 -13.808133
1.492561 23.723575 -13.067932
1.517598 24.121533 -12.314835
1.541138 24.495685 -11.549585
1.563157 24.845663 -10.772937
1.583633 25.171122 -9.985657
1.602546 25.471740 -9.188522
1.619878 25.747220 -8.382319
1.635611 25.997290 -7.567844
1.649730 26.221705 -6.745901
1.662221 26.420242 -5.917300
1.673071 26.592705 -5.082860
1.682271 26.738925 -4.243403
1.689810 26.858756 -3.399759
1.695681 26.952081 -2.552759
1.699879 27.018808 -1.703240
1.702400 27.058870 -0.852041
1.703240 27.072229 0.000000
1.702400 27.058870 0.852041
1.699879 27.018808 1.703240
1.695681 26.952081 2.552759
1.689810 26.858756 3.399759
1.682271 26.738925 4.243403
1.673071 26.592705 5.082860
1.662221 26.420242 5.917300
1.649730 26.221705 6.745901
1.635611 25.997290 7.567844
1.619878 25.747220 8.382319
1.602546 25.471740 9.188522
1.583633 25.171122 9.985657
1.563157 24.845663 10.772937
1.541138 24.495685 11.549585
1.517598 24.121533 12.314835
1.492561 23.723575 13.067932
1.466050 23.302205 13.808133
1.438093 22.857839 14.534707
1.408717 22.390915 15.246936
1.377950 21.901893 15.944119
1.345824 21.391257 16.625567
1.312369 20.859511 17.290607
1.277619 20.307179 17.938584
