ply
format ascii 1.0
comment VCGLIB generated
element vertex 1541
property float x
property float y
property float z
element face 0
property list uchar int vertex_indices
end_header
-0.7477089 1.044213 -0.5372015 
-0.2108237 1.044213 -0.7166777 
-0.3235239 1.044213 -0.1320299 
-0.8385561 1.044213 -0.9836885 
-0.7847656 1.044213 -0.4794221 
0.4716128 1.044213 -0.6405157 
-0.7474874 1.044213 0.6743575 
-0.3660883 1.044213 -0.3913801 
0.3814179 1.044213 -0.5186945 
-0.605044 1.044213 -0.04609653 
0.4581375 1.044213 -0.979058 
0.4180756 1.044213 -1.007202 
0.3080095 1.044213 -0.5679876 
-0.007424038 1.044213 -0.975684 
-0.882453 1.044213 -0.3537933 
-0.823988 1.044213 0.7699375 
-0.8463662 1.044213 -0.5812683 
-0.304267 1.044213 -0.891688 
-0.32748 1.044213 -0.5410771 
-0.271109 1.044213 -0.9718729 
-0.1161975 1.044213 -0.7732439 
0.1181516 1.044213 -0.6891403 
-0.8351409 1.044213 0.5201716 
-0.6010734 1.044213 -0.8762215 
0.5335618 1.044213 -0.6242288 
-0.02208713 1.044213 -0.3859381 
-0.8936636 1.044213 0.06955978 
-0.5670751 1.044213 0.215828 
0.2993255 1.044213 -0.3685244 
-0.4931148 1.044213 -0.673189 
0.7868735 1.044213 -0.9059532 
0.03475413 1.044213 -0.4719505 
-0.8482954 1.044213 -0.4231287 
-0.3780646 1.044213 -0.6155666 
-0.5459222 1.044213 -0.6007201 
-0.921196 1.044213 -0.4716922 
0.1089195 1.044213 -0.6259174 
-0.4797072 1.044213 -0.2048845 
-0.2996871 1.044213 0.0551258 
-0.5406935 1.044213 -0.1378883 
0.4078828 1.044213 -0.8271236 
-0.6303919 1.044213 -0.9904457 
-0.8762057 1.044213 -1.034587 
-0.105618 1.044213 -0.7106622 
-0.2427614 1.044213 0.1618747 
-0.7812632 1.044213 -0.401255 
-0.8994035 1.044213 -0.4508192 
-0.5648665 1.044213 -0.1736589 
0.2670021 1.044213 -0.5622213 
-0.6744614 1.044213 0.2397594 
-0.9582824 1.044213 0.02383196 
-0.9067284 1.044213 -0.5878825 
-0.923236 1.044213 -0.5674753 
-0.9594472 1.044213 0.05858803 
-0.7483059 1.044213 -0.9637839 
-0.541835 1.044213 -0.4585047 
-0.8471581 1.044213 0.7322032 
-0.9269536 1.044213 0.5112599 
-0.6561947 1.044213 0.3788356 
0.1222587 1.044213 -0.6090682 
-0.3475184 1.044213 0.08080149 
-0.8793676 1.044213 -0.2001431 
-0.896799 1.044213 0.7721357 
-0.6622741 1.044213 -0.4118458 
-0.4984261 1.044213 0.4525318 
-0.9312547 1.044213 -0.4444575 
0.1654688 1.044213 -0.4349373 
-0.5598156 1.044213 -0.4590332 
-0.2202072 1.044213 -0.3663871 
-0.6751204 1.044213 -0.970111 
0.8740579 1.044213 -0.9628897 
-0.5607232 1.044213 -0.9630697 
-0.4727721 1.044213 0.3622091 
-0.5877672 1.044213 -0.08096942 
0.5572354 1.044213 -0.9406147 
0.2574491 1.044213 -0.8484029 
-0.9327568 1.044213 -0.9620976 
0.4442218 1.044213 -0.5436242 
0.114535 1.044213 -0.6849226 
0.2990881 1.044213 -0.6512973 
-0.08696249 1.044213 -0.5701064 
-0.858455 1.044213 -0.957651 
-0.8599412 1.044213 0.1446965 
-0.0979028 1.044213 -0.1136842 
-0.6163856 1.044213 0.1911201 
-0.5908464 1.044213 -0.3572884 
-0.6355369 1.044213 -0.7504154 
-0.6750709 1.044213 -0.7023562 
-0.00184837 1.044213 -0.8522934 
0.0173659 1.044213 -0.7099508 
-0.4997171 1.044213 -0.7784072 
0.6566452 1.044213 0.5394357 
0.06302008 1.044213 0.77179 
0.5358685 1.044213 0.1186103 
-0.1211382 1.044213 0.2935476 
-0.4357508 1.044213 0.682615 
0.4121435 1.044213 0.3966537 
0.95066 1.044213 -0.9498831 
0.4233952 1.044213 0.9178442 
0.3546063 1.044213 -0.2382079 
-0.1867248 1.044213 0.7868043 
0.9868562 1.044213 0.09297848 
-0.2278848 1.044213 0.371393 
0.1697102 1.044213 0.02973676 
0.3081852 1.044213 0.4571006 
0.1962906 1.044213 -0.1941303 
0.1148074 1.044213 0.6594343 
0.4103304 1.044213 -0.186597 
0.5878847 1.044213 0.4196868 
0.8073343 1.044213 -0.4758532 
0.7712759 1.044213 -0.1162782 
0.9322549 1.044213 0.8427604 
0.0240739 1.044213 0.7727902 
-0.4572193 1.044213 0.5807261 
0.4173377 1.044213 0.9112988 
1.023798 1.044213 0.5950133 
-0.1920353 1.044213 0.183421 
0.3240614 1.044213 0.04780734 
0.3368661 1.044213 0.09664822 
0.7311625 1.044213 0.1308384 
0.8365016 1.044213 0.837814 
0.2158117 1.044213 0.611115 
-0.1255563 1.044213 0.4791734 
-0.004399419 1.044213 0.4531377 
0.1300083 1.044213 0.4891486 
0.972612 1.044213 -0.5293486 
0.6745941 1.044213 0.6246072 
0.1579924 1.044213 0.6525021 
0.292157 1.044213 0.4645197 
0.9789481 1.044213 0.5673707 
0.3237542 1.044213 0.6596767 
0.7155303 1.044213 -0.323354 
0.248936 1.044213 0.5395738 
-0.08610764 1.044213 0.3688545 
0.8694425 1.044213 0.3573995 
0.2019629 1.044213 0.4403161 
0.782572 1.044213 0.3731502 
-0.5469779 1.044213 0.9471554 
0.849988 1.044213 0.2842743 
0.6633036 1.044213 -0.3134874 
-0.2964652 1.044213 0.2964288 
0.5040499 1.044213 -0.2678189 
0.301229 1.044213 0.09847938 
0.1027957 1.044213 0.6003661 
-0.3320674 1.044213 0.6445507 
-0.2437254 1.044213 0.2390778 
0.1632618 1.044213 -0.1212813 
0.3666614 1.044213 0.5025257 
0.7894539 1.044213 -0.4393381 
-0.3088464 1.044213 0.4307024 
-0.3214145 1.044213 0.5013075 
0.8994484 1.044213 0.08322713 
0.6968474 1.044213 -0.4414493 
-0.6045914 1.044213 0.6771377 
0.9376893 1.044213 0.4260017 
0.6399623 1.044213 -0.1674784 
-0.5254306 1.044213 0.8055973 
1.022164 1.044213 -0.9192614 
0.4379549 1.044213 0.2214096 
0.4902663 1.044213 -0.04327658 
0.2121049 1.044213 0.4829124 
0.2461023 1.044213 0.1848664 
0.6664025 1.044213 0.9200785 
0.2535752 1.044213 0.8359606 
-0.6516044 1.044213 0.7540619 
0.703817 1.044213 -0.4546884 
0.7397039 1.044213 -0.4257492 
0.3982999 1.044213 0.1722671 
0.5393881 1.044213 0.6905625 
1.009428 1.044213 -0.8761566 
0.7547151 1.044213 0.8194003 
0.9778968 1.044213 0.1152872 
0.656599 1.044213 0.6051725 
0.9449161 1.044213 -0.9440056 
0.371571 1.044213 0.7640159 
0.1271431 1.044213 0.6581355 
0.6452008 1.044213 0.1035138 
0.3223302 1.044213 0.7985851 
-0.9101239 1.044213 0.9489229 
0.6020317 1.044213 0.7974404 
0.4610378 1.044213 0.1596582 
0.1370497 1.044213 0.2775892 
0.7785941 1.044213 -0.6010985 
-0.4384632 1.044213 0.5993289 
0.8327478 1.044213 0.8276901 
0.9820744 1.044213 -0.8434168 
0.5166333 1.044213 -0.1882862 
1.011493 1.044213 -0.06868431 
-0.3190353 1.044213 0.417924 
0.06820261 1.044213 0.9177045 
0.9697714 1.044213 -0.7420564 
0.8103288 1.044213 0.8973686 
0.8859578 1.044213 -0.3790917 
-0.1764414 1.044213 0.8598888 
0.5722764 1.044213 -0.1427913 
0.7551851 1.044213 -0.1601548 
-0.0211384 1.044213 0.2446861 
0.8998107 1.044213 -0.8559744 
-0.1945975 1.044213 0.6363108 
0.4189919 1.044213 0.07438254 
0.5703562 1.044213 -0.1633912 
-0.5471043 1.044213 0.6764703 
0.9644756 1.044213 -0.3453221 
0.3659379 1.044213 0.4859643 
0.05371712 1.044213 -0.0391307 
0.01080891 1.044213 0.8377737 
0.762598 1.044213 0.6277943 
0.9702379 1.044213 -0.6313429 
0.558584 1.044213 0.09398293 
0.5458491 1.044213 -0.4227585 
-0.3133269 1.044213 0.5743617 
0.5578189 1.044213 0.1287127 
-0.1331716 1.044213 0.158528 
0.6840866 1.044213 -0.379918 
0.8928783 1.044213 0.2017783 
0.3143418 1.044213 0.06338322 
1.001332 1.044213 0.07958576 
0.6705267 1.044213 0.7009582 
0.9857266 1.044213 -0.5284514 
0.9092054 1.044213 0.462999 
0.07027327 1.044213 0.1724214 
0.6287791 1.044213 -0.6020272 
0.1255374 1.044213 0.6974912 
0.05078955 1.044213 0.2516987 
0.1877801 1.044213 0.7654741 
0.8227524 1.044213 0.05510938 
0.7877783 1.044213 0.3551162 
-0.2270928 1.044213 0.3752351 
0.4546494 1.044213 0.1435975 
0.4558514 1.044213 -0.1599355 
0.5482079 1.044213 -0.3883827 
0.4479038 1.044213 0.3944155 
0.5884318 1.044213 0.06773438 
0.6845151 1.044213 -0.5154195 
0.6515874 1.044213 0.1621317 
-0.4532501 1.044213 0.8241184 
0.6402078 1.044213 0.1951318 
-0.2202094 1.044213 0.2703704 
0.5762049 1.044213 0.1611626 
0.2770545 1.044213 -0.02944735 
0.1328047 1.044213 0.8572339 
0.04032716 1.044213 0.712063 
0.1203512 1.044213 0.6389055 
0.3489177 1.044213 -0.315588 
0.456348 1.044213 0.0003847033 
0.4462652 1.044213 -0.3976411 
0.9073648 1.044213 -0.06293502 
0.2275576 1.044213 -0.1568855 
-0.1469735 1.044213 0.1668643 
0.5166701 1.044213 -0.4635473 
0.2939217 1.044213 0.5907284 
-0.05425123 1.044213 0.07577028 
0.05795916 1.044213 -0.006779065 
0.8966297 1.044213 0.5249275 
0.1376324 1.044213 0.2879055 
0.3140777 1.044213 0.1983482 
0.1204804 1.044213 0.5131963 
0.146757 1.044213 0.3078194 
0.9567428 1.044213 0.6324836 
0.6436124 1.044213 -0.3538156 
0.3822314 1.044213 -0.3217258 
0.6385528 1.044213 0.6071674 
1.010035 1.044213 0.7982917 
0.5655401 1.044213 -0.5301203 
-0.09581545 1.044213 0.1285581 
0.3476356 1.044213 -0.2999851 
0.3086888 1.044213 0.04977572 
-0.4294524 1.044213 0.7090864 
0.8138613 1.044213 0.1987977 
0.371026 1.044213 0.7366999 
0.7978588 1.044213 0.8540814 
0.4666792 1.044213 0.463499 
-0.06633758 1.044213 0.08840632 
-0.2427567 1.044213 0.385908 
-0.2585843 1.044213 0.4289999 
-0.3175429 1.044213 0.6673065 
0.9215528 1.044213 -0.814186 
0.5913015 1.044213 -0.1663346 
0.7032449 1.044213 0.3714893 
0.8962668 1.044213 0.3918907 
0.06967007 1.044213 -0.03039467 
0.3859351 1.044213 0.8735965 
0.3748085 1.044213 -0.3361236 
0.8762852 1.044213 -0.06816083 
0.5890611 1.044213 0.9302304 
0.4708296 1.044213 -0.4455809 
0.8667355 1.044213 0.8674626 
0.581005 1.044213 0.4798884 
0.5419673 1.044213 0.3994664 
0.3917896 1.044213 0.6235008 
-0.2577733 1.044213 0.7017449 
0.4465618 1.044213 0.7395889 
0.7134147 1.044213 0.8493321 
0.4937994 1.044213 -0.1928333 
1.000339 1.044213 0.2778293 
-0.128285 1.044213 0.3923243 
-0.8025455 1.044213 0.8359329 
0.855852 1.044213 0.6790422 
-0.06991316 1.044213 0.3299068 
0.9008137 1.044213 0.4354358 
-0.5618861 1.044213 0.7423813 
-0.01143114 1.044213 0.2574768 
0.7857298 1.044213 -0.5903196 
0.5366626 1.044213 0.5922537 
-0.3314547 1.044213 0.375434 
0.6648598 1.044213 0.6162808 
0.9999983 1.044213 0.2128743 
-0.3864463 1.044213 0.9088522 
0.690508 1.044213 -0.2624479 
0.4056476 1.044213 -0.1478927 
0.4180117 1.044213 0.4746623 
0.1009597 1.044213 0.4653485 
0.6615007 1.044213 0.904049 
0.05317658 1.044213 -0.004573807 
0.1582877 1.044213 0.6138569 
-0.6173525 1.044213 0.8159032 
0.6334708 1.044213 0.3499334 
0.09470043 1.044213 0.7724713 
0.6548305 1.044213 -0.560436 
-0.2505831 1.044213 0.8545417 
-0.05630207 1.044213 0.5535705 
-0.3956677 1.044213 0.4223181 
0.6341833 1.044213 0.3616204 
-0.2483059 1.044213 0.9105275 
1.03903 1.044213 -0.004195064 
0.01285407 1.044213 0.6633731 
0.178866 1.044213 0.8381921 
1.025135 1.044213 0.7156082 
0.8241529 1.044213 -0.737148 
0.7055953 1.044213 -0.2418396 
0.5895389 1.044213 -0.2277074 
0.6154794 1.044213 0.4344003 
0.2919489 1.044213 0.4791726 
0.7345841 1.044213 0.457455 
0.3346875 1.044213 0.7112323 
0.3294039 1.044213 0.447625 
0.9030815 1.044213 -0.5518799 
0.852566 1.044213 -0.2197168 
0.5167636 1.044213 -0.5257808 
0.9286733 1.044213 -0.3486333 
0.553525 1.044213 0.4116553 
0.1122293 1.044213 0.267368 
0.9491992 1.044213 0.6273041 
0.7232671 1.044213 -0.7229023 
0.7097849 1.044213 0.5666444 
0.8090602 1.044213 -0.4990909 
0.4960863 1.044213 -0.1191224 
0.4104354 1.044213 -0.008225709 
-0.1729713 1.044213 0.5658303 
-0.3157254 1.044213 0.6365945 
1.014493 1.044213 -0.6125643 
1.02573 1.044213 0.07442781 
0.5542808 1.044213 0.07797003 
0.4890888 1.044213 0.4115218 
0.9472356 1.044213 0.4546195 
0.2170433 1.044213 0.2932446 
0.6059614 1.044213 -0.5480779 
0.2974681 1.044213 0.1227028 
1.00947 1.044213 -0.3785672 
0.9526085 1.044213 0.8811313 
0.6786838 1.044213 -0.5585335 
0.6382779 1.044213 0.1975351 
0.4779232 1.044213 0.08185267 
-0.07505697 1.044213 0.3736367 
0.7301932 1.044213 -0.2815093 
-0.1812119 1.044213 0.4323322 
0.7143124 1.044213 0.9451762 
-0.4576292 1.044213 0.8368703 
0.2069301 1.044213 0.06506358 
0.7180609 1.044213 0.14425 
-0.01847231 1.044213 0.448694 
-0.03545013 1.044213 0.8499689 
-0.2017043 1.044213 0.446986 
0.8527481 1.044213 -0.839107 
0.5209172 1.044213 -0.1273606 
0.3675347 1.044213 -0.02998571 
-0.2105676 1.044213 0.216008 
0.7466887 1.044213 0.4507655 
0.4056683 1.044213 0.8290363 
0.4767573 1.044213 -0.3506311 
0.6794552 1.044213 0.2783394 
-0.2766127 1.044213 0.9166123 
0.7832123 1.044213 -0.3458352 
-0.4247331 1.044213 0.489303 
0.5900716 1.044213 -0.582032 
-0.17921 1.044213 0.4043711 
1.00327 1.044213 0.6456156 
0.4422309 1.044213 0.3080931 
1.007703 1.044213 0.6761888 
-0.3285783 1.044213 0.6490301 
0.7950113 1.044213 -0.7409632 
0.1755959 1.044213 0.4396023 
0.3018938 1.044213 0.347672 
0.2112895 1.044213 -0.2192853 
0.5843856 1.044213 -0.4418747 
0.6085174 1.044213 0.4924242 
0.4639354 1.044213 -0.1819766 
0.8879592 1.044213 0.6650103 
-0.3638417 1.044213 0.5642412 
-0.03339826 1.044213 0.3957735 
0.3719131 1.044213 -0.1001375 
0.5646201 1.044213 0.3601103 
-0.05127043 1.044213 0.4220092 
0.8238368 1.044213 0.5271946 
0.7648975 1.044213 0.8917419 
0.8503531 1.044213 0.4177527 
-0.3390248 1.044213 0.756183 
0.6644808 1.044213 0.546281 
0.06632334 1.044213 0.5977489 
0.7721609 1.044213 0.03410888 
1.000183 1.044213 0.5596638 
0.3859028 1.044213 0.4270878 
-0.5215582 1.044213 0.7504303 
0.002760455 1.044213 0.1859406 
0.3331963 1.044213 0.2484827 
0.7581624 1.044213 0.05024588 
0.5191667 1.044213 0.4577721 
0.7266501 1.044213 -0.4322422 
0.2048112 1.044213 0.791047 
-0.399603 1.044213 0.8418975 
-0.2737445 1.044213 0.5791639 
1.02066 1.044213 -0.598947 
0.6543151 1.044213 -0.6567401 
0.02443254 1.044213 0.8493953 
0.9907244 1.044213 -0.009264499 
-0.06087485 1.044213 0.5506929 
0.4868398 1.044213 0.702981 
-0.3532744 1.044213 0.8129659 
0.8019137 1.044213 0.4874599 
0.9898452 1.044213 0.4651873 
-0.2783791 1.044213 0.5815504 
-0.1179806 1.044213 0.8974948 
-0.8007697 1.044213 0.9274027 
-0.8020843 1.044213 0.8400376 
0.8944556 1.044213 0.5514871 
0.8398901 1.044213 0.625964 
0.9778247 1.044213 -0.1998841 
-0.178178 1.044213 0.2423534 
0.4120378 1.044213 0.1965418 
0.1458352 1.044213 0.7013943 
0.6233041 1.044213 0.5350224 
0.6358362 1.044213 0.4300358 
0.7657251 1.044213 -0.7580867 
-0.5567164 1.044213 0.7670251 
1.026455 1.044213 -0.4497812 
0.8790108 1.044213 -0.7784106 
1.003284 1.044213 -0.5789042 
0.9803751 1.044213 -0.8019302 
0.4621118 1.044213 -0.06578006 
0.1160364 1.044213 0.1919219 
-0.009969115 1.044213 0.8227032 
0.03472814 1.044213 0.6966758 
0.907863 1.044213 0.0886279 
-0.5007108 1.044213 0.752411 
0.8051274 1.044213 0.8028688 
1.01875 1.044213 0.762045 
0.898175 1.044213 -0.4700885 
0.9191607 1.044213 0.5159627 
0.3623623 1.044213 0.6982375 
0.3510925 1.044213 -0.1222545 
0.7821814 1.044213 0.4417844 
-0.2350634 1.044213 0.682663 
-0.4537683 1.044213 0.7429175 
-0.5713266 1.044213 0.8027118 
0.5011537 1.044213 0.2312546 
-0.09283245 1.044213 0.2153852 
-0.1571791 1.044213 0.5134027 
-0.1770766 1.044213 0.3649348 
-0.5009669 1.044213 0.8394477 
0.921456 1.044213 -0.2819273 
0.7762784 1.044213 -0.5307112 
0.5277625 1.044213 0.1657803 
0.2825865 1.044213 -0.1146938 
1.026679 1.044213 0.380707 
0.3573055 1.044213 0.3020326 
0.8383123 1.044213 0.5877917 
0.5642448 1.044213 0.2607222 
0.5992059 1.044213 0.3804708 
0.8119336 0.2797491 0.949522 
0.6055844 0.7616 0.949522 
0.6637689 -0.117252 0.949522 
0.5011319 0.01356336 0.949522 
-0.318963 0.4602202 0.949522 
0.3356262 -0.1473228 0.949522 
0.5967644 0.1334946 0.949522 
0.8257437 -0.3416958 0.949522 
-0.002517134 0.8254787 0.949522 
-0.1766652 0.294491 0.949522 
0.7799362 -0.3800157 0.949522 
0.5536089 0.2964598 0.949522 
-0.05757499 0.7584305 0.949522 
-0.6251602 0.8787383 0.949522 
1.006185 0.8308948 0.949522 
1.034795 0.2300293 0.949522 
0.6556661 0.8215088 0.949522 
0.4853839 -0.06582269 0.949522 
-0.1599588 0.9231334 0.949522 
0.7280824 -0.5097691 0.949522 
0.2120745 0.5643669 0.949522 
-0.4609193 1.032912 0.949522 
-0.4084791 0.9760637 0.949522 
0.8606292 -0.1791797 0.9495221 
0.1339882 0.7870631 0.949522 
0.6491044 -0.4540189 0.949522 
0.7420998 -0.5969662 0.949522 
0.5671105 -0.1105288 0.949522 
0.5206463 1.020964 0.949522 
0.7977592 -0.5818515 0.949522 
0.4485559 0.9678777 0.949522 
-0.1269425 0.3101746 0.949522 
-0.5795386 0.8655767 0.949522 
1.024219 0.9154626 0.949522 
0.8955016 0.9969455 0.949522 
0.8730679 0.5867577 0.949522 
0.4277692 0.8391898 0.949522 
-0.04224241 0.8809138 0.9495221 
-0.6321362 0.8124295 0.949522 
0.8204761 0.7477353 0.949522 
0.4359832 -0.1267488 0.949522 
0.4229733 0.8582401 0.949522 
-0.0989013 0.8030627 0.949522 
0.2591287 1.042059 0.949522 
-0.09218457 0.622153 0.949522 
-0.6728296 1.018771 0.949522 
-0.5142142 0.9425919 0.949522 
0.5215579 -0.3153327 0.949522 
0.2041321 -0.0517472 0.949522 
0.8959471 0.9465881 0.9495221 
0.03033659 1.00843 0.949522 
-0.4449094 0.9118357 0.949522 
0.6237799 0.5644817 0.949522 
0.7399844 0.0365146 0.949522 
-0.3242771 0.8933966 0.949522 
0.5051211 0.2987258 0.949522 
0.6222275 0.3479803 0.949522 
0.3485758 -0.0425972 0.949522 
0.7221935 1.041555 0.949522 
0.4717197 0.09975585 0.949522 
0.62616 0.5860246 0.949522 
0.6365819 -0.2102665 0.949522 
0.8640558 0.9139588 0.949522 
0.9237683 0.6755607 0.949522 
0.5548723 -0.2244682 0.949522 
0.9044133 0.1747606 0.949522 
0.1830388 1.040916 0.949522 
-0.153592 0.5340492 0.949522 
0.7753277 -0.6611922 0.949522 
0.1634824 0.3395116 0.949522 
0.4158742 0.9661809 0.949522 
0.1046078 0.982623 0.949522 
0.2005084 0.3933373 0.949522 
0.9587892 0.1443752 0.949522 
0.9546508 0.9715307 0.949522 
0.5036426 -0.308423 0.949522 
0.5718001 0.2416452 0.949522 
0.5489942 0.3006202 0.949522 
-0.02279848 0.2691664 0.949522 
0.7547822 0.1095975 0.949522 
0.7018505 0.2922293 0.949522 
-0.0464558 0.4180336 0.949522 
0.8798823 0.4889178 0.949522 
0.5684268 0.9717286 0.949522 
0.4972038 -0.2002814 0.949522 
0.1885751 0.01587284 0.949522 
0.6590639 0.6681232 0.949522 
0.6109643 0.07431671 0.949522 
0.688007 -0.05470586 0.9495221 
0.5739973 0.6654853 0.949522 
0.5525577 0.7992181 0.949522 
0.8879992 1.031105 0.949522 
0.1203668 0.1025939 0.949522 
0.9557838 -0.6305835 0.949522 
0.7172077 0.7219194 0.949522 
0.08593076 0.4353628 0.949522 
0.7374741 0.8713871 0.9495221 
0.515552 -0.4148617 0.949522 
0.2766213 0.3525773 0.949522 
0.7146866 0.246666 0.949522 
0.2197253 0.9676411 0.949522 
0.1199377 0.4789761 0.949522 
-0.212097 0.6462516 0.949522 
0.9640866 0.332545 0.9495221 
0.7684417 1.043092 0.949522 
0.7818562 0.9100785 0.949522 
0.5545196 0.08830303 0.949522 
-0.1354235 0.8795748 0.949522 
-0.008052975 0.2111732 0.949522 
0.3168735 0.9979941 0.949522 
1.023751 0.07719813 0.949522 
1.031466 0.6002782 0.949522 
0.1472556 0.2317877 0.949522 
0.6074085 0.5049448 0.949522 
0.6704203 -0.4433295 0.949522 
0.4403527 0.06818125 0.949522 
0.7616904 0.5342666 0.949522 
-0.2428342 0.798578 0.949522 
-0.6751064 0.9196628 0.949522 
0.06776351 0.1736671 0.949522 
1.005122 -0.7765581 0.9495221 
0.6280087 -0.1351569 0.949522 
0.1348202 0.03543973 0.949522 
-0.06001884 0.8229239 0.949522 
-0.4512674 0.6147555 0.949522 
0.4184287 0.9787002 0.949522 
0.7986226 -0.5883558 0.949522 
0.08096167 0.7775129 0.949522 
0.1590148 1.035633 0.949522 
-0.6877223 0.9582433 0.949522 
0.775577 -0.2897053 0.949522 
0.6657411 0.993067 0.9495221 
0.7313282 0.6566547 0.949522 
-0.6735821 0.8127013 0.949522 
-0.5707585 0.9820747 0.949522 
0.8782212 0.6288109 0.949522 
-0.2979722 0.8111923 0.949522 
-0.1462741 0.2605905 0.949522 
0.6040604 -0.1005519 0.949522 
0.2244877 0.7859967 0.949522 
-0.4059755 0.7063127 0.949522 
0.8647805 0.9261639 0.949522 
0.482154 -0.2204352 0.949522 
0.1803568 0.5705147 0.9495221 
0.7654241 0.3797106 0.949522 
0.6080103 -0.5187955 0.949522 
0.08838725 0.6168503 0.949522 
0.4938492 0.6191275 0.949522 
-0.3019381 0.9096899 0.949522 
0.9391726 -0.2219751 0.949522 
-0.6237165 0.8847661 0.949522 
0.1649856 0.7774322 0.949522 
0.9355043 -0.3215272 0.949522 
0.4261275 -0.19965 0.949522 
-0.7450612 0.9569718 0.949522 
-0.1310803 0.9618981 0.949522 
-0.7703692 0.9572328 0.949522 
0.2130091 0.9031987 0.949522 
-0.06717008 0.2371839 0.949522 
-0.1624138 0.7898775 0.949522 
0.5111631 0.626238 0.949522 
0.17868 0.08235621 0.949522 
0.003134966 0.5096564 0.949522 
0.4523184 -0.02246797 0.949522 
0.8060244 1.000741 0.949522 
0.3622399 0.8456783 0.949522 
0.4259546 -0.09309888 0.949522 
-0.1861421 0.8609385 0.949522 
0.7535636 0.3239019 0.949522 
0.4587218 0.8438931 0.9495221 
0.5689641 -0.3298863 0.949522 
0.9582581 0.6422976 0.949522 
-0.5904448 0.7254342 0.949522 
0.7513257 1.025049 0.949522 
-0.4179772 0.5311239 0.949522 
1.034957 -0.05236795 0.949522 
-0.6954486 1.018212 0.949522 
0.9461569 -0.03863398 0.949522 
0.5122833 0.8155596 0.949522 
1.019157 0.5582997 0.9495221 
0.6407207 0.06255659 0.949522 
0.004229665 0.2461832 0.949522 
-0.009940445 0.5288295 0.949522 
0.03111777 0.2543969 0.949522 
0.4413787 0.2042515 0.949522 
0.9718953 0.9265364 0.949522 
0.9842566 -0.6786611 0.949522 
0.3752481 0.1285339 0.949522 
-0.0117867 0.2997669 0.949522 
0.6588716 0.9604373 0.9495221 
0.6885003 0.07080981 0.949522 
0.9190109 0.7106062 0.9495221 
1.029815 0.9175694 0.949522 
0.679152 -0.2419621 0.949522 
0.1799329 -0.05566826 0.949522 
0.8353568 -0.4192136 0.949522 
0.8770677 0.2599662 0.949522 
-0.05198181 0.3526955 0.949522 
0.4231634 -0.1616336 0.949522 
-0.3224656 0.6361458 0.949522 
0.1937211 0.2256458 0.949522 
-0.8307734 0.9691738 0.949522 
0.8349695 -0.1795411 0.949522 
0.6740804 0.6073885 0.949522 
-0.4092283 0.7882303 0.949522 
0.3063261 0.266664 0.949522 
0.1838591 0.4452251 0.949522 
0.7031102 0.1818924 0.949522 
0.8273315 -0.1227093 0.949522 
0.569251 0.8217683 0.9495221 
0.811321 0.05575047 0.949522 
0.8398405 -0.5177473 0.949522 
0.2976208 -0.171276 0.949522 
0.282911 0.8370136 0.949522 
0.199108 0.8998504 0.949522 
0.477209 0.2562558 0.949522 
0.8012403 0.8876373 0.9495221 
0.2472262 0.1104091 0.949522 
0.5756705 0.9720141 0.949522 
0.121155 1.039628 0.949522 
0.9575203 0.2288319 0.949522 
-0.310434 0.4673412 0.949522 
0.9558969 -0.3333247 0.949522 
-0.1902745 0.8051311 0.949522 
0.09713605 0.6062646 0.949522 
0.4305963 0.7674202 0.949522 
0.8251718 0.01462786 0.949522 
0.9577935 0.6340975 0.9495221 
0.9666557 -0.2355929 0.949522 
0.6338968 -0.02788718 0.949522 
0.9166846 -0.7562362 0.949522 
0.9856119 0.1026558 0.949522 
0.287037 0.9408395 0.949522 
0.9208384 0.2981668 0.949522 
0.6588844 0.6506137 0.949522 
0.7371606 0.960247 0.949522 
1.02332 -0.701466 0.949522 
0.9491132 0.8143513 0.949522 
0.396752 -0.1349771 0.949522 
-0.2760825 0.9857728 0.949522 
-0.07897907 0.9476947 0.949522 
0.02852285 0.8123751 0.949522 
0.9044409 1.030066 0.949522 
0.002241641 0.1952063 0.949522 
-0.3897374 0.4851266 0.949522 
0.8183308 0.5990065 0.9495221 
-0.115168 0.9642892 0.949522 
-0.19509 0.5742826 0.949522 
0.9159129 -0.7744995 0.949522 
0.5044483 0.7239134 0.949522 
0.8027685 -0.6593843 0.949522 
0.4459018 0.2144513 0.949522 
0.5264248 -0.01492706 0.949522 
-0.04241982 0.6362149 0.949522 
0.9753049 1.025302 0.949522 
0.1918601 0.2553421 0.949522 
0.1356864 0.3508215 0.949522 
-0.0789493 0.2424557 0.949522 
0.4381331 1.026969 0.949522 
0.6556141 -0.5063779 0.949522 
-0.2724778 0.8898792 0.949522 
0.927299 -0.6001269 0.9495221 
0.3243715 0.9738052 0.949522 
0.3988022 0.9753238 0.949522 
1.038036 -0.703464 0.9495221 
0.2825218 0.006240845 0.949522 
0.947867 -0.7580908 0.949522 
-0.2609364 0.8253311 0.949522 
0.4997041 -0.1340909 0.949522 
0.2625763 0.7842911 0.949522 
0.9481186 0.9851095 0.949522 
1.011908 -0.747044 0.9495221 
0.6430025 1.039987 0.9495221 
-0.5111532 1.038001 0.949522 
0.9422592 -0.04427892 0.949522 
0.1126428 0.3166951 0.949522 
0.1487364 0.2306206 0.949522 
0.8252207 -0.2076291 0.949522 
-0.09454912 0.4777536 0.949522 
0.6915559 -0.2849955 0.949522 
0.4980535 0.4946336 0.949522 
-0.2421992 0.403284 0.949522 
-0.1208809 0.3552924 0.949522 
-0.5679013 0.7836555 0.949522 
0.6058216 0.7587513 0.949522 
-0.225733 0.4430148 0.949522 
-0.1768269 0.3283809 0.949522 
-0.1495706 0.9340858 0.949522 
0.64691 0.2777448 0.949522 
0.4466889 0.8296137 0.949522 
-0.008764237 0.7863622 0.949522 
0.7932475 0.8549204 0.949522 
-0.6438547 0.8029583 0.949522 
0.8205348 0.9560354 0.949522 
0.3764611 0.9601955 0.949522 
-0.6621554 0.9919465 0.949522 
0.7407532 0.2249645 0.9495221 
0.9844176 0.3745431 0.949522 
0.5329386 0.7748692 0.949522 
0.98699 0.7708232 0.949522 
0.02563363 0.5251529 0.949522 
0.6420904 -0.3075009 0.949522 
0.02110252 0.2476408 0.949522 
0.2168032 0.5459814 0.949522 
0.8906018 0.4374785 0.949522 
0.940606 0.9272304 0.949522 
0.6458044 0.6852386 0.949522 
0.8133762 0.02684375 0.949522 
-0.6907628 0.950929 0.949522 
0.2669901 0.6041676 0.949522 
0.9099283 0.2028016 0.949522 
0.8049476 0.4319554 0.949522 
0.5197947 -0.4005759 0.949522 
0.3809461 0.7396114 0.949522 
0.4735389 0.3072855 0.949522 
-0.07108366 0.1887561 0.949522 
-0.3749468 0.4743472 0.949522 
0.6338568 -0.3427505 0.949522 
0.5113106 0.0889498 0.949522 
0.2156659 0.5382819 0.949522 
0.974984 -0.3582883 0.949522 
0.3278414 0.6274123 0.949522 
0.141724 0.7409614 0.949522 
0.1710344 0.3481691 0.949522 
0.7139428 -0.3937817 0.9495221 
0.8978044 -0.6985226 0.949522 
-0.4278323 0.6133436 0.949522 
0.8497893 -0.5534825 0.949522 
0.2448315 -0.04545978 0.949522 
0.2727093 0.1381597 0.949522 
0.5968436 0.5415253 0.949522 
0.08754879 0.1353684 0.949522 
-0.01326239 0.116975 0.949522 
-0.2889841 0.5557652 0.949522 
0.5938363 0.2747148 0.949522 
-0.6518043 0.8473964 0.9495221 
0.05669913 0.7105211 0.949522 
0.9362887 -0.004507463 0.949522 
0.3843083 -0.1532165 0.949522 
-0.2795253 0.8460849 0.9495221 
0.465747 0.915284 0.949522 
0.7677512 -0.4308527 0.949522 
0.2893321 0.3152717 0.949522 
0.2918441 0.6829367 0.949522 
0.7455018 -0.6268574 0.949522 
-0.135437 0.8554415 0.949522 
-0.2544031 0.5761579 0.949522 
0.786525 1.017254 0.949522 
0.4573331 0.004380435 0.949522 
0.5833349 0.9943668 0.949522 
-0.4761387 0.608331 0.949522 
0.4065482 0.73832 0.949522 
-0.2360575 0.4497691 0.949522 
0.7113013 -0.1665372 0.949522 
0.564284 0.7096325 0.949522 
0.09025404 0.5575452 0.949522 
1.013668 0.1071077 0.949522 
-0.06861997 1.034393 0.949522 
-0.2379031 0.4366025 0.949522 
0.0113481 0.9145162 0.949522 
0.2139895 0.3022122 0.949522 
0.4931767 1.019858 0.949522 
0.7312154 -0.363462 0.949522 
-0.09106994 0.788654 0.949522 
0.8624422 0.008276805 0.949522 
-0.08575442 0.4247112 0.949522 
0.8622403 0.5029896 0.949522 
0.09709913 0.9813389 0.949522 
0.9301708 -0.7188047 0.949522 
0.8381978 0.198149 0.949522 
0.7205833 0.7337581 0.949522 
0.8986096 -0.5249725 0.949522 
-0.0565182 0.1579695 0.949522 
0.8730832 0.805167 0.949522 
-0.1448888 0.4671013 0.949522 
0.2431426 0.2763779 0.949522 
-0.19917 0.9179704 0.949522 
0.5506196 0.8448741 0.949522 
-0.01524007 0.4985064 0.949522 
0.7844231 0.4411668 0.949522 
0.8131124 0.8967857 0.949522 
-0.6235195 0.8792998 0.949522 
0.9605613 0.7385849 0.949522 
0.781005 0.5614195 0.9495221 
-0.5586852 0.7698332 0.949522 
1.035814 -0.4383173 0.949522 
0.05003679 0.8265896 0.949522 
0.6580385 -0.1715059 0.949522 
0.881384 0.8808476 0.949522 
0.5185065 1.040776 0.949522 
0.6871201 0.9103801 0.949522 
-0.007346094 0.3281449 0.949522 
0.8161439 0.4087932 0.949522 
-0.5802563 1.038643 0.949522 
-0.2722431 0.9617273 0.949522 
0.1218673 0.6030679 0.9495221 
0.9320883 0.2673194 0.949522 
0.8327304 -0.02553977 0.949522 
0.6277653 0.7068559 0.949522 
0.7834383 -0.5776703 0.949522 
0.4799885 1.029625 0.949522 
0.3125426 0.2600774 0.949522 
0.5846769 -0.3429638 0.949522 
0.959288 -0.7283002 0.949522 
0.4458269 1.017712 0.949522 
-0.6251507 0.8615224 0.949522 
0.7465185 0.8986585 0.949522 
0.684328 -0.3394167 0.949522 
0.6379572 0.3684275 0.949522 
0.7877179 0.1760415 0.949522 
0.03264675 0.8407706 0.949522 
-0.2018393 0.5393014 0.949522 
0.4328556 0.8486538 0.949522 
0.951728 -0.6040556 0.9495221 
-0.380146 0.6942402 0.949522 
0.4269175 0.5386503 0.949522 
0.7260498 0.8151724 0.949522 
1.001619 -0.8064117 0.949522 
0.07517073 1.041536 0.949522 
0.7324488 0.2415563 0.949522 
0.93514 -0.2345426 0.949522 
0.4542874 0.6899387 0.949522 
0.6555873 -0.1310525 0.9495221 
-0.5115785 0.9326253 0.949522 
-0.1002437 -0.1660865 0.949522 
-0.3089689 -0.1284268 0.949522 
-0.02381817 -0.7853275 0.949522 
-0.3833776 0.08985148 0.949522 
-0.5836243 -0.7882305 0.949522 
-0.01882449 0.03802658 0.9495221 
0.4463155 -0.8108932 0.949522 
-0.0528913 -0.363089 0.949522 
-0.4168277 -0.3450719 0.949522 
0.753268 -0.9465998 0.949522 
-0.7540458 0.1246517 0.949522 
-0.3260258 0.2182722 0.949522 
-0.7509658 -0.2120468 0.949522 
0.1010953 -0.04285837 0.949522 
-0.727073 0.6122171 0.949522 
-0.003728308 -0.05999664 0.949522 
-0.7477458 0.7697107 0.949522 
-0.2408341 -0.9459084 0.949522 
-0.204199 -0.7056187 0.949522 
0.4471248 -0.5059285 0.949522 
0.9084476 -0.9150143 0.949522 
-0.3004774 -0.6705214 0.949522 
-0.001344115 -0.3149655 0.949522 
-0.1436159 -0.765287 0.949522 
-0.3692001 -0.1840982 0.949522 
-0.7033125 -0.9239911 0.949522 
-0.4914647 -0.3329981 0.949522 
-0.7445582 0.658669 0.949522 
-0.3044243 -0.404851 0.949522 
-0.4941777 -0.9023665 0.949522 
-0.8859861 -0.6170673 0.949522 
-0.003891379 -0.4843435 0.949522 
-0.1264862 -0.3981014 0.949522 
-0.3063745 -0.6012217 0.949522 
0.2947097 -0.4848748 0.949522 
0.3269991 -0.714653 0.949522 
-0.5601263 0.2755499 0.949522 
0.06198391 -0.8999406 0.949522 
-0.4128702 -0.953178 0.949522 
0.2285603 -0.9417911 0.949522 
-0.1427621 -0.6202185 0.949522 
-0.6263236 -0.6549155 0.949522 
-0.7202546 0.01322505 0.949522 
-0.4226928 0.2064481 0.949522 
-0.0642295 -0.1434121 0.949522 
-0.8530836 0.4902512 0.949522 
-0.4596454 -0.1414411 0.949522 
-0.6823846 0.2144936 0.949522 
-0.8128338 -0.7126064 0.949522 
-0.8273236 -0.7985998 0.949522 
-0.8197491 -0.8916546 0.949522 
0.3135981 -0.6194502 0.949522 
-0.7008887 -0.00412932 0.949522 
-0.8346804 0.7269504 0.949522 
-0.5262439 0.4313891 0.949522 
0.5045599 -0.5734659 0.949522 
-0.9294613 -0.8255482 0.949522 
0.4062966 -0.847807 0.949522 
-0.4553447 -0.4662545 0.949522 
-0.7584392 -0.2065954 0.949522 
-0.6693866 0.630866 0.949522 
0.2037411 -0.4723008 0.949522 
-0.02649263 -0.4426122 0.949522 
-0.5212294 -0.6437793 0.949522 
-0.81677 0.6905576 0.949522 
-0.04896295 -0.7678162 0.949522 
-0.8579814 -0.9153824 0.949522 
-0.5710594 -0.2622285 0.949522 
0.4565051 -0.3875584 0.949522 
0.5459582 -0.6902526 0.949522 
-0.2132162 -0.8955073 0.949522 
-0.9120986 0.5660899 0.949522 
0.4906251 -0.7481409 0.949522 
-0.9303572 0.2819624 0.949522 
-0.4436695 -0.397278 0.949522 
-0.2081213 0.116513 0.949522 
-0.2625135 -0.4735598 0.949522 
-0.279802 -0.941503 0.949522 
-0.6836476 -0.5688153 0.949522 
0.09472403 -0.7728834 0.949522 
-0.5046624 -0.6199218 0.949522 
0.7937682 -0.8402832 0.949522 
0.5251611 -0.6546515 0.949522 
0.4950204 -0.6812209 0.949522 
-0.8294278 -0.2772378 0.949522 
-0.3182084 -0.8788075 0.949522 
0.3428574 -0.6594608 0.9495221 
0.6174178 -0.5862588 0.949522 
-0.7008966 0.3349369 0.949522 
-0.08215311 -0.6688935 0.949522 
-0.951395 0.7509645 0.949522 
-0.8373945 0.05613682 0.949522 
0.2357164 -0.5175419 0.949522 
0.4526025 -0.4064793 0.949522 
-0.869373 -0.8905465 0.949522 
0.5551265 -0.9368457 0.949522 
0.02555105 -0.7868889 0.949522 
0.1367594 -0.2962002 0.949522 
-0.8568708 0.5076156 0.949522 
-0.6423885 0.6123673 0.949522 
-0.08655505 -0.4898306 0.949522 
-0.8824451 -0.2256781 0.949522 
-0.875442 0.7361785 0.949522 
-0.2782004 -0.625743 0.949522 
-0.5071216 -0.7425149 0.949522 
-0.8964372 -0.8473666 0.949522 
0.0411198 0.009278253 0.949522 
-0.1219197 -0.9190402 0.949522 
-0.1587321 0.2056015 0.9495221 
0.1040928 -0.7116168 0.949522 
-0.123522 -0.8594826 0.949522 
-0.3845579 -0.4154263 0.949522 
-0.691634 -0.7430934 0.949522 
0.4228888 -0.7461703 0.949522 
0.3557627 -0.5068511 0.949522 
-0.9452083 -0.7734289 0.949522 
0.2405187 -0.9224262 0.949522 
0.7672635 -0.8743644 0.949522 
-0.1324113 -0.8052817 0.949522 
-0.5951609 -0.3855201 0.9495221 
-0.08623696 0.02044731 0.949522 
-0.8008983 -0.8969305 0.949522 
-0.3428777 -0.09201351 0.949522 
-0.7684579 -0.4078463 0.949522 
0.01424724 -0.6976203 0.949522 
-0.8805895 -0.6454028 0.949522 
0.254807 -0.4181634 0.949522 
-0.4768884 0.1764341 0.949522 
0.1059971 -0.1639801 0.949522 
-0.2971303 0.1937201 0.949522 
-0.09963205 -0.1845655 0.949522 
-0.6030638 -0.06217623 0.949522 
0.9108589 -0.9317403 0.949522 
-0.3201943 -0.8872452 0.949522 
-0.5623832 -0.1582461 0.949522 
0.1920478 -0.9146872 0.9495221 
-0.2474951 0.1297508 0.949522 
-0.4283784 -0.7805611 0.949522 
-0.0869576 -0.3074689 0.949522 
-0.6934163 -0.374754 0.949522 
0.1211215 -0.7137346 0.949522 
-0.9032254 -0.5140753 0.949522 
-0.2631652 0.2553888 0.949522 
0.08777282 -0.7204389 0.949522 
-0.8744563 -0.10445 0.949522 
-0.2814294 -0.02303104 0.949522 
0.1712259 -0.1059246 0.949522 
-0.8392895 0.133793 0.949522 
-0.5268622 0.4350621 0.949522 
-0.4024611 -0.7646305 0.949522 
-0.9118177 -0.4227076 0.949522 
-0.7319431 0.784178 0.949522 
-0.1896731 0.05115555 0.949522 
-0.7248986 0.5248961 0.949522 
0.01179332 -0.1391204 0.949522 
-0.7569789 -0.5005506 0.949522 
-0.6929162 -0.8660224 0.949522 
0.6805945 -0.829768 0.949522 
-0.26753 -0.5892926 0.949522 
-0.7085617 0.292697 0.9495221 
0.1716527 -0.3729755 0.949522 
0.5895826 -0.6814122 0.949522 
0.3588582 -0.5779201 0.949522 
-0.7119946 -0.8690211 0.949522 
-0.1717013 -0.3625608 0.949522 
0.5644898 -0.4813812 0.949522 
-0.667659 -0.276102 0.949522 
0.9263747 -0.9471951 0.949522 
0.5423157 -0.79945 0.949522 
0.3681037 -0.3366182 0.949522 
-0.2824277 -0.5078455 0.949522 
-0.8256814 -0.3463657 0.949522 
-0.4960474 0.4446769 0.949522 
-0.6422356 -0.6594176 0.949522 
-0.25646 -0.07390623 0.949522 
-0.1158559 -0.09645179 0.949522 
0.04978675 -0.01762764 0.949522 
0.3543392 -0.6735597 0.949522 
-0.440096 -0.0630953 0.949522 
-0.7341004 -0.1890245 0.949522 
-0.8505061 -0.1465045 0.949522 
0.003590152 -0.3457071 0.949522 
-0.2964674 -0.7535714 0.949522 
-0.5118814 0.3003343 0.949522 
0.1889687 -0.5114763 0.949522 
-0.557487 -0.2422402 0.949522 
-0.8767582 0.5975255 0.949522 
-0.7620113 -0.09571889 0.949522 
-0.5669172 0.2863361 0.949522 
-0.9169116 0.4860637 0.949522 
-0.3490974 0.08811747 0.949522 
0.163795 -0.3263038 0.949522 
-0.8478135 -0.6101267 0.949522 
-0.2107224 -0.4421095 0.949522 
0.5468823 -0.6671646 0.949522 
-0.7477522 -0.8192568 0.949522 
-0.3732547 0.1084862 0.949522 
0.2740557 -0.4436975 0.949522 
-0.1558823 -0.6272542 0.949522 
-0.6526881 -0.397113 0.949522 
-0.4827471 -0.7310322 0.949522 
-0.1044349 -0.6300803 0.949522 
-0.9194546 -0.5533073 0.949522 
-0.83183 0.808136 0.949522 
-0.5446121 0.1202952 0.949522 
-0.7157423 -0.5816874 0.9495221 
-0.4723038 -0.4055515 0.949522 
0.09280643 -0.7228922 0.949522 
-0.5964041 0.6402355 0.949522 
-0.6789311 0.7301577 0.9495221 
-0.7779132 -0.03187957 0.949522 
-0.0126777 -0.5366088 0.949522 
-0.04169264 0.1051039 0.949522 
-0.6148343 -0.6423917 0.949522 
-0.8695306 -0.5251064 0.949522 
0.09992513 -0.3892387 0.949522 
-0.01766375 -0.6811237 0.949522 
-0.8600872 -0.01325834 0.949522 
-0.7853487 -0.03477895 0.949522 
-0.0603576 -0.8408434 0.949522 
-0.3752601 -0.2124721 0.949522 
-0.7470364 0.6569864 0.949522 
0.03680181 -0.1527065 0.949522 
-0.6369291 0.4014244 0.949522 
-0.8532392 0.2866009 0.949522 
-0.7534764 0.4821519 0.949522 
-0.2934718 -0.5696589 0.949522 
-0.9357532 0.02418658 0.949522 
0.4287215 -0.7142454 0.949522 
-0.5875242 -0.6759472 0.949522 
0.2433455 -0.8501777 0.949522 
0.2700828 -0.2176737 0.949522 
-0.9234005 0.1669017 0.949522 
0.3416566 -0.3713103 0.949522 
-0.8611649 0.1035058 0.949522 
-0.6434609 -0.2606408 0.949522 
-0.7210082 0.6005816 0.949522 
-0.896122 0.2802487 0.949522 
0.0003733225 0.04003835 0.949522 
0.04394427 0.01495805 0.949522 
0.4838585 -0.7354877 0.949522 
-0.2731874 -0.7888867 0.949522 
-0.4611211 0.1789758 0.949522 
0.1736225 -0.1017904 0.949522 
0.4375182 -0.8972148 0.9495221 
-0.9385563 0.06506571 0.949522 
0.05561996 -0.8831927 0.949522 
-0.6225296 0.4935125 0.949522 
-0.5404026 -0.4426098 0.949522 
-0.5881311 -0.7221819 0.949522 
-0.8952844 0.5828741 0.949522 
0.4890734 -0.4872259 0.949522 
-0.8949429 -0.03731945 0.949522 
-0.5330696 -0.6171505 0.949522 
0.3750606 -0.8160279 0.949522 
-0.6618496 -0.5393699 0.949522 
0.8427927 -0.9162657 0.949522 
-0.157225 -0.1590094 0.949522 
-0.5173475 -0.1705292 0.949522 
-0.5466595 -0.01807719 0.949522 
-0.8952636 0.2368402 0.949522 
-0.784068 0.4911304 0.949522 
-0.1008171 -0.1395657 0.949522 
-0.9455748 0.2394407 0.949522 
-0.3197587 0.1927938 0.949522 
0.6406759 -0.7121037 0.949522 
-0.8467364 -0.2558804 0.949522 
-0.3187573 0.1377043 0.949522 
-0.001433283 -0.7015887 0.949522 
0.6215726 -0.7927938 0.949522 
0.4470419 -0.3768727 0.949522 
-0.7263278 0.3978454 0.949522 
-0.3064761 0.1301286 0.949522 
-0.9362396 0.04578274 0.949522 
0.7573574 -0.8388305 0.949522 
-0.3804378 -0.8085747 0.949522 
-0.9344233 0.3684594 0.949522 
-0.9238314 -0.2836447 0.9495221 
-0.06499723 -0.9257063 0.949522 
0.0439588 -0.4591148 0.949522 
-0.4422422 -0.2488491 0.949522 
-0.129384 -0.7215178 0.949522 
0.04719325 0.02043313 0.949522 
-0.5166189 0.2918074 0.949522 
-0.6711819 -0.7233112 0.949522 
-0.2157417 -0.4642633 0.9495221 
0.1425513 -0.6277804 0.949522 
-0.4495409 -0.2729947 0.949522 
-0.06870496 -0.4445505 0.949522 
-0.2592684 -0.6405805 0.949522 
-0.7572199 -0.4025754 0.949522 
-0.6124367 -0.3583695 0.949522 
0.2061792 -0.9439784 0.9495221 
-0.2167773 -0.498483 0.9495221 
-0.6071275 -0.2960226 0.949522 
0.6652133 -0.9191182 0.949522 
-0.08250302 -0.4434895 0.9495221 
0.08011578 -0.1941323 0.949522 
0.3514417 -0.899446 0.949522 
-0.3580028 0.02855553 0.949522 
0.08484516 -0.3537331 0.949522 
-0.6366612 0.238407 0.949522 
-0.1263338 -0.04255261 0.949522 
0.2689615 -0.6962454 0.949522 
-0.5509514 0.1486518 0.949522 
0.4812015 -0.6576586 0.949522 
-0.7717385 0.5271153 0.949522 
-0.3723994 -0.0132108 0.949522 
-0.4561069 -0.5825405 0.949522 
-0.7263605 -0.3928554 0.949522 
-0.4269786 0.04585168 0.949522 
-0.8730724 -0.7437496 0.949522 
-0.451769 -0.8572204 0.949522 
-0.6773635 0.1195023 0.949522 
0.2543048 -0.3805922 0.949522 
-0.8570972 -0.8085212 0.949522 
-0.4976694 0.03686947 0.949522 
0.5781115 -0.7104471 0.949522 
-0.8681118 0.6177372 0.949522 
-0.6102271 -0.7269844 0.949522 
-0.06183174 -0.7071559 0.949522 
-0.4496319 0.1924191 0.9495221 
-0.1729476 -0.02304254 0.949522 
-0.05675922 -0.2077097 0.949522 
-0.1254292 -0.4650173 0.949522 
-0.8473004 0.1330088 0.949522 
-0.8813652 -0.3678437 0.949522 
0.2774613 -0.8148028 0.949522 
-0.02973869 -0.5967184 0.949522 
0.8869832 -0.876092 0.949522 
0.7124548 -0.8881642 0.949522 
-0.5174367 -0.7317235 0.949522 
-0.4908416 0.3217607 0.949522 
0.5320889 -0.9338788 0.9495221 
0.2602079 -0.9103044 0.949522 
0.2117063 -0.1847303 0.949522 
0.1494161 -0.1564693 0.9495221 
-0.8520491 0.06478924 0.949522 
-0.2332055 -0.05904761 0.949522 
0.7138602 -0.8735738 0.949522 
0.1395304 -0.6665899 0.949522 
-0.8020778 0.09080216 0.949522 
0.3550228 -0.711418 0.949522 
-0.8067997 -0.1760313 0.949522 
0.3542453 -0.8574619 0.949522 
-0.1622554 -0.3409174 0.949522 
-0.7661021 -0.3153676 0.949522 
-0.952356 0.1216218 0.949522 
-0.06494977 0.06794593 0.949522 
-0.07737029 -0.3692698 0.949522 
-0.3681712 0.3096189 0.949522 
-0.5429937 -0.8386658 0.949522 
0.3630822 -0.4194119 0.9495221 
-0.8947452 0.5350041 0.949522 
0.5209544 -0.7739336 0.949522 
-0.3591403 0.2133181 0.949522 
-0.8886201 0.8572197 0.949522 
0.7135718 -0.8424209 0.949522 
-0.3393797 -0.0692599 0.949522 
0.8089036 -0.9498643 0.949522 
-0.9553549 -0.6494744 0.949522 
-0.10404 -0.1408044 0.9495221 
-0.1795807 -0.4888953 0.949522 
-0.7328327 0.1148406 0.949522 
-0.6226367 0.4210007 0.949522 
-0.02486768 -0.3730558 0.949522 
-0.8141906 -0.1299081 0.949522 
-0.7034926 0.5658306 0.949522 
-0.7452174 -0.8276692 0.949522 
0.05869627 -0.9490486 0.949522 
-0.29888 -0.5776413 0.949522 
-0.06288924 0.02662044 0.949522 
-0.6086878 -0.1887247 0.949522 
-0.2808106 -0.710235 0.949522 
-0.9280556 0.77815 0.949522 
-0.3587832 -0.3274254 0.9495221 
-0.6722388 -0.7800767 0.949522 
-0.518562 -0.1382003 0.949522 
-0.5428986 0.4795749 0.949522 
-0.5185154 -0.2169678 0.949522 
0.05473769 -0.5162761 0.949522 
-0.2754478 0.3527206 0.9495221 
-0.0391916 -0.5688502 0.949522 
0.2549961 -0.7665869 0.9495221 
0.4074011 -0.7925072 0.949522 
-0.2592815 0.1606922 0.949522 
-0.9535092 -0.1205044 0.949522 
-0.3629029 -0.7348924 0.9495221 
0.1111605 -0.06127574 0.949522 
-0.03132921 -0.7332258 0.949522 
-0.8549627 0.5721681 0.9495221 
0.3825015 -0.6784788 0.949522 
-0.8884324 0.387733 0.949522 
-0.775224 0.3513288 0.949522 
0.3140392 -0.8133005 0.949522 
-0.9298261 -0.7324202 0.949522 
0.3325137 -0.535876 0.949522 
-0.855486 0.8952723 0.949522 
-0.9119463 0.2046184 0.949522 
0.06984774 -0.1623382 0.9495221 
-0.795065 0.2183518 0.949522 
0.2090598 -0.9036953 0.949522 
0.1738326 -0.4799966 0.949522 
0.3880545 -0.7386342 0.9495219 
-0.6351474 0.6442713 0.949522 
0.1507398 -0.8661618 0.949522 
0.2144612 -0.8756996 0.949522 
-0.2054926 -0.5590755 0.949522 
0.7725954 -0.8769788 0.949522 
-0.93641 0.5757104 0.949522 
-0.5212657 0.2606772 0.949522 
-0.2997814 -0.9338701 0.949522 
-0.5670489 0.1693252 0.949522 
-0.2365982 0.05243692 0.949522 
-0.8587903 -0.4497044 0.949522 
-0.04755992 -0.5638646 0.949522 
-0.1574409 0.05874392 0.949522 
-0.5033856 -0.3775555 0.949522 
-0.5802018 -0.9310243 0.949522 
-0.8356004 0.3749738 0.949522 
0.3348787 -0.5154566 0.949522 
-0.361268 0.3536522 0.949522 
-0.1328607 -0.7725745 0.949522 
-0.7320296 0.3074152 0.949522 
-0.3528143 -0.1994105 0.949522 
0.01786947 -0.7305129 0.949522 
-0.1851096 0.1911582 0.949522 
-0.6617329 -0.737335 0.949522 
0.262355 -0.5073279 0.949522 
-0.9607919 0.1248778 0.1522948 
-0.960792 0.5868471 0.2610806 
-0.9607921 0.8589129 0.3125415 
-0.960792 0.8933266 0.9170095 
-0.960792 -0.1104404 0.6053413 
-0.960792 0.697036 0.4842418 
-0.960792 0.1362079 0.8163685 
-0.960792 -0.265912 0.4315389 
-0.9607919 0.8151833 0.5051374 
-0.9607921 0.3177489 0.6766811 
-0.9607921 0.3534314 0.3706983 
-0.9607919 0.2444088 -0.07795277 
-0.9607919 -0.8062273 0.8815767 
-0.9607921 0.9305791 0.5662836 
-0.9607919 -0.1712244 0.8124729 
-0.960792 1.027151 0.8336029 
-0.960792 0.9293634 -0.7821422 
-0.9607919 0.1456842 -0.04322803 
-0.9607919 0.08858213 0.0410381 
-0.960792 -0.0188215 0.8654879 
-0.960792 0.6953714 0.4199665 
-0.960792 -0.6574187 0.7058913 
-0.960792 0.3786061 -0.2854724 
-0.9607921 0.1172162 0.3536245 
-0.960792 0.8607469 0.8783855 
-0.960792 0.9915893 -0.2585119 
-0.960792 1.023515 0.01739141 
-0.960792 0.4203535 -0.206624 
-0.9607921 0.9037993 -0.0392009 
-0.960792 -0.7478294 0.9378076 
-0.9607921 0.7393441 0.1227229 
-0.960792 0.7802005 0.6748219 
-0.9607921 -0.06697387 0.09878871 
-0.960792 0.2481474 0.5691699 
-0.960792 1.038544 -0.05113149 
-0.9607919 0.6589272 0.3979952 
-0.960792 0.8764956 -0.09533501 
-0.9607921 0.02070579 0.4443951 
-0.9607921 0.8942872 -0.1018001 
-0.9607919 -0.244864 0.7934274 
-0.960792 0.1796738 0.6844911 
-0.960792 -0.1503603 0.8510461 
-0.960792 -0.373246 0.7203719 
-0.9607921 0.7598701 -0.5190872 
-0.960792 0.8089749 0.6813798 
-0.9607921 0.804873 -0.09816968 
-0.9607921 0.3558903 0.2445363 
-0.9607919 -0.2983842 0.3566 
-0.960792 0.5484565 -0.1701384 
-0.9607919 0.2469845 -0.05752063 
-0.9607919 0.5852604 0.7960546 
-0.960792 0.1867273 -0.0009432733 
-0.960792 0.6767468 -0.2842391 
-0.9607921 0.2121435 0.5674816 
-0.960792 0.6057699 0.8073871 
-0.9607919 0.06031853 0.1523615 
-0.960792 0.501626 0.286826 
-0.9607921 -0.1411981 0.4100263 
-0.9607921 0.016893 0.6249276 
-0.960792 -0.4369286 0.8606666 
-0.9607919 0.7270894 0.1933494 
-0.9607919 0.6088205 -0.6061906 
-0.9607921 -0.08614786 0.4771051 
-0.960792 0.6477896 0.4684961 
-0.9607919 0.8240638 0.05308875 
-0.960792 0.7730408 0.4504354 
-0.9607921 0.4547 0.2453178 
-0.9607919 1.003871 -0.1814843 
-0.960792 -0.4782591 0.9393321 
-0.960792 0.8376175 -0.4946131 
-0.9607919 0.6534122 0.3465521 
-0.9607919 0.8206083 -0.06152332 
-0.960792 0.3365759 -0.2972373 
-0.960792 1.031409 0.834493 
-0.960792 0.8295999 -0.6213387 
-0.9607919 0.3148196 0.5659748 
-0.9607921 0.2392054 0.2514764 
-0.960792 -0.1254976 0.3004264 
-0.9607921 0.4200502 0.8270491 
-0.9607921 -0.1391336 0.3654499 
-0.960792 0.9344223 0.1095549 
-0.960792 0.7603241 0.5511607 
-0.960792 0.09546146 0.1994679 
-0.960792 -0.5396785 0.9058766 
-0.9607919 0.843704 -0.4324789 
-0.960792 0.8643683 0.1902286 
-0.960792 -0.4406193 0.6029249 
-0.960792 0.6570466 0.8551494 
-0.9607921 0.8478279 -0.1231981 
-0.9607919 -0.5589677 0.7748544 
-0.9607921 0.5826889 0.1963567 
-0.960792 0.3113577 -0.09713784 
-0.960792 0.282476 0.7298876 
-0.960792 0.854552 -0.2338015 
-0.960792 0.6899562 0.8280597 
-0.960792 0.7622813 -0.677599 
-0.960792 0.8773029 -0.1753354 
-0.9607919 0.832334 0.1320402 
-0.960792 0.01128714 0.8588116 
-0.960792 0.505363 -0.1388638 
-0.960792 0.5162313 0.3637724 
-0.960792 0.8716415 0.1458539 
-0.960792 1.022785 0.693213 
-0.960792 0.3149332 0.2458901 
-0.960792 0.5878299 0.6465704 
-0.960792 -0.3895012 0.5627835 
-0.9607921 0.5368249 -0.3195669 
-0.960792 0.2973478 0.8475659 
-0.960792 0.2272658 0.8431543 
-0.960792 0.8193278 0.08350864 
-0.960792 0.9398197 -0.8700601 
-0.960792 -0.1136841 0.9488468 
-0.9607921 0.9131596 0.3385312 
-0.960792 0.2785362 0.7513441 
-0.9607919 -0.5344471 0.849236 
-0.9607919 0.9588935 -0.4739162 
-0.9607921 0.6613595 0.9193674 
-0.960792 0.8298172 -0.2533436 
-0.960792 0.2683032 0.7406485 
-0.9607919 0.8321204 -0.3624004 
-0.9607921 0.1108718 0.2682325 
-0.960792 -0.361491 0.7378318 
-0.9607919 0.7745974 -0.6475158 
-0.960792 0.9136773 -0.5282173 
-0.9607921 -0.8018592 0.8460305 
-0.960792 0.3123125 0.8316035 
-0.9607921 0.1427309 0.684577 
-0.9607919 0.1764204 -0.08272859 
-0.9607921 1.004335 -0.8105218 
-0.9607919 -0.4189971 0.6552645 
-0.9607919 0.4795086 -0.2686749 
-0.9607921 0.7878799 -0.3660713 
-0.960792 -0.5861493 0.9137893 
-0.960792 0.8001033 -0.09861922 
-0.9607921 0.1876287 0.1667935 
-0.9607921 -0.4699208 0.6967558 
-0.960792 0.9019116 0.3611554 
-0.960792 0.04959032 0.7488949 
-0.9607921 -0.5549002 0.728255 
-0.9607921 0.5736675 0.05253139 
-0.960792 0.5401016 0.5474219 
-0.9607919 0.2065793 -0.1847618 
-0.960792 0.2064224 0.2128118 
-0.960792 0.6498566 -0.4941026 
-0.9607921 0.6057352 0.05767655 
-0.960792 0.8141468 -0.3073683 
-0.960792 -0.1722177 0.9228675 
-0.9607919 0.9847919 0.05940655 
-0.9607919 0.4343135 -0.228055 
-0.960792 0.28915 -0.06298316 
-0.9607919 0.937084 0.1664446 
-0.960792 0.9658076 0.3643842 
-0.960792 0.4813132 0.05599022 
-0.960792 -0.2850019 0.8500234 
-0.960792 0.5284028 0.6527058 
-0.9607921 0.9450846 -0.210289 
-0.960792 -0.003693521 0.4061533 
-0.960792 -0.3416325 0.4824365 
-0.960792 0.3137821 -0.3055223 
-0.9607919 0.1212971 0.3203793 
-0.9607919 -0.8286167 0.8370926 
-0.960792 -0.5525327 0.7683709 
-0.9607919 -0.1801933 0.4456784 
-0.960792 0.6179242 0.7709984 
-0.9607921 -0.09207076 0.3158216 
-0.9607921 0.2604779 0.6645463 
-0.9607919 -0.09597312 0.8328251 
-0.9607921 -0.721036 0.8808142 
-0.960792 0.9289575 -0.9296595 
-0.9607919 0.5828352 -0.3287598 
-0.960792 -0.5057661 0.4996417 
-0.960792 0.12668 0.5071017 
-0.960792 0.8141781 -0.1302031 
-0.9607921 0.4992201 0.6708889 
-0.960792 0.6521224 0.2943493 
-0.9607919 0.3596528 0.4106242 
-0.960792 0.4940773 0.5955437 
-0.9607921 0.7606066 -0.7133518 
-0.9607919 0.941118 -0.09681013 
-0.960792 0.8593962 -0.6540506 
-0.960792 -0.8667825 0.94674 
-0.9607919 0.5332878 0.5726917 
-0.960792 0.9278591 -0.1566981 
-0.960792 0.5524614 -0.03639078 
-0.9607921 0.4353309 0.07224271 
-0.960792 0.6043445 -0.0631274 
-0.9607919 0.8692485 0.5509925 
-0.960792 0.9121944 0.07401168 
-0.9607921 -0.3938887 0.6020846 
-0.960792 0.6705769 -0.2356123 
-0.960792 0.1114432 0.8925716 
-0.9607921 0.7514441 -0.2807233 
-0.960792 0.2847108 0.374935 
-0.9607919 -0.1553644 0.1928751 
-0.960792 0.5828966 -0.3550199 
-0.9607921 0.9209347 -0.6658462 
-0.960792 0.9489831 -0.09095848 
-0.960792 -0.1196596 0.3536972 
-0.960792 0.9896736 0.9447204 
-0.9607921 0.3332618 -0.01946008 
-0.9607919 0.5489769 -0.4306085 
-0.960792 1.006346 0.4312435 
-0.960792 -0.06324628 0.8762413 
-0.960792 0.711795 0.02832261 
-0.9607919 0.9746894 -0.8191605 
-0.960792 0.8578366 0.3055951 
-0.9607919 0.474669 0.9420663 
-0.9607921 0.3336512 -0.2816656 
-0.960792 0.8960776 0.2267134 
-0.9607921 -0.01696912 0.7399403 
