ply
format ascii 1.0
comment VCGLIB generated
element vertex 1567
property float x
property float y
property float z
element face 0
property list uchar int vertex_indices
end_header
-2.788145 0.3797674 1.33851 
-4.234293 0.5366967 4.710662 
-4.352015 -0.6051775 1.943777 
-4.035604 0.6387838 4.817735 
-3.409103 1.104854 4.589559 
-3.606837 0.09897619 -0.3942817 
-2.776742 0.2753466 2.553834 
-2.790154 0.3893276 1.344954 
-3.432322 1.167647 -0.3950705 
-4.961606 0.6291177 -0.3632586 
-4.654649 0.4002964 1.170448 
-4.851071 -0.1707753 -0.39518 
-3.691627 0.08405131 -0.394319 
-3.217459 1.015884 1.437846 
-3.120071 -0.9039265 0.1603226 
-4.210239 -0.9483085 -0.022145 
-3.042557 -0.3885477 2.271141 
-2.80207 -0.05605506 1.644101 
-4.252466 -0.2682458 1.715724 
-4.104511 0.1625395 4.489922 
-3.19219 -0.6289172 3.515645 
-3.101521 -0.3233566 2.05434 
-4.142794 0.4393772 4.581546 
-3.115715 0.9344403 2.545279 
-4.540057 -0.7171943 -0.3951795 
-4.538305 -0.8263099 0.00413467 
-4.744164 0.4117045 4.573545 
-2.772846 0.1467046 1.666112 
-3.523741 -0.1557435 4.290895 
-3.739642 1.179783 0.8093939 
-3.237675 1.027316 1.054488 
-3.141284 -0.8473305 0.1635989 
-2.786637 0.373223 2.691776 
-3.241404 -0.1171291 4.48557 
-3.602625 -0.1126603 4.273624 
-4.371391 -0.3789318 4.130003 
-3.906522 1.319248 0.1637787 
-3.33882 1.081691 0.8666422 
-4.444992 -0.09202198 4.277866 
-3.204684 -0.6401774 3.986426 
-3.606972 0.6792435 4.957473 
-3.872165 0.862853 -0.3942342 
-4.766531 0.1588006 3.186529 
-4.73512 0.432972 2.507034 
-5.009319 -0.07324465 0.160573 
-4.706586 -0.1528559 3.475546 
-3.572972 0.7875372 5.015076 
-4.271537 1.039576 2.285841 
-3.034941 0.8540252 4.195812 
-3.010495 -0.4592069 4.145538 
-4.665311 0.6185182 0.9341048 
-2.812706 -0.09114251 0.5418998 
-4.481422 -0.5162517 2.197887 
-4.23878 1.054767 3.315027 
-4.635446 0.6762249 3.560135 
-3.16505 0.9729496 3.133327 
-3.201491 0.9936883 5.279763 
-3.348357 1.082193 3.036216 
-2.838786 0.5509528 2.373712 
-3.944573 -0.8061913 0.1718834 
-2.632429 0.2279249 -0.3928126 
-2.783566 0.03746629 4.04949 
-4.574526 0.3939084 -0.3951798 
-4.765741 0.2110108 0.3284359 
-4.557772 -0.5919784 -0.3951799 
-2.810908 -0.08569396 3.311711 
-3.579944 1.164381 0.4475779 
-4.656999 -0.3474298 -0.3951799 
-3.697168 -0.7296209 -0.3951637 
-2.787134 0.3314557 -0.3953612 
-4.002728 -0.4063672 1.019427 
-4.761681 0.1123317 2.268199 
-3.747316 1.458206 0.1185693 
-3.461419 -0.8698997 0.1633584 
-4.131506 -0.212932 1.424437 
-2.77927 0.2982823 1.921905 
-2.504388 0.292808 -0.2861537 
-3.473984 -1.053423 -0.341738 
-3.470781 -0.76543 3.257465 
-3.750505 -0.432357 1.879852 
-4.095804 1.119621 2.298996 
-4.536562 -0.4488959 2.470656 
-4.266784 1.03962 4.101566 
-3.155985 0.9644905 3.91308 
-4.543771 -0.4398364 1.029919 
-4.891758 -0.4081275 0.006421216 
-4.936929 -0.1617259 -0.3951861 
-4.981866 -0.1932198 -0.3158283 
-4.712512 1.035444 0.04309284 
-4.139173 0.397525 -0.3951796 
-3.387204 1.107819 0.4441022 
-4.394467 1.289356 0.147665 
-4.759749 0.2852274 3.263899 
-3.993056 -0.7878494 2.962644 
-2.814371 -0.09739147 1.150913 
-2.935411 -0.3674408 0.8107643 
-4.303741 -0.6583977 2.590441 
-2.908508 0.6877918 5.143037 
-3.637378 0.5753511 4.66862 
-4.693035 -0.1955361 2.54577 
-4.827416 0.7747122 0.1636489 
-4.915065 0.7334434 -0.137395 
-3.088198 0.4825562 4.91196 
-2.786637 0.3655559 0.4598412 
-2.952307 -0.3341196 3.805624 
-2.966619 0.7757937 0.4197033 
-3.368593 0.3040853 4.512428 
-4.765059 0.2039398 4.340114 
-2.801701 -0.05524458 2.742097 
-2.581797 0.6467773 -0.06362967 
-2.770009 0.1936161 3.821512 
-4.766166 0.1600548 4.302731 
-4.024226 -1.065729 -0.2532548 
-3.457841 -0.2912617 4.355979 
-4.74684 0.3988045 3.439389 
-2.782189 0.3233805 1.012222 
-4.014965 0.650599 4.812541 
-2.909648 -0.3199441 0.5389566 
-4.551359 -0.5744195 0.06106202 
-2.787466 -0.001761545 1.763093 
-3.61307 -0.3051365 1.564334 
-4.481891 -0.5156253 2.315519 
-4.37545 0.9670435 4.822454 
-4.737027 -0.04962031 2.553799 
-4.756491 0.05968768 2.213908 
-4.350637 0.6463003 5.031467 
-3.452477 -0.9648304 0.1618511 
-2.828612 0.5203611 2.944378 
-4.553293 -0.424466 2.76812 
-3.113432 0.9320242 3.228392 
-3.562297 -0.4544589 -0.3950473 
-4.763141 0.2399421 0.969146 
-4.569346 -0.4089283 2.740251 
-3.956951 0.9446282 -0.3951622 
-3.114649 0.1094615 4.496941 
-4.759746 0.2848576 3.773446 
-4.545302 0.3388171 4.67584 
-3.198604 -0.6072589 0.2698532 
-4.379215 -0.5741733 0.2417952 
-3.975523 -0.6186761 0.6564071 
-3.610993 1.160205 3.399918 
-4.094748 1.137189 5.223362 
-3.583132 1.157258 3.464581 
-3.527017 1.141961 5.188374 
-4.09901 -0.2293336 1.452019 
-2.785028 0.3628222 4.239627 
-3.868567 0.482204 4.604832 
-4.648363 -0.3671251 -0.3951799 
-2.784036 0.03078922 2.018919 
-3.876514 -0.548187 2.000018 
-3.438246 -0.7202841 0.50268 
-3.333768 1.077083 1.989873 
-4.493532 0.8686248 2.097684 
-3.708109 1.128366 5.236203 
-2.539133 0.5041988 -0.2783765 
-4.334944 0.7735806 4.406407 
-4.198166 0.6306507 -0.3951796 
-3.256385 1.031155 4.344922 
-3.469725 -0.2049244 4.391651 
-4.311267 1.020534 1.387753 
-4.726802 0.4552198 1.019328 
-3.956158 1.369341 0.1636362 
-3.953155 -0.7965569 3.86176 
-4.281243 0.9858837 5.213161 
-3.683339 0.01592108 4.290792 
-4.354889 -0.6221869 3.180794 
-4.673193 0.6382698 5.131956 
-4.553585 0.7958051 1.14962 
-4.23212 -0.03037892 4.327906 
-2.997969 0.8138617 1.356587 
-4.609223 0.7246288 3.170594 
-4.313301 -0.7265501 -0.3951793 
-3.527563 0.5848612 -0.3951732 
-3.990096 1.419071 -0.3949443 
-4.424942 0.9295588 3.162232 
-4.22544 1.064594 1.958579 
-2.774738 0.242861 0.6310281 
-2.894841 0.6647643 2.711516 
-2.812388 0.4666063 2.328397 
-3.038037 -0.4877175 0.3061319 
-2.662222 -0.4402694 0.1128364 
-4.143938 -0.1593186 4.203458 
-2.819563 -0.1144176 4.390298 
-3.929082 1.164303 1.688344 
-4.248952 1.048479 4.07005 
-3.590686 1.44224 -0.3544957 
-3.506405 1.43074 -0.08614991 
-3.145627 0.9591314 2.116917 
-3.316916 1.068967 1.534881 
-4.377764 0.944423 0.2866103 
-3.61815 1.158452 4.261628 
-4.309422 -0.3587673 1.791105 
-3.710141 -1.061289 -0.3951024 
-4.675405 -0.2311991 2.468264 
-3.998799 -0.7860923 3.274751 
-2.834954 -0.1650107 1.133187 
-3.820755 1.171234 2.991149 
-3.403408 -1.032529 -0.3054949 
-4.401405 0.9478788 3.440429 
-4.629338 0.07810842 -0.3951798 
-2.959413 -0.3986359 2.615709 
-4.978038 -0.2042293 0.07492124 
-2.780071 0.0854501 4.558908 
-4.531201 0.3022965 1.328135 
-4.6303 -0.3154643 3.110206 
-3.90414 -1.078393 -0.2869443 
-3.092076 0.9132884 4.405138 
-3.545283 -0.8006392 -0.3951032 
-4.742503 -0.03179191 0.9552637 
-3.54895 -0.3721194 -0.3951799 
-3.890375 1.281387 -0.3929868 
-3.817177 -0.8111789 2.620647 
-4.210498 1.072653 1.853518 
-2.814855 0.4730516 1.939042 
-3.476608 1.128587 3.272464 
-4.136385 1.324514 -0.3949533 
-4.960274 0.6326306 -0.07717483 
-4.21703 1.067173 2.803967 
-4.306032 0.4254218 -0.3951797 
-4.570691 0.7752246 1.797804 
-3.959541 0.6816226 4.998245 
-2.981024 -0.4240185 0.8812926 
-4.762364 0.1188401 2.526129 
-4.766783 0.195953 2.647479 
-2.920352 0.71005 1.952088 
-3.815575 0.4930277 -0.3951795 
-4.382068 0.04154732 1.409254 
-3.037075 0.8603159 3.976376 
-3.16835 -0.6094338 3.432022 
-3.07124 0.89803 2.47054 
-3.381731 -0.7375569 3.609083 
-4.402875 0.8738123 4.41997 
-2.978096 0.7905772 2.728531 
-4.685024 0.5808154 0.4300607 
-4.294515 -0.6633855 3.893739 
-4.3644 0.7342211 4.406352 
-4.366307 0.9795254 1.342221 
-3.676836 0.9934433 4.574145 
-2.510641 0.009543523 -0.1069635 
-4.355733 -0.5634046 1.845069 
-2.931844 0.7303751 3.890499 
-3.099811 0.9223962 0.3559092 
-3.898663 0.8847508 5.091078 
-2.854201 -0.02604476 4.684866 
-3.918107 -0.6153969 -0.3950938 
-3.614439 1.159395 3.814179 
-3.854724 0.8119576 5.022629 
-3.273787 1.045062 2.094109 
-3.219011 1.330185 0.104012 
-4.465328 -0.5313522 3.905373 
-2.955578 0.7641978 4.663781 
-3.884544 -0.804186 0.41682 
-4.455876 1.25419 -0.3662444 
-3.45548 1.106272 0.2732915 
-3.588338 0.4556458 4.558287 
-3.660278 1.391452 0.163482 
-3.673427 -0.7739571 0.584125 
-3.300011 1.369411 -0.1727421 
-4.310453 0.6602876 4.606955 
-4.357126 -0.940325 -0.352793 
-3.822432 1.455126 -0.3142861 
-3.585017 0.579196 4.726591 
-4.25978 1.04569 2.279136 
-4.484856 0.8771521 4.355856 
-4.743527 0.137873 -0.3951799 
-4.756101 0.3190708 2.120376 
-4.281827 -0.9820119 -0.2380044 
-3.269229 1.042845 1.923047 
-4.816861 0.8146293 -0.3951824 
-4.012906 0.877185 4.649653 
-3.424935 -0.5599966 -0.3950971 
-2.864748 0.4908346 5.062279 
-3.350509 0.8739221 -0.3951792 
-3.826586 1.169544 3.385776 
-4.635839 1.11579 -0.3860521 
-3.464857 -0.3476617 1.28605 
-4.98941 -0.1670543 -0.04918946 
-3.149935 0.9615518 2.809687 
-4.036396 0.4084083 -0.3951796 
-3.692776 0.9971027 4.584397 
-3.446534 -0.8799174 -0.3920502 
-3.223334 0.5860173 -0.3951496 
-4.577124 -0.5251663 -0.3951783 
-3.862517 0.4087975 4.504949 
-2.711982 -0.3105559 0.1633306 
-3.022621 0.7831244 5.277216 
-4.30991 0.0279064 1.431532 
-4.024534 1.141817 2.020524 
-3.037695 0.8618254 2.609442 
-3.583253 -0.7012343 0.5995772 
-3.023834 0.9892862 0.1650849 
-3.470972 -0.3467075 1.286182 
-2.967909 1.169962 -0.1009569 
-4.486085 0.1850863 1.571776 
-3.843068 1.176335 0.3708418 
-3.319431 1.071548 0.7305669 
-4.691398 -0.2004037 4.077183 
-2.820587 0.4903951 5.119616 
-4.00763 -0.9633896 -0.3952062 
-4.395838 0.5885131 4.921786 
-4.699832 0.5506098 3.997265 
-3.553548 -0.5506237 0.7775708 
-3.8629 1.167741 2.763773 
-2.78395 0.162328 -0.3944993 
-4.040577 1.130471 4.587216 
-2.872543 -0.001805406 -0.392994 
-2.939497 -0.2234948 1.961051 
-3.650015 -0.7847686 -0.394751 
-2.830769 -0.1515202 4.153203 
-4.6543 -0.1868928 1.872267 
-3.624365 1.16779 0.954783 
-3.701725 -0.7686428 3.983235 
-2.829511 0.5213837 3.791623 
-2.913057 0.1892072 4.662868 
-4.764775 0.2303561 2.202997 
-4.11983 -0.4000516 -0.3951767 
-4.75486 0.3366363 3.394346 
-4.264275 1.047102 0.3088929 
-4.990181 -0.09641685 -0.394036 
-4.740597 -0.560941 -0.1369901 
-4.099233 -0.3336836 1.104433 
-3.39168 0.07455578 4.452715 
-4.743963 -0.02832919 0.6492598 
-3.088496 0.9128757 0.813453 
-3.571802 1.159249 2.08997 
-3.069842 1.024649 0.163569 
-3.49051 1.136483 1.639297 
-3.113718 -0.5658618 3.836884 
-3.964973 -0.7498145 2.060155 
-2.918973 -0.2918016 0.2459292 
-3.540304 -0.786511 3.552951 
-4.751637 0.3702413 3.535623 
-4.300907 -0.9717256 -0.1033742 
-2.895988 -0.2908839 4.115726 
-2.885314 -0.2735623 4.23602 
-4.776955 0.9579496 0.0315477 
-2.769711 0.2103611 3.617646 
-4.764816 0.2271835 3.980185 
-3.437057 1.112317 4.814308 
-3.576054 -0.2139971 -0.3951733 
-3.036327 -0.4916009 0.4008014 
-3.876833 1.439604 0.1633224 
-3.001155 0.5381818 -0.3937176 
-4.696514 0.5622663 4.310056 
-4.410398 0.6217512 5.044737 
-2.875326 0.1814967 4.85148 
-3.156729 1.296638 -0.2584565 
-2.842818 0.5629285 1.928766 
-4.494658 0.539319 4.866546 
-4.514994 -0.4623064 1.968219 
-2.787959 0.3844349 3.020131 
-2.938451 0.7394338 0.5740949 
-3.74424 1.17166 3.773333 
-4.363448 -0.6068778 3.868097 
-2.770016 0.2153067 3.936207 
-4.75165 0.3674453 2.832262 
-4.013009 0.8896519 4.629091 
-3.13925 0.9542014 1.42539 
-3.364329 1.092709 2.050092 
-2.829185 -0.1461693 2.644251 
-4.580933 0.7637391 2.434104 
-4.704185 0.2051266 1.156535 
-4.778529 0.9560612 0.08268981 
-2.840762 -0.6872704 -0.3769275 
-4.33668 1.004417 0.957881 
-4.173982 -0.7761028 -0.3944665 
-4.100865 1.020499 4.335299 
-3.379367 1.072879 5.264663 
-3.281863 1.045298 4.178869 
-4.063731 1.130043 1.97859 
-3.246842 -0.6654375 3.424325 
-3.325482 -0.5396011 4.146512 
-4.216992 1.070154 1.335258 
-3.531981 -0.3584607 1.230731 
-4.266873 -0.4252341 -0.3951766 
-4.265562 1.286691 0.1636442 
-4.771296 0.461741 -0.3951806 
-4.073636 -0.002346678 4.32121 
-4.687933 -0.2070759 3.889589 
-3.530203 -0.4202606 -0.3951798 
-4.652025 -0.2749727 3.31673 
-3.908938 1.380036 0.1636066 
-4.767688 0.8174179 0.1637193 
-4.014145 0.865654 5.087885 
-4.272331 0.2260743 -0.3951797 
-4.71056 -0.1399763 0.3791963 
-3.412327 1.110348 2.662032 
-3.834851 1.176232 0.756965 
-5.030005 0.02945248 -0.1653211 
-3.771562 0.70613 4.902336 
-3.346268 0.4707948 4.642717 
-3.687031 1.167012 3.529027 
-3.445887 1.117761 3.914762 
-4.088725 -0.3217928 1.668057 
-2.580059 -0.07497385 0.1635852 
-3.106959 0.9248621 4.541431 
-4.548655 -0.8189446 -0.2099472 
-4.230246 -0.2482754 1.69979 
-2.804177 -0.06354782 1.383134 
-3.049374 0.8754547 2.482936 
-3.098456 0.9181879 4.51213 
-3.701058 -0.8057599 0.3058634 
-3.579866 1.44161 -0.09597039 
-4.661933 -0.2560829 0.6936154 
-4.351797 -0.2563287 1.749401 
-4.428388 -0.1720638 1.748479 
-4.721341 0.4836794 4.491187 
-4.062254 0.8280454 4.697315 
-4.559129 0.5447222 1.284338 
-2.797359 -0.634509 -0.1369376 
-3.797844 1.172716 3.261963 
-3.472603 1.133646 0.4947854 
-3.99659 -1.069794 0.04588768 
-4.546146 1.110857 -0.3942254 
-4.765698 0.1875094 4.077212 
-4.757023 0.3050613 0.9426268 
-4.294023 -0.9754024 -0.1239987 
-2.775937 0.2564244 0.7591773 
-2.696404 0.3560984 -0.3944969 
-4.756712 0.06159726 3.035677 
-4.503209 0.8559476 4.734799 
-3.342383 1.079905 2.692523 
-4.072653 -0.05423084 -0.3950881 
-2.830325 1.042836 -0.0263001 
-4.764939 0.2280905 2.770512 
-4.059551 -0.2653663 1.603918 
-3.015818 0.8330746 4.077757 
-2.781112 0.06095622 1.197013 
-5.03267 0.3103352 -0.05425907 
-4.494048 -0.3431664 1.862426 
-4.221478 1.06524 2.608103 
-3.632878 -0.774879 -0.3926259 
-3.13079 -0.3221031 -0.3949853 
-4.511366 -0.4652519 1.965511 
-4.694115 0.5741866 5.0109 
-3.022238 0.7037038 4.344409 
-4.170731 -0.7293692 3.34853 
-4.759054 0.08517306 0.926182 
-4.505794 0.8532124 2.903037 
-2.969681 -0.4108709 2.948769 
-3.857167 0.854305 5.069361 
-2.847627 -0.3952581 -0.3940621 
-3.002024 -0.8298613 -0.2159277 
-2.549134 0.4363188 0.1631936 
-3.234694 1.02128 4.023487 
-4.6196 -0.334488 2.158213 
-2.825595 0.5108204 3.345735 
-3.988281 1.144089 5.16192 
-2.842896 0.5610487 0.8186758 
-4.201928 0.8312457 -0.3949246 
-4.750467 0.3788566 2.642037 
-4.39763 -0.5867391 3.529989 
-2.965706 0.7749325 1.033841 
-4.055562 1.42442 -0.200656 
-2.970163 -0.3643143 3.644419 
-3.235866 1.027058 0.6193126 
-4.193645 -0.5810865 1.845427 
-3.272011 -0.6790335 3.166413 
-3.886528 1.296028 -0.3938931 
-2.917061 -0.2882446 0.2416927 
-2.942307 0.7449622 0.7086198 
-2.864477 -0.1644512 1.956021 
-2.818414 0.4886262 3.603936 
-3.84943 -0.1983598 4.242681 
-3.506109 1.135507 3.867291 
-3.556052 1.159214 0.4931899 
-2.593034 0.4856731 -0.3942441 
-3.042993 0.8671739 3.994723 
-3.484694 1.130805 3.376402 
-2.867631 -0.2402134 4.266253 
-3.895766 1.447837 -0.2667889 
-4.700521 -0.1722563 2.636526 
-4.879725 0.7999104 -0.1846808 
-4.263934 -0.991413 -0.1671638 
-3.509851 1.145322 0.3874751 
-4.753721 0.3450442 2.527919 
-4.764294 0.1405661 0.3881743 
-4.465436 0.7950692 5.165669 
-2.835944 -0.168722 0.8291632 
-4.764793 0.2261775 4.032793 
-4.755378 0.04834959 2.678601 
-4.758402 0.2961876 2.311463 
-4.60123 0.7392797 4.965326 
-4.475751 0.889473 3.466164 
-2.812717 0.04250549 3.192423 
-3.929972 0.7316305 4.994793 
-3.601511 -0.4738962 4.152392 
-3.421661 1.114217 2.244239 
-3.698484 0.2778757 4.396863 
-4.106035 1.110333 4.980669 
-3.660338 -0.7399937 4.033307 
-3.613207 -0.4036218 4.170463 
-3.815922 1.328242 -0.391581 
-4.638704 -0.2994639 2.120408 
-3.623955 0.5023752 -0.3951744 
-3.103863 -0.5564566 2.825917 
-2.906537 -0.2538968 3.732335 
-2.77165 0.1741757 4.323669 
-3.997696 1.146366 3.353975 
-2.637311 -0.3929638 -0.2026286 
-4.268182 -0.4765588 4.086326 
-4.758742 0.2820297 0.4285923 
-4.233998 1.074653 0.1695955 
-3.627777 1.445314 -0.3739271 
-3.509329 0.247528 4.475319 
-4.614982 -0.3441293 1.052656 
-3.846319 0.9923336 4.581502 
-3.268857 1.044143 0.9578941 
-4.67978 0.5976405 4.090639 
-4.759949 0.282507 3.904414 
-4.692299 0.5624192 0.9912593 
-4.711102 0.5108914 2.86758 
-5.036352 0.09413513 -0.2916178 
-4.48805 -0.5082757 3.396284 
-2.784107 0.3537337 4.539454 
-4.506695 0.01173725 -0.3951798 
-4.12127 0.8001567 4.658538 
-2.697314 0.01882852 -0.3934039 
-4.669392 -0.7202341 -0.3348424 
-3.645934 1.166892 2.177995 
-4.136565 -0.744296 3.289881 
-4.928724 0.7086078 -0.3651244 
-3.766965 -0.4851587 0.8266296 
-3.172091 -0.2076665 4.341108 
-3.068085 -0.5283599 4.184904 
-3.90983 1.144906 4.270962 
-3.4353 1.408865 -0.3923995 
-4.329469 1.003719 4.998567 
-2.775283 0.1214667 1.822524 
-4.506915 0.09596874 1.178156 
-4.92289 0.389965 0.1636569 
-4.48683 -0.5093319 2.952004 
-2.788338 0.3809904 1.364112 
-3.605511 -0.7995974 3.208584 
-3.341435 0.7201173 5.01413 
-4.736474 0.4302785 2.924739 
-3.622193 0.8129993 5.050479 
-4.896577 -0.2576725 -0.3942826 
-2.830723 0.8973695 0.1636021 
-2.813936 0.4747372 3.358042 
-3.666729 -0.899507 -0.3951044 
-3.923433 -0.4786497 1.857019 
-4.75282 0.01940113 1.944975 
-4.74736 0.1235353 1.14632 
-2.780739 0.3091484 1.102419 
-3.682842 0.04636437 -0.3944429 
-4.526025 1.205807 0.1020154 
-3.766044 1.207704 5.259607 
-3.792355 -0.2839916 1.412013 
-4.763288 0.1290783 1.722894 
-4.461839 0.8986855 4.637488 
-2.796582 -0.03785084 3.9158 
-4.140715 1.10772 1.763256 
-3.013026 -0.4637097 3.192101 
-3.17195 -0.9368427 -0.1555026 
-4.741866 -0.03431252 3.042893 
-4.015861 1.142316 2.811777 
-3.149157 0.9610249 2.757119 
-3.181214 -0.6232678 0.1727255 
-3.717393 1.176758 1.13177 
-3.850964 0.6960865 4.98207 
-4.704131 -0.1610684 4.034252 
-3.942619 -0.06525152 4.281827 
-3.478897 0.9359002 5.148888 
-3.280367 -0.6836108 3.470923 
-3.86413 -0.8054315 3.894 
-4.371854 0.9670494 0.2240566 
-4.311404 1.333866 -0.3281502 
-4.166012 -0.3102269 1.111821 
-3.93381 -0.7994354 2.768455 
-3.486179 1.133147 2.536796 
-4.746071 -0.02185341 0.5173023 
-4.330002 1.008707 1.666546 
-4.256484 1.04984 1.092929 
-3.844182 1.106097 4.384062 
-2.890431 -0.05127537 -0.395064 
-3.855831 -0.2759132 4.202563 
-4.498061 0.8635721 1.316349 
-3.20783 0.7161712 -0.3943174 
-4.823062 -0.005542114 -0.3951799 
-3.717877 1.177851 0.1929775 
-2.731683 0.922375 -0.3364705 
-4.164152 1.125204 5.25005 
-4.147792 1.396473 -1.35228e-05 
-4.631879 0.6822902 3.081416 
-2.854185 -0.215682 1.147292 
-3.981277 -0.4461241 4.084831 
-4.406661 -0.6186004 0.1443052 
-3.951133 -0.797149 2.193479 
-3.49955 1.236234 -0.3951631 
-4.610206 0.7213153 1.716311 
-3.329721 0.3051195 4.524414 
-3.345097 -0.4198691 4.220465 
-4.029287 1.043502 5.201738 
-3.393145 -0.4338448 1.001093 
-2.99638 0.8128543 3.405792 
-3.180924 0.6259937 4.99534 
-4.308452 -0.6559089 3.188261 
-4.737774 -0.05013458 0.3415928 
-3.601873 -0.799373 3.664538 
-4.187244 1.08858 0.4199336 
-4.702112 0.3640066 1.686884 
-4.746418 0.3908855 0.5694155 
-3.556459 -0.7145042 0.5702406 
-4.677701 -0.1462303 1.129248 
-2.837562 0.4433738 4.35233 
-4.365591 0.7537457 5.095784 
-4.216464 1.374842 -0.2664583 
-2.887571 0.6521564 3.258382 
-4.405257 0.8653851 4.391991 
-4.527047 0.8280303 1.530667 
-4.520118 -0.4692347 1.084925 
-4.729529 0.9023582 0.1638852 
-2.526883 -0.0180946 0.1634685 
-4.643555 0.6588406 0.3160404 
-3.023914 0.8447892 0.6385288 
-3.889592 1.134878 4.493168 
-3.595701 1.154714 4.830869 
-4.520204 0.8357614 2.918187 
-3.178353 0.7954764 5.148507 
-4.396434 -0.4332911 1.823052 
-3.169982 0.4796566 -0.393603 
-4.765693 0.1864261 4.112254 
-3.912267 1.168762 0.6259938 
-2.791617 0.3842096 -0.395155 
-3.320162 -0.2390926 4.436574 
-3.989926 1.14518 4.612762 
-3.349133 -0.2832352 1.814482 
-2.939017 0.740965 1.343264 
-3.022698 0.8432904 0.538767 
-2.9459 0.4760116 5.017667 
-4.279529 0.4441505 -0.3951797 
-4.764588 0.2321846 2.510282 
-2.783463 0.4012759 4.935841 
-3.365706 -0.5969418 -0.3938354 
-4.152628 -0.2138266 1.60825 
-4.756788 0.06013747 4.270282 
-3.768751 -0.7579811 2.212394 
-4.628896 -0.7360112 -0.01703046 
-3.513618 1.142549 2.058959 
-4.892437 0.6799029 -0.3944204 
-4.760984 0.1049773 2.578624 
-2.961648 -0.3982987 4.079993 
-4.77841 -0.5254403 -0.2129536 
-4.465024 -0.03788222 4.334133 
-3.277924 -0.2066904 4.48489 
-4.028536 0.908915 4.629181 
-3.173119 0.9808076 2.242175 
-3.586947 -0.7597299 0.5608443 
-4.766165 0.2011543 3.19135 
-3.385925 1.105798 1.080158 
-4.403446 0.9449787 4.817485 
-4.524695 -0.4629548 2.381703 
-3.226761 1.020915 1.401912 
-4.587836 -0.4991768 0.1021066 
-3.289347 0.3400285 4.563356 
-3.833262 1.169342 3.222085 
-2.82042 -0.0814418 3.685643 
-3.251776 -0.6679916 4.042145 
-3.940525 1.166275 0.3961121 
-2.829952 -0.1484818 2.856919 
-2.771919 0.1717975 2.896681 
-3.651755 -0.804223 3.198618 
-4.483171 -0.1527925 -0.3951798 
-3.773244 1.309192 0.1638093 
-2.785907 0.354973 4.411104 
-3.277717 -0.9928632 -0.1376628 
-3.527707 -0.7826858 3.440176 
-3.495049 -0.3652657 1.929117 
-3.098593 -0.5534612 3.976056 
-2.832429 -0.1566621 1.267517 
-3.701718 1.170899 2.658251 
-4.347748 0.9920149 3.066569 
-4.347838 -0.9468259 -0.09512163 
-4.720535 0.487172 4.766618 
-2.77921 0.3052074 3.79457 
-4.489425 -0.7663123 0.001140376 
-3.340985 -1.013578 -0.1487235 
-3.845194 -0.3974498 -0.3951787 
-2.686505 -0.4840657 -0.1679951 
-3.485468 1.129922 3.79455 
-3.95412 0.3231942 -0.3951795 
-3.63248 0.8137598 5.04553 
-4.48 1.241223 -0.09532405 
-4.545519 -0.3929173 1.844967 
-4.516079 0.4519818 4.741435 
-4.766589 0.2036171 0.4435552 
-4.004686 -0.8115537 0.1640923 
-3.764534 -0.814669 3.310989 
-4.000934 1.141528 4.763417 
-3.733828 1.45636 -0.02186192 
-4.757866 0.07356431 2.694152 
-4.144102 1.107573 1.402557 
-2.698575 0.8760769 -0.07295343 
-5.02524 0.3865323 -0.04695357 
-3.901007 0.01556999 4.300313 
-2.820587 -0.6628378 -0.08782772 
-2.824334 -0.1296869 0.9415742 
-4.011146 -0.7823563 3.146082 
-3.77662 -1.090198 -0.197932 
-4.73549 0.4385914 4.404851 
-4.759501 0.2792394 1.123226 
-2.883469 0.6397995 0.7581074 
-3.821239 -0.5172781 4.088351 
-3.696709 -0.1148943 4.239332 
-2.528723 0.4717313 0.09697938 
-4.206916 1.072998 2.61687 
-3.841673 1.176021 0.5956334 
-4.619689 0.433081 1.651166 
-4.721807 -0.5019268 0.06781918 
-3.33242 1.076842 1.793267 
-4.11207 0.8052513 4.706141 
-4.452717 -0.5421054 2.132107 
-3.057312 0.1671982 4.563497 
-2.941716 0.4409087 4.520945 
-4.175239 -0.4167466 -0.3951769 
-4.553752 0.8060715 5.112599 
-5.038104 0.2549213 -0.02688462 
-4.32794 -0.1985612 1.132632 
-3.295602 -0.07768556 -0.3951699 
-3.930311 -0.2740481 1.265499 
-4.497577 0.8630971 3.000776 
-4.204307 1.057002 -0.3950739 
-3.152185 0.9651043 0.7113927 
-3.348128 -0.6472524 0.5600554 
-4.348161 0.9957614 0.4682338 
-4.630002 0.6860948 3.488756 
-3.406884 -0.7461827 4.044432 
-3.511304 1.143864 1.16328 
-3.057769 -0.122836 4.421283 
-3.245287 -0.664598 3.442452 
-4.012936 1.139811 4.106464 
-3.018544 -0.002840028 4.474331 
-3.067358 -0.3367469 4.278775 
-3.116123 -0.5674375 3.48687 
-2.779898 0.08016816 4.321065 
-4.717449 0.4884651 2.201779 
-4.325931 -0.6456728 2.648251 
-4.557681 -0.4230854 3.584385 
-4.192073 1.083939 1.246311 
-3.557371 -0.7767732 -0.3951322 
-4.439909 -0.5374459 3.435797 
-5.036726 0.2697339 0.1397679 
-3.194739 1.317257 0.04031929 
-3.731644 0.8948921 5.084946 
-4.531856 0.8260269 5.110156 
-4.024814 1.433749 -0.03537031 
-4.765863 0.1808718 4.398548 
-4.717069 0.4962161 4.872865 
-4.971678 0.3991094 -0.3951764 
-4.512702 0.8454121 1.825847 
-4.190297 -0.7189634 0.4429817 
-3.397382 1.398863 -0.1435227 
-3.674965 -0.5965972 4.10055 
-4.514118 -0.4753214 2.229216 
-3.266825 -0.4006515 -0.3951716 
-4.523076 0.3162982 -0.3951797 
-3.907488 -0.4395323 1.750175 
-4.614192 0.7122899 1.053199 
-4.9227 0.3331641 0.1636436 
-4.762225 0.1141064 4.213053 
-3.366293 1.075604 4.265547 
-4.054933 -0.9295385 0.1319891 
-3.189735 0.9949389 1.637563 
-4.490995 1.181291 0.16369 
-4.425307 0.9281976 5.022804 
-2.792745 0.3261431 0.2230296 
-3.022925 0.8426449 4.54945 
-4.201488 1.076951 2.102551 
-4.765548 0.1506087 1.055979 
-3.578124 -0.6404395 0.6768846 
-4.294316 -0.1896505 -0.3951452 
-2.850803 -0.1586683 -0.3945842 
-4.412867 -0.2537186 1.122582 
-3.423436 0.1204534 -0.3951609 
-2.768037 0.2545854 4.798417 
-3.19422 -0.5719525 4.280557 
-2.778 0.2937188 3.849281 
-3.881395 0.6865453 4.926329 
-4.568529 0.7830182 -0.3950679 
-3.994869 -1.069511 -0.35806 
-4.687179 0.4372616 4.838444 
-3.084486 -0.5416076 0.6236622 
-2.792591 -0.02602139 3.046046 
-3.018078 -0.2455943 1.349926 
-3.654406 1.171555 0.6635625 
-3.918908 1.161116 3.144154 
-4.054213 1.125497 4.94191 
-3.793551 1.176185 2.196403 
-2.934074 0.7358541 4.625675 
-3.744042 -0.403172 4.172949 
-4.681451 0.5964597 4.94999 
-4.696001 0.5690902 5.08833 
-3.862535 -1.001688 0.1632994 
-4.595313 -0.3771454 2.814962 
-4.766812 0.1766888 3.137024 
-3.087735 -0.544071 2.440082 
-4.214849 1.12799 -0.3950492 
-4.119682 -0.7494437 3.583991 
-3.767449 -0.4159354 1.781196 
-2.893394 0.3193727 4.917125 
-4.550137 1.185981 0.02783591 
-4.301248 -0.2492297 1.12596 
-3.856342 1.171286 1.746971 
-2.810553 0.4625755 2.91797 
-4.767447 0.1728622 1.802576 
-3.188881 -0.8048649 -0.3927512 
-3.646679 0.5356197 4.623279 
-4.996636 0.5122839 -0.2122726 
-4.649847 -0.2788461 1.886772 
-4.110095 -0.2330546 1.383272 
-4.623127 -0.3286991 2.956474 
-4.941876 0.6827805 -0.0187862 
-2.777508 0.2849511 2.768827 
-4.518272 -0.470209 2.175199 
-2.777191 0.1111602 4.406647 
-4.213295 1.070638 2.15413 
-4.117517 1.109725 3.823509 
-4.568323 0.7779466 1.180075 
-3.993907 1.155025 0.562804 
-4.754586 0.03988649 3.364351 
-3.543335 1.155142 0.5468245 
-4.396421 0.9515378 3.881303 
-3.973494 1.153823 2.972448 
-4.764422 0.2328185 4.03579 
-3.025249 0.8462813 0.331243 
-2.993573 -0.4398378 3.392085 
-4.125431 -1.034921 -0.2128198 
-4.766259 0.1618567 4.151083 
-2.779702 0.3117479 4.333459 
-2.508795 0.01826742 0.1472253 
-3.517243 -0.7795219 3.513002 
-2.851227 -0.2101194 1.176836 
-2.828854 -0.1450763 4.322452 
-2.819538 0.489593 2.313288 
-3.294854 -0.2799264 1.48192 
-3.838185 -1.084911 -0.2056573 
-2.78866 0.3209889 -0.3954011 
-3.75926 -0.8148516 3.907033 
-4.321679 1.189942 -0.3945924 
-2.853618 0.5873728 3.09704 
-3.759691 1.178323 1.965731 
-4.677442 0.5987899 2.651382 
-3.202663 0.655445 5.013455 
-4.215585 1.07291 0.5178233 
-4.322202 0.7446758 4.615332 
-4.616085 -0.3039366 4.044518 
-2.609092 -0.1374525 -0.3946652 
-2.82623 0.5082272 1.276686 
-4.268206 1.021399 0.2568268 
-3.710069 -0.3110813 1.29931 
-4.752392 0.01668387 4.22332 
-3.333281 1.071802 4.206548 
-3.353254 1.084218 3.25319 
-4.24999 0.6165513 4.960957 
-3.483663 1.125527 4.271483 
-2.947073 -0.3832626 3.106755 
-3.184665 -0.6222347 3.276853 
-4.368433 0.978471 0.8935587 
-3.105945 -0.5586763 2.430794 
-3.970745 1.15955 1.484551 
-3.420024 -1.03757 -0.2479328 
-3.067962 0.8962538 0.3366918 
-3.375537 -0.7341261 3.793617 
-2.620615 0.2384778 0.1635328 
-4.764364 0.139328 2.185199 
-4.615718 1.132142 0.01273134 
-2.535793 0.392239 0.1633833 
-3.465614 0.5410922 4.70088 
-3.793245 1.457835 0.06328832 
-2.98998 0.6051912 5.201997 
-4.187941 0.543901 4.708052 
-2.814059 -0.09625459 4.432114 
-3.068636 -0.5286876 0.558148 
-4.707391 -0.1499944 2.482431 
-4.49881 -0.4949338 3.276705 
-4.469142 0.177516 4.480491 
-4.164701 1.095834 2.482584 
-3.366851 1.096807 0.7731134 
-2.806088 -0.06945631 1.732822 
-3.239708 1.027083 1.86418 
-3.343431 -0.2672311 1.742107 
-3.410821 1.28556 -0.395146 
-3.26984 1.043707 1.547241 
-2.844705 0.7475985 0.1639797 
-4.257559 0.2113525 4.480371 
-4.604401 0.7313087 0.4831348 
-4.251925 -0.6859275 0.4398451 
-3.289786 -0.6885895 2.702386 
-3.091712 0.9141694 3.648633 
-4.567294 0.7812201 5.047341 
-3.748908 -0.7437642 4.01199 
-4.547083 0.4299993 1.22437 
-5.04131 0.2224309 0.02979662 
-4.287626 1.029795 3.444557 
-4.642943 -0.223965 1.125012 
-3.576312 -0.7963921 3.129508 
-3.104453 -0.5008805 0.8136309 
-2.869207 -0.2437229 0.5049341 
-3.368309 -0.3475717 1.964735 
-4.449265 -0.6674072 -0.3951796 
-4.273969 -0.9859493 -0.05342633 
-4.405478 -0.5801889 3.505949 
-4.609269 0.08701833 4.421343 
-4.27596 -0.01877361 4.333896 
-3.182555 0.9892376 1.655786 
-4.43655 0.8595884 5.180321 
-3.693259 0.6477172 -0.3951794 
-4.649802 0.652967 4.835171 
-4.003395 -0.7846799 3.640471 
-3.331613 -0.7112942 2.953054 
-2.77406 0.1341516 1.967155 
-2.775767 0.1262278 4.179683 
-3.03461 1.055574 -0.39517 
-3.484116 1.129883 3.680316 
-3.938391 1.112573 4.308049 
-2.865508 -0.2368805 3.120316 
-4.390857 0.9566145 3.143401 
-3.704157 -0.06539981 -0.3951663 
-4.339895 1.022389 5.200254 
-3.133871 0.9461775 4.486588 
-2.988809 0.8030509 1.908844 
-3.247817 0.5811599 -0.3951648 
-4.765851 0.1547083 1.801879 
-4.533292 -0.4530553 2.592221 
-3.20813 1.006929 3.159913 
-4.025865 -0.777831 2.367347 
-4.948786 0.6698222 0.1283427 
-3.611763 -1.076673 -0.2192129 
-2.910497 0.6930084 2.189138 
-4.586547 0.4389856 1.190941 
-3.460534 1.305672 0.1635063 
-4.694761 0.562964 2.192925 
-3.204767 1.004147 3.236082 
-3.172778 0.9792549 3.01201 
-4.006266 1.298886 -0.3950802 
-4.713076 -0.1306907 1.981663 
-2.810228 -0.08349568 3.282696 
-3.834846 1.175399 1.048459 
-3.549451 -0.3917682 1.099702 
-3.067853 -0.5280191 3.012853 
-2.983891 0.7623701 0.2669184 
-4.123859 -0.7481035 2.70381 
-3.951384 -0.524005 0.77886 
-3.769222 1.177401 2.378688 
-4.636748 -0.3034192 2.969034 
-3.664382 1.168798 2.152067 
-3.613182 1.167796 0.4467902 
-3.265812 -0.7144927 -0.3932616 
-4.243202 1.058218 0.3085774 
-3.170016 -0.03885463 4.467843 
-4.38903 0.9574002 3.779624 
-4.471077 -0.5263096 0.6530746 
-3.640802 0.01569217 4.301781 
-2.88676 0.647924 2.04467 
-4.418648 0.3754738 -0.3951797 
-4.222875 1.062843 3.417256 
-3.923781 -0.7997653 3.547893 
-2.913628 0.6985435 2.602233 
-2.696669 0.4034677 0.1635712 
-3.313784 0.9334167 -0.3951792 
-5.035884 0.2782057 -0.2320269 
-2.917441 -0.6314034 0.1636332 
-2.980016 1.147652 0.1616268 
-3.226505 -0.323365 -0.3951864 
-4.519553 0.07602423 1.690409 
-4.42516 1.062257 -0.3943602 
-3.284933 1.048195 3.590593 
-4.508409 0.849687 3.758492 
-4.735829 -0.05650835 3.922194 
-2.781955 0.3251521 1.860727 
-3.673894 1.164502 3.9728 
-2.853368 0.01616704 4.645333 
-4.182859 1.095579 5.254471 
-3.631789 1.16054 3.980204 
-2.807685 0.4059177 4.396781 
-3.611244 1.141636 5.241612 
-4.52134 -0.4675719 2.790135 
-4.653952 0.5932952 0.2653235 
-4.03096 1.175976 5.277846 
-3.094281 -0.4073747 0.9635517 
-3.599731 -0.7991714 3.749412 
-3.262629 -0.2599387 1.417616 
-4.732539 0.4486409 4.612 
-4.884629 -0.2009058 0.1635363 
-3.553663 -0.558782 0.767679 
-4.115991 1.115465 1.548958 
-4.454283 -0.5408172 2.517882 
-4.566151 0.7256314 1.358769 
-2.780075 0.07609817 3.419289 
-3.95064 -1.073763 -0.3609676 
-3.735218 1.178578 1.083684 
-4.060846 -0.7673126 3.125507 
-4.717573 -0.1149908 1.922984 
-3.580251 0.1173035 4.35359 
-4.913701 0.7362173 -0.1609972 
-4.347166 0.9918489 3.491123 
-3.147895 0.6417675 -0.3951452 
-3.832057 1.171842 2.389244 
-4.707729 0.5168643 0.913361 
-3.662851 1.170033 1.622935 
-4.635732 0.6731981 1.016606 
-3.283258 -0.2715706 1.398001 
-4.688882 1.064747 0.1603718 
-4.272218 1.354596 0.06515712 
-3.68608 1.145268 5.243308 
-3.093324 -0.5488046 0.6583459 
-4.161776 -0.7340648 3.836363 
-3.72759 -0.302248 1.5075 
-2.775178 0.2476303 0.6510739 
-3.204428 1.001761 4.58157 
-3.977267 1.150956 3.47624 
-2.860373 0.6014025 3.458897 
-3.234847 1.022936 3.00104 
-3.301515 1.055906 3.969145 
-4.706115 -0.1541494 1.004964 
-4.251608 -0.8780351 0.003140929 
-2.520688 0.4451681 -0.0423341 
-3.393474 1.105084 2.424768 
-4.089734 0.1196121 4.404197 
-2.879934 0.6335013 0.9298664 
-3.763184 1.174865 3.277015 
-4.119573 -0.9767609 0.01738475 
-4.618585 -0.2550969 -0.3951799 
-2.982031 0.8433556 -0.3946482 
-2.697645 0.6796291 0.1635399 
-3.849863 1.162732 5.056179 
-4.92573 -0.344 0.02287637 
-4.209331 1.377845 0.09068497 
-2.867607 0.6138239 3.099778 
-3.362537 1.388332 -0.09885409 
-2.751957 0.9471273 -0.09572615 
-4.067386 -0.1790769 -0.3946408 
-4.296142 -0.445371 0.9644781 
-3.122158 0.3641112 4.757743 
-3.334867 -0.7124413 3.806973 
-3.781494 0.9006421 5.091436 
-3.029551 -0.2391163 1.365207 
-4.396639 0.6975546 5.083572 
-3.723279 0.4370833 -0.3951769 
-3.875211 1.449864 -0.1187075 
-3.094154 0.3517777 4.77002 
-4.67095 0.4744573 1.157294 
-4.207315 1.073292 2.393041 
-2.773546 0.2456274 2.954367 
-3.56705 0.08501868 4.346836 
-4.136004 -0.4817768 4.06321 
-2.670174 -0.1481806 0.1634587 
-4.462066 -0.5344589 2.543407 
-3.015527 -0.4664372 3.891594 
-3.471293 -1.035536 -0.1965862 
-4.644387 0.6596361 3.327885 
-2.948821 -0.3843189 0.8952503 
-4.314702 -0.9472501 -0.3943173 
-4.719027 0.4873919 3.43339 
-4.098978 -0.234787 1.388619 
-2.813123 0.4691086 2.333703 
-4.410241 0.5825841 4.90733 
-4.722586 -0.09999449 3.015011 
-3.577404 1.393721 -0.3944414 
-4.589236 -0.3832874 0.9263296 
-3.224635 1.020645 0.8707324 
-3.504937 1.104842 4.409089 
-4.206299 0.734009 4.698753 
-3.641145 0.6011686 4.751064 
-4.610351 0.3860849 1.659995 
-4.737236 -0.05006393 2.959933 
-3.424873 -0.7515278 0.3777138 
-3.714732 1.16952 3.55825 
-4.912297 0.6128489 -0.3951666 
-3.365885 -0.7292177 3.458225 
-4.644154 0.6626298 4.614689 
-3.285307 -0.6860341 3.798084 
-2.920022 -0.6261386 0.1636368 
-3.639724 -0.645201 0.6657966 
-3.820857 1.174219 1.943271 
-4.089694 0.360922 -0.3951795 
-4.552634 0.4951302 1.301693 
-2.913582 0.6964988 1.045237 
-2.777764 0.291978 4.010025 
-4.612222 0.7192122 3.278995 
-3.52468 0.4299254 4.5514 
-3.497011 0.7156782 -0.3951793 
-4.73352 -0.06393345 0.5605545 
-3.512261 0.7980872 -0.3951792 
-4.998885 -0.1363205 -0.1887125 
-3.966686 -0.2522967 -0.3951719 
-4.321503 -0.8291681 0.003451602 
-4.766303 0.2022721 3.0082 
-2.792708 0.3951054 0.538933 
-4.112764 -0.1649434 4.206229 
-4.551887 0.798345 0.3348333 
-3.353966 -0.9645661 -0.3954117 
-3.767664 0.7093837 4.918937 
-3.498588 -0.3107672 1.746623 
-4.577148 0.7664886 0.3910079 
-4.475413 -0.2087652 1.819515 
-2.785992 0.3673844 2.684239 
-2.966795 -0.8009171 0.05586544 
-3.822289 1.172364 2.542924 
-4.665411 -0.2499978 3.924658 
-4.480703 0.01591881 4.378195 
-3.746423 1.17595 2.357656 
-2.919444 0.70883 3.589164 
-2.818252 -0.1064006 2.535676 
-4.752606 -0.2289563 0.1643907 
-2.496353 0.154553 0.06608309 
-3.904347 -0.8025834 2.600481 
-3.39641 1.107077 1.96443 
-2.873345 0.6212983 1.006182 
-3.42248 1.113102 2.824269 
-2.94007 0.7444687 3.456079 
-3.298341 -0.6932656 2.950987 
-4.750417 0.3825772 3.921618 
-2.947759 -0.2313125 2.128132 
-3.694842 -0.6821024 -0.3951913 
-3.484767 0.1916197 -0.3941714 
-3.491184 -0.7716637 3.760706 
-4.482164 0.8298808 4.079333 
-4.202705 -0.8391058 -0.3940709 
-3.416325 1.150131 0.1637203 
-4.634595 -0.3073884 0.3798858 
-4.135683 -0.2554874 4.139603 
-2.99988 0.8160169 0.9658602 
-4.543732 0.406788 1.232546 
-4.691988 -0.1957044 0.5129117 
-3.035041 -0.2270307 1.398725 
-4.605821 -0.3601135 2.617211 
-3.118069 -0.9080682 -0.3319913 
-4.549764 0.5898803 5.036086 
-4.439326 -0.5528557 3.588293 
-2.971246 -0.804554 0.1463691 
-3.949143 1.442528 -0.3176472 
-3.541653 1.124563 -0.3950623 
-3.677679 1.174631 0.3507066 
-2.934165 0.8314409 0.1636819 
-2.77437 0.1413373 3.002741 
-3.307924 -0.6983976 3.358075 
-2.550689 -0.1755998 -0.2042822 
-4.500658 -0.4929081 3.458529 
-4.107816 1.051709 4.474472 
-4.767631 0.1891691 1.115721 
-4.054388 0.2347946 -0.3951796 
-3.466089 1.130869 0.8426504 
-2.553961 -0.1862047 -0.2821864 
-4.626104 0.2136272 4.562193 
-3.379872 -0.2110164 -0.3951747 
-2.860399 -0.5160481 0.1636069 
-2.878762 -0.7287273 -0.07061694 
-3.595723 -0.4330833 4.168681 
-4.605418 -0.361965 3.940945 
-3.712404 1.454372 -0.04900176 
-4.766927 0.1683547 2.952319 
-3.670643 0.8688374 5.077592 
-2.946388 0.1872052 4.745022 
-2.886316 0.6450859 0.7370853 
-3.268213 -0.6769434 2.968687 
-3.119913 0.9353027 4.37541 
-2.785184 0.3627266 3.760516 
-2.927689 0.7231668 3.843311 
-3.14776 0.9595544 2.977117 
-3.38434 0.5612626 -0.3943727 
-2.785306 0.06461151 4.668469 
-4.739863 0.4187406 2.784974 
-3.484693 -0.1769108 -0.3951725 
-4.259918 0.508276 4.68118 
-4.106003 1.114907 3.047505 
-4.985282 0.5496963 -0.11862 
-4.040609 -0.7733688 0.4383273 
-2.817468 0.482435 2.057807 
-3.325461 -0.7074925 3.7158 
-2.822306 0.5088435 4.85209 
-2.976599 -0.6732194 -0.3951429 
-2.928587 -0.3549426 0.9503164 
-4.308824 -0.9676856 -0.260413 
-4.07247 1.132255 0.1922291 
-4.167226 -0.8639534 -0.3946129 
-4.491863 -0.503942 0.6562793 
-2.856616 0.5884384 0.3493 
-3.534911 1.140592 4.968129 
-3.691191 -0.9773322 0.1636897 
-3.708725 1.174515 1.632221 
-3.632634 -0.7405849 -0.3951299 
-4.046274 1.132055 3.218418 
-3.444203 -0.5491211 4.121051 
-4.38242 0.8731301 5.167399 
-4.323258 1.013141 2.137343 
-2.693325 -0.4969928 -0.3184443 
-4.047715 1.426779 0.07129377 
-3.02673 0.8487903 3.143161 
-2.890623 0.6561925 2.448661 
-3.760626 1.168654 5.09503 
-4.459485 -0.5084009 0.2107566 
-4.367196 0.9759385 3.198696 
-3.648993 0.5550198 4.644364 
-4.775183 0.4857128 0.1639172 
-3.872101 1.163661 3.80115 
-4.58653 0.6645172 1.234071 
-3.951543 0.9047634 5.10626 
-2.835556 -0.1671623 2.100433 
-3.204394 -0.9521629 -0.2539014 
-4.750741 0.3768733 2.860722 
-3.227997 -0.6538482 2.430957 
-3.893736 1.16655 2.115215 
-3.031309 1.001123 0.1648539 
-4.713101 0.4828106 1.124027 
-3.964144 -0.7954177 3.908506 
-2.857333 -0.2214248 2.860964 
-4.142426 -0.5172143 0.7990844 
-3.074717 0.5624899 -0.3939362 
-3.447171 -0.7583531 3.849955 
-4.16268 -0.5964174 4.021242 
-3.016441 0.8353008 5.058398 
-3.032175 0.8549587 0.7681996 
-2.682024 0.8446141 -0.2638783 
-3.119077 -0.2198331 -0.3946443 
-4.021375 1.142711 2.044293 
-3.787939 -0.5899458 2.054091 
-4.213252 0.05337501 4.394978 
-3.038895 1.22604 -0.2724064 
-4.249375 1.263729 0.1636983 
-2.936373 0.7363186 0.3598896 
-4.215559 0.5712246 4.844812 
-4.443333 0.111323 1.628806 
-3.896075 0.4170616 -0.3951795 
-4.685112 1.069775 0.03748254 
-2.781882 0.378056 -0.3951739 
-4.093912 1.12409 0.7371585 
-3.008746 1.203444 0.1330733 
-2.786002 0.01896989 0.3349628 
-2.770261 0.1130402 0.1748201 
-4.113083 0.3554394 4.52628 
-4.631471 0.6815405 0.5300567 
-4.657129 0.6366373 3.325361 
-3.36388 1.111485 0.1653049 
-3.978667 -0.3214775 1.104717 
-2.773055 0.1445545 1.893889 
-3.613531 1.159141 3.873016 
-3.000238 0.08812408 -0.3951726 
-3.618463 -0.605614 2.191421 
-3.627802 0.8249851 -0.3951793 
-4.298467 -0.6612498 3.356885 
-3.233886 -0.2303649 1.500901 
-4.831619 0.5186357 0.1637982 
-2.647852 -0.4094613 -0.2696716 
-3.957436 -0.7967669 0.3080921 
-4.553961 1.090439 -0.394197 
-3.391381 0.1585935 4.495496 
-4.953274 0.6563232 -0.2161884 
-4.261809 -0.6803739 0.3732928 
-2.771181 0.1639813 1.92387 
-2.744854 0.9384511 -0.1544068 
-4.50722 1.221448 -0.05069635 
-4.530983 0.8234354 1.242844 
-4.067032 0.6529505 -0.3951795 
-3.570547 -0.7953706 3.446046 
-2.784487 0.359058 4.673973 
-4.699766 0.00434648 1.73654 
-4.223094 1.064537 2.537623 
-2.550225 0.5422074 0.07860281 
-3.793051 1.457907 -0.05223928 
-4.973263 0.5878397 0.1538977 
-4.056239 0.685146 4.983364 
-2.797095 -0.03937562 3.820992 
-2.498177 0.1254363 -0.1312646 
-2.675736 0.186919 -0.3928538 
-2.862783 0.6085692 4.970778 
-4.4506 -0.5157945 0.2566573 
-2.905252 0.68443 4.637515 
-4.533334 -0.009049015 1.708074 
-3.276115 -0.4420817 1.063307 
-3.483505 -0.08364686 -0.3951687 
-2.868992 -0.2429065 2.988242 
-2.81014 0.4520504 0.7021329 
-3.169692 -0.6011139 4.28568 
-3.432136 1.120688 0.7893374 
-5.044875 0.1839676 0.1309631 
-4.619922 -0.3349365 4.000066 
-4.679505 0.5957872 2.98051 
-3.764948 1.180664 1.094335 
-2.985656 -0.4302908 2.703479 
-4.073674 -0.7639174 0.1822369 
-4.918954 -0.3585992 -0.230831 
-2.80875 0.1449857 4.856427 
-3.925344 -0.5432587 -0.3951797 
-3.393672 -0.4299262 4.203732 
-2.780736 0.07076016 4.337803 
-3.447973 1.245453 -0.3951066 
-3.99744 1.035581 -0.3950877 
-3.581688 -0.7971655 3.245334 
-4.504162 -0.4886658 3.870059 
-3.427484 -0.6056566 0.7052896 
-4.78125 0.6007225 -0.3944318 
-3.378431 1.393156 -0.1675462 
-3.383356 -0.5885589 -0.3938647 
-4.018232 -0.7802183 2.948534 
-4.342371 0.9985741 1.708154 
-3.24806 -0.6660657 3.226508 
-4.673831 1.083624 -0.09216948 
-3.174439 0.9999334 5.227687 
-2.821779 0.009929031 3.390431 
-2.982789 -0.2053118 4.379532 
-2.805749 -0.06876841 1.435021 
-4.167111 -0.9333206 -0.003514755 
-4.758092 0.07650289 1.847034 
-4.675974 0.6173732 0.16841 
-4.626792 0.08866979 -0.3951798 
-2.569223 0.6052542 -0.0734566 
-3.686894 1.16574 3.965367 
-3.910187 -0.01439237 4.291849 
-2.973818 -0.4158832 2.780689 
-4.555283 0.07755968 4.403623 
-3.386698 1.1014 3.099508 
-2.863531 0.6042356 1.704457 
-2.805953 -0.06888053 1.81223 
-4.591044 0.1844215 4.52093 
-4.722087 -0.101916 0.3864397 
-4.117786 0.8590455 4.667167 
-4.700778 -0.1721693 0.4785762 
-4.260121 -0.5975794 1.940882 
-4.692416 -0.03914077 1.750371 
-2.827451 -0.1406927 1.421907 
-4.28079 1.038327 0.373935 
-4.626074 -0.3229998 2.596889 
-2.887223 0.2294126 4.86239 
-3.311752 -0.9612632 0.1629117 
-3.729944 -1.055097 0.1635026 
-3.059375 0.8873942 1.730841 
-3.840316 -0.4808255 -0.3951798 
-3.867565 -0.2859411 1.241908 
-4.492587 0.8690989 3.264406 
-3.544524 -0.7881902 0.3604267 
-3.117443 0.2921851 4.616126 
-3.396997 0.9890076 -0.3951792 
-4.365026 0.8949339 4.633368 
-4.864533 0.8280381 -0.04974385 
-4.763282 0.1275238 2.734877 
-2.560572 0.5761725 -0.06414448 
-4.262919 -0.007901249 4.341481 
-3.348632 0.07283375 -0.3951634 
-5.042997 0.1785011 -0.05386648 
-3.444468 1.124951 0.5579109 
-3.841357 -0.8068168 -0.3952037 
-3.114617 0.9345968 0.3175911 
-3.058719 -0.5009914 4.258354 
-3.625353 -0.7799234 0.2523097 
-4.490561 0.8707034 4.68585 
-4.087585 0.8516366 4.602537 
-3.563222 1.228615 -0.3953447 
-4.369866 -0.609883 0.8907057 
-4.744808 0.4015222 2.485225 
-3.953558 0.2405688 4.399306 
-4.380868 -0.0821836 1.331647 
-2.883627 0.6455525 3.688155 
-3.119533 0.9379182 1.724782 
-2.95557 0.7624996 0.4286221 
-4.658537 0.03992115 1.744185 
-2.784101 0.03399693 2.777874 
-4.162193 1.095298 3.318026 
-3.409228 -0.3045718 4.362401 
-3.344262 1.078127 3.906559 
-4.548776 0.458972 4.763513 
-4.200362 1.379847 -0.3055969 
-2.787949 -0.006154295 1.800047 
-4.470811 0.7259068 -0.3942734 
-2.794152 0.4132029 4.545236 
-4.572455 0.7732316 1.061228 
-4.766897 0.1977283 2.474101 
-4.405864 0.9396539 4.619409 
-4.092715 -0.5199531 1.840132 
-4.0257 -0.4209951 4.086886 
-4.172333 1.104648 0.167929 
-3.726404 -0.8114696 3.14916 
-2.988544 -0.4338757 3.121741 
-4.408283 0.9452853 1.216463 
-4.523856 0.2238508 1.3101 
-3.332122 1.074777 2.620939 
-3.020431 1.02197 0.1646169 
-4.584008 -0.3897386 0.9625254 
-4.412869 1.034122 0.1640555 
-2.870208 0.6163817 1.516794 
-3.107783 -0.5593121 2.936981 
-2.777386 0.09965263 1.55625 
-4.237113 -0.2395035 1.131468 
-4.754553 0.3408801 3.683223 
-3.471787 1.124882 4.19687 
-2.775464 0.1308305 3.609109 
-3.385292 0.4550163 4.617579 
-2.998573 0.6616874 4.321988 
-4.212879 0.4549505 4.605122 
-3.670891 -0.02142084 4.281413 
-3.059842 0.8882019 1.346223 
-2.879198 -0.261627 0.8291298 
-4.750661 0.3735401 1.765692 
-4.76642 0.1593519 2.360081 
-3.907466 -0.8023021 2.453804 
-2.78134 0.3220463 2.667181 
-4.183805 -0.7219216 0.6108109 
-4.323319 1.326079 0.07674786 
-3.655004 -0.06198952 4.273534 
-2.82023 -0.6623719 0.1169473 
-4.077279 1.123295 3.068148 
-4.743943 0.9088005 0.1637872 
-4.757189 0.3077068 2.067328 
-4.990042 0.533589 -0.1050804 
-2.992546 0.6084648 5.165896 
-4.300453 1.023449 3.431991 
-2.839261 1.053547 -0.362784 
-2.786347 0.006968142 4.143876 
-2.870259 -0.2434043 2.265298 
-2.494374 0.1827952 -0.1019657 
-2.753582 -0.5811006 -0.1588338 
-3.180281 0.9825104 4.723628 
-3.04557 0.871391 1.873906 
-4.718288 -0.1127774 1.080311 
-4.543235 0.4184141 1.277405 
-3.5448 -0.5315874 0.8039929 
-4.734981 0.06136787 0.2879686 
-3.385538 -0.7395534 2.597376 
-2.635523 -0.3901794 0.1114016 
-3.016262 0.2295832 4.625552 
-4.639626 -0.2976128 1.927048 
-4.100172 0.1278487 4.438105 
-4.761702 0.2639361 2.826802 
-4.576423 0.7681298 0.728281 
-4.35593 -0.3469614 1.816863 
-2.901312 0.6747069 1.68705 
-2.976296 0.7883877 4.399201 
-4.523574 0.3421546 1.596117 
-4.531239 -0.455498 0.899461 
-4.70796 -0.1869726 -0.3951799 
-3.006958 1.053301 -0.395161 
-2.76935 0.1899946 1.077817 
-2.786154 0.3691287 2.741938 
-4.80282 0.9264427 -0.1040005 
-4.479256 0.8869142 0.5872471 
-3.757711 1.175995 2.70799 
-3.997058 0.01702987 4.313913 
-3.23241 -0.3491383 4.280663 
-2.922924 0.714916 3.851343 
-3.337611 1.072338 4.976764 
-3.772693 -0.3013446 1.275325 
-2.777223 0.1013956 2.152845 
-4.959873 0.2045517 0.1636555 
-2.815372 0.3844746 4.987118 
-3.336524 -0.2931744 -0.3951783 
-3.556652 1.154438 2.276723 
-4.568314 0.7779886 1.614665 
-3.70008 -0.6246768 2.139586 
-2.784348 0.3447757 0.9194014 
-4.487082 0.5066898 4.804971 
-3.850416 -0.282359 1.544622 
-2.689549 -0.4902982 -0.1620385 
-4.750029 0.3684933 0.4125566 
-4.624056 -0.2545769 1.87236 
-3.820956 1.455187 -0.1007509 
-4.956641 0.1739289 -0.39518 
-3.088438 0.9121132 2.49086 
-3.91838 1.160424 3.357869 
-4.697818 0.4248745 1.666621 
-4.759082 0.1915357 4.459138 
-3.014879 -0.4657053 3.52858 
-3.005054 -0.2044714 1.464428 
-2.786279 0.008112729 4.00705 
-3.14165 -0.04581486 -0.3951698 
-3.196131 1.000981 1.02186 
-3.602065 1.155696 4.556233 
-4.731773 0.08841842 1.735435 
-2.800475 -0.05118757 4.131665 
-2.774074 0.253228 3.338081 
-4.533902 0.8201469 0.7532843 
-3.683208 -0.8072875 2.967655 
-4.402393 -0.2308405 -0.3951797 
-4.595296 -0.3770947 3.542798 
-4.754661 0.3265183 0.7088508 
-4.908079 0.1828068 0.1637647 
-2.783137 0.0400164 1.520798 
-4.537962 0.8039058 1.338658 
-4.751959 0.3654459 3.142575 
-2.879731 0.6355286 2.450319 
-3.664515 1.172938 0.5071708 
-3.011065 0.8304914 3.345831 
-3.166564 0.9762024 1.899247 
-4.731027 -0.07163934 3.006203 
-3.076471 -0.4134498 0.9446917 
-2.815193 -0.09941247 3.783378 
-4.739873 -0.04068691 2.866611 
-3.997521 -0.5965593 1.944749 
-4.765956 0.1932019 3.63724 
-3.156765 0.9655051 3.674168 
-3.908286 0.8019812 -0.395074 
-3.58393 -0.7751336 0.2777195 
-2.847921 -0.02993791 4.732848 
-4.038543 1.137568 2.020421 
-3.111158 0.5276896 -0.3937335 
-4.636334 0.6764009 4.497005 
-3.222348 1.015118 3.824362 
-4.68426 -0.2143645 3.092643 
-4.236149 -0.5224043 0.817095 
-4.431714 0.1599137 1.527353 
-3.735343 -0.7941082 2.37994 
-4.544017 0.320879 1.203799 
-4.174876 -0.7272407 2.749244 
-2.782593 0.3384201 3.968915 
-3.720708 0.7096188 4.921678 
-4.402445 0.9473422 2.994293 
-2.784579 0.0259586 3.004488 
-3.409441 1.11051 5.204716 
-4.66491 0.6188391 0.3337731 
-3.19114 -0.1085086 4.424983 
-3.496636 1.129468 4.94937 
-3.708074 -0.6991643 2.177956 
-4.178652 1.089139 2.11237 
-3.908611 -0.8021964 2.413793 
-2.787754 0.3885632 4.50493 
-2.800201 0.04547623 3.404526 
-3.032841 -0.3335005 -0.394201 
-3.796657 1.173098 3.16943 
-2.780229 0.1028197 4.639163 
-2.922361 0.4167622 4.484182 
-4.260372 -0.8605998 -0.3940509 
-4.981324 0.511906 -0.3950573 
-2.733014 0.4211983 -0.395277 
-4.342631 -0.6312801 3.422106 
-4.76301 0.123728 3.288018 
-3.704279 1.453877 -0.01250473 
-2.901786 -0.4488019 0.1636042 
-4.366642 -0.09606986 1.327068 
-4.308811 -0.575756 0.8683305 
-4.963278 0.6224585 -0.01557788 
-3.17514 0.8156587 -0.3950308 
-4.516376 -0.4732636 2.521536 
-5.0358 0.2792422 -0.2734368 
-2.889325 0.8126891 -0.395109 
-2.786942 0.3772966 3.014901 
-4.446456 -0.5472118 2.453994 
-3.396741 -0.7430185 3.235789 
-3.142243 0.3974967 4.674407 
-4.168391 1.016031 -0.3927313 
-3.791428 -0.8137121 2.658854 
-4.752627 0.353917 1.908983 
-4.574484 0.7020267 1.474466 
-2.95514 0.6075566 5.258139 
-3.710226 0.1324878 -0.3946741 
-4.645436 0.659727 4.329861 
-2.971136 0.6920163 -0.3950516 
-3.88414 0.8045929 5.002232 
-2.772036 0.2247883 2.50413 
-5.034155 0.2963017 -0.384225 
-2.788376 0.3593707 0.3076477 
-3.387285 -0.6865194 4.109251 
-4.597323 0.3047239 1.659684 
-4.525301 0.8296233 3.912636 
-4.582381 -0.3932585 2.60832 
-3.898351 -1.078872 -0.324531 
-4.344752 0.9944448 3.081063 
-3.708033 -0.837639 -0.3951181 
-2.913037 0.6799341 4.026204 
-3.807954 -0.4652533 1.858497 
-3.941048 1.165967 0.5359641 
-2.785818 0.3700613 4.127105 
-4.198566 -0.8382163 0.07328641 
-2.495918 0.1547192 -0.09785861 
-4.896181 0.7675251 0.1156882 
-4.64776 -0.2264419 4.090039 
-4.704769 -0.1589072 3.754831 
-4.826305 0.5774972 0.1637488 
