ply
format ascii 1.0
comment VCGLIB generated
element vertex 1665
property float x
property float y
property float z
element face 0
property list uchar int vertex_indices
end_header
12.64276 -8.884233 12.58513 
-1.821295 -9.101889 12.73089 
9.312683 -6.121766 8.414719 
-4.468158 -3.514931 10.3205 
10.52476 2.563821 8.156268 
7.283656 7.547324 8.913596 
12.53712 -4.451811 7.510062 
-5.943364 -6.171507 9.548639 
2.862262 7.913373 10.62218 
9.486045 -5.801707 8.399713 
16.57457 9.192977 7.960595 
2.738108 -7.546325 8.952476 
-4.757143 0.1751577 10.55419 
9.74522 2.188403 8.265928 
2.502756 -9.084808 14.02186 
-3.0026 -2.781336 10.11325 
1.722816 -0.8922754 9.45001 
6.737796 6.178367 9.293669 
11.2453 -8.681008 8.811588 
13.97872 1.409883 7.55347 
0.4708487 -1.299665 9.628691 
4.391499 -7.859451 8.667976 
15.96549 4.546437 6.854249 
9.854488 9.023484 9.700178 
4.099933 8.955094 10.54881 
-0.9084045 -6.583765 9.600038 
10.25345 -1.72235 8.00679 
-5.713635 -8.347544 10.26923 
17.13062 3.852415 5.80235 
4.832485 -8.936839 11.91207 
8.99543 -2.107151 8.501967 
2.125746 0.04063169 9.425268 
-2.804479 -9.176571 13.72833 
-1.267101 7.855661 11.30964 
14.66666 3.044553 7.128284 
-1.820185 2.769728 10.64416 
-3.036955 -9.187391 13.99031 
-1.580298 -8.805104 12.92929 
11.97425 -6.510273 7.490252 
8.238135 -4.295349 8.210822 
3.879306 5.114959 9.610697 
9.652766 6.370261 8.509549 
4.000579 -8.495728 11.81343 
4.09772 2.041031 9.183798 
7.843348 -7.231091 8.128418 
8.766955 -8.793802 10.37488 
17.76739 -9.793503 7.231602 
-3.2117 -4.552708 10.05772 
-2.288122 -6.871622 9.793736 
0.3882288 -7.222766 9.357087 
1.758746 -4.641124 9.269768 
-5.573009 -9.628819 12.09748 
-4.586948 -9.214569 14.2013 
-4.294596 6.451013 10.75295 
6.34081 -2.401916 8.624346 
1.095321 9.040668 11.04873 
9.206326 -8.786112 10.33053 
12.54089 -8.747517 10.15318 
7.79569 -2.15085 8.389719 
4.334668 5.471192 9.303572 
14.26452 -0.07254424 7.088489 
0.7954954 -8.933057 10.60271 
9.063293 -5.884112 8.331525 
-3.443326 -8.977219 10.11548 
5.32515 -4.656491 8.675697 
-0.3296732 -8.923416 9.999289 
-2.104257 -1.839775 10.47704 
-2.357467 8.853806 11.54969 
2.474772 -2.628263 9.248816 
3.581179 -8.751124 9.384684 
-1.569829 -8.207369 10.06981 
0.907859 -9.108898 13.72059 
-4.485929 -0.2479808 10.47612 
2.852347 0.567382 9.338264 
11.4132 2.84646 8.031815 
-0.04150937 -3.128877 9.628328 
13.3311 -2.466535 7.475314 
-5.899327 0.6068446 10.68913 
-2.166545 -1.900729 10.3184 
13.60729 -8.875306 12.49278 
-4.780951 -9.01118 10.50096 
3.900065 7.55689 10.16838 
1.775884 -3.877945 9.302537 
14.84715 -8.944684 8.218982 
1.474405 -7.677648 9.153534 
-6.078468 8.59194 11.08761 
8.982125 -1.642498 8.516249 
-5.946151 -3.389122 10.03892 
3.178749 -9.064763 13.88988 
12.7067 3.443921 7.851339 
0.4153332 -6.260203 9.400348 
3.406524 -0.3131688 9.423182 
-2.177546 0.6045012 10.58023 
0.3551206 -1.372432 9.646131 
13.5771 6.324064 7.853968 
3.876381 4.355516 9.364559 
10.74327 4.888222 8.237998 
-6.041754 5.011678 10.64225 
-0.3424879 -2.260087 9.717234 
9.965979 -1.982121 8.040851 
2.310309 -9.086945 13.97226 
14.29421 8.815497 9.005023 
15.18748 -7.022569 6.52265 
0.7912608 7.879715 10.10744 
15.91413 8.713544 6.923941 
14.14864 2.953318 7.588967 
5.506909 -3.867781 8.686409 
10.87784 6.535323 8.325718 
9.376204 -4.788601 8.466895 
10.01859 0.1738306 8.132642 
6.614864 0.2635612 8.694639 
2.505321 -8.981344 12.03481 
0.05190973 -2.801613 9.627443 
6.29688 -7.687022 8.360794 
-2.157827 6.786155 10.88489 
1.224598 4.407892 9.767198 
4.671026 8.578546 10.44084 
12.39729 1.684844 7.821991 
9.345589 4.391593 8.909799 
12.3179 -5.770426 7.48173 
-4.220663 -6.213362 10.14663 
-4.354862 7.687952 11.59849 
-1.143965 -8.739381 12.51031 
-0.8621044 -4.374425 9.707983 
3.538477 -2.289434 9.552555 
-4.633664 1.683414 10.5967 
4.067531 -5.534192 8.981857 
8.860619 4.907778 8.816217 
4.878317 -4.501379 8.76268 
0.2237217 -9.113283 13.66566 
16.8976 -9.26803 9.491076 
9.882294 -8.68629 8.788637 
-0.6654063 4.54835 10.08478 
7.845056 -4.153895 8.282344 
15.87413 -8.838967 6.330788 
-0.8162675 5.910118 10.27849 
2.943969 -8.581705 8.865577 
-2.178252 -9.24182 14.89075 
14.10306 6.017652 7.486771 
9.96076 -8.664925 8.418759 
7.269694 -8.734725 8.818915 
-0.8687324 3.831154 10.08312 
8.939291 6.526881 9.061687 
-1.573045 -9.084829 13.02687 
-1.478676 -8.158659 9.631674 
5.032587 -8.78162 9.080502 
6.89076 7.448395 8.986465 
16.62071 4.452483 6.229515 
9.53675 0.847414 8.436276 
-0.01181269 -3.930745 9.586618 
16.28894 6.655297 6.613035 
9.674462 -0.9633064 8.136495 
15.52778 5.866574 7.113332 
15.54182 2.309798 6.950295 
2.281296 -7.128277 9.051622 
-4.663336 -9.108755 12.55286 
9.093828 9.308113 9.932549 
7.713105 -5.711444 8.228682 
15.42389 -4.249068 6.626307 
0.8763404 -3.839341 9.448468 
9.640955 -5.514359 8.381586 
2.016463 -1.966262 9.353919 
10.47305 3.218081 8.195918 
2.307431 -8.216248 8.985444 
3.31624 -3.474529 9.082859 
-5.77549 5.746542 10.96937 
-3.311106 -9.126646 12.96674 
3.447762 -2.220727 9.477734 
-3.138895 8.686749 11.64116 
9.621796 -8.540136 7.833968 
-0.7509424 -4.555084 9.679943 
3.805422 -8.400549 10.45696 
-0.9683832 -8.961627 10.56139 
10.20239 -4.180761 7.897344 
9.327818 -6.339558 8.403202 
11.14837 -2.826933 7.811088 
-1.413144 -2.661737 9.879707 
12.40421 1.016397 7.791429 
9.633449 1.912015 8.270496 
9.684802 -7.421468 7.813685 
10.39718 -0.543653 8.03854 
4.403931 -8.524232 10.58842 
16.45734 -9.159657 12.01332 
4.259543 7.074679 9.390532 
3.339113 2.608504 9.640308 
14.12007 3.724257 7.270357 
10.53823 -8.643463 8.061502 
11.05564 3.738577 8.130033 
3.459488 3.094368 9.819132 
-5.194423 -6.014288 10.32437 
2.417848 3.868812 9.554947 
-5.248009 -3.143963 10.47411 
-1.626776 1.567962 10.40238 
14.08411 5.827663 7.390241 
-3.976715 -9.264932 15.11148 
6.558917 -3.64514 8.523895 
0.6854938 -7.451169 9.298219 
4.090067 1.410009 9.15349 
-4.805608 -5.366612 10.28902 
-5.447598 -0.2595677 10.63381 
-0.09597967 3.948226 9.961967 
14.92432 1.416584 7.01156 
-4.472668 5.405468 10.73742 
1.703295 -3.91241 9.312442 
0.2156008 -6.587079 9.416886 
15.56891 -5.792109 6.52466 
5.755037 -6.620404 8.504324 
3.726973 -6.406765 9.342832 
-2.017557 7.408598 11.40248 
14.38651 -8.621696 6.842613 
13.55075 3.302495 7.70501 
-3.091025 -1.145865 10.19824 
12.43877 7.61396 8.100201 
3.433342 4.882661 9.921795 
9.509605 4.580291 8.713038 
-5.965621 2.776 10.72158 
-4.320724 -1.54092 10.39214 
7.727694 5.795838 8.75596 
16.19122 3.213632 6.61478 
-4.855439 -2.448397 10.44197 
10.94188 -8.794042 10.70891 
-2.530101 -8.968337 10.15676 
10.82718 -8.639062 8.038019 
-3.806416 -7.959217 9.990808 
6.049601 2.429575 8.88098 
8.678941 6.129434 8.622295 
15.98721 2.857867 6.791622 
7.729849 5.811031 8.75663 
12.14738 -4.060256 7.591704 
-3.64002 -5.101912 10.10551 
-0.9489221 1.602194 9.994272 
0.9821494 -9.060487 12.88416 
-4.415905 -3.569621 10.3105 
14.50541 -8.656291 9.166577 
5.093603 -8.830477 9.989614 
-1.819299 -6.065228 10.22511 
15.22658 8.744574 8.86706 
-1.11856 -7.454455 9.589267 
8.400434 2.295579 8.496315 
2.728956 -9.025647 12.86475 
4.311104 7.988567 10.46747 
18.24923 -10.0099 8.834798 
-2.524114 0.04519996 10.16961 
4.418697 -7.355239 8.690758 
14.03394 -8.836154 11.93266 
14.94548 1.321535 7.00285 
11.72325 -4.727455 7.628308 
12.4695 0.5111836 7.756601 
2.432778 -2.724705 9.249176 
15.77107 -5.822402 6.489698 
15.81698 -0.6319905 6.749583 
14.6059 8.613003 8.652205 
-3.336998 5.998319 10.57193 
8.180987 8.091367 9.015617 
14.34283 -3.180408 7.194669 
14.7022 2.058614 7.076036 
-6.039914 3.407238 10.42463 
6.046663 -6.884547 8.442331 
-5.197208 -7.208543 10.26376 
2.740105 -7.8825 8.941059 
16.52356 -6.801477 5.843108 
9.451393 7.261661 8.948192 
-1.992592 -1.455579 10.47491 
-3.889499 -3.707017 10.21609 
8.310766 8.02068 8.779212 
9.762967 -3.452719 8.002114 
3.464566 -3.579689 9.313766 
16.29064 5.510122 6.555904 
-6.134339 0.4086196 9.514864 
2.386864 8.604869 10.79036 
2.003897 -3.4799 9.28644 
0.4768786 3.621392 9.855262 
-5.832271 -7.454125 9.935315 
8.573688 -1.263081 8.303982 
-5.923611 -4.785529 9.950452 
14.03905 4.397907 7.68152 
-5.308117 -1.450447 10.56352 
-2.033737 -8.870619 10.23391 
0.9775648 -0.1904356 9.602472 
10.73989 -8.790165 10.5912 
0.2606002 3.409554 9.881912 
7.369473 -4.110864 8.364774 
5.282046 -8.835595 10.15525 
6.312404 -4.973546 8.496481 
-2.761975 -8.977563 10.26454 
6.217672 -8.964636 12.43738 
3.849726 1.030459 9.65945 
3.457843 -4.404047 9.127256 
2.790168 6.479642 9.623494 
6.271277 2.363324 8.843095 
1.349692 3.90173 9.727563 
0.2074182 -7.194368 9.388217 
-3.803637 -4.596256 10.15633 
5.990705 5.161995 9.017654 
-0.2084817 7.823339 10.7899 
7.557607 -8.915897 11.86459 
14.38924 7.319613 7.361614 
-1.71457 -9.175365 13.94394 
-3.30577 -8.985636 10.3298 
1.71751 8.526154 10.88107 
2.051529 -0.4891068 9.415571 
-4.617734 7.153106 10.84169 
-2.217346 0.0753713 10.36635 
15.25854 9.02691 8.876631 
16.93431 0.8289523 5.79072 
15.06942 -6.009781 6.593207 
11.95646 -1.611072 7.739256 
-3.045389 -8.977779 10.23343 
17.47117 -9.704725 8.543006 
4.973751 -8.984118 12.70361 
-3.459838 -2.908027 10.18477 
-6.208455 8.803812 10.35597 
11.92419 9.07837 9.378859 
17.44748 -9.564365 11.90272 
4.137551 -9.047312 13.7584 
13.13197 4.268443 7.842999 
11.26628 8.092879 8.321337 
14.18673 0.01323481 7.451475 
15.98248 5.412007 6.770911 
-5.833429 -1.093814 10.65449 
10.48874 -8.721252 9.362728 
4.171415 -4.373006 8.883439 
-0.2359363 7.990073 11.1452 
1.392341 -8.872723 9.624936 
6.934825 5.961704 9.242463 
6.887268 3.465731 8.79296 
2.619506 -5.666136 9.077798 
0.3371071 -4.929453 9.486694 
-5.970641 -8.657116 9.087347 
15.62419 -2.467667 6.69368 
-1.688321 -8.713846 12.28255 
16.46718 -6.458165 6.061146 
-0.8082332 8.534748 11.26331 
6.580585 -8.947021 12.25595 
-0.2822104 4.837162 10.04477 
3.744398 -8.367934 9.670422 
0.2475195 7.85463 10.16805 
9.953751 -6.706953 7.811954 
8.231511 -1.977691 8.326912 
5.145726 -9.036425 13.56 
13.12682 4.697244 7.84274 
-1.2428 -8.664318 13.20325 
5.393376 3.471214 9.038889 
-1.919401 -9.202909 14.404 
8.771242 0.9906511 8.375919 
6.488792 -1.862413 8.612856 
-5.096651 -3.999446 10.40747 
15.64219 9.104866 8.825501 
9.527847 0.3342646 8.704481 
0.2983539 -8.999598 11.5689 
15.23956 0.40503 6.911538 
6.47328 -8.789242 9.593768 
6.763145 3.843823 8.830576 
16.66697 3.348461 6.147609 
17.03708 -1.53048 5.619983 
-3.120202 -8.968891 10.01747 
-6.206571 7.867189 10.17605 
4.097422 7.390184 9.430483 
-1.411817 -5.650645 9.992998 
9.030816 -6.224248 8.125793 
-0.822938 7.938767 11.23582 
-5.654894 -9.011489 10.35814 
-4.650624 -9.227429 14.47319 
1.951205 -3.82779 9.276997 
14.90362 2.641594 7.070913 
16.82028 -9.205249 8.12898 
15.07163 -5.402852 6.623888 
2.294599 5.020929 9.642529 
10.68314 -8.720158 9.368936 
-1.589329 -1.293815 10.3068 
-6.278247 9.018316 11.37353 
4.36754 -8.222944 8.654281 
12.7071 -8.67935 9.029291 
7.297016 -0.6195825 8.547779 
-4.56258 -8.600209 10.08829 
-6.001823 8.010674 11.38213 
16.04221 -6.310545 6.38623 
5.960333 -8.838327 10.37463 
-4.841067 -9.076165 11.83589 
8.823502 -5.756392 8.039104 
8.800802 6.77298 8.770535 
5.69689 -4.386993 8.626062 
12.26466 -4.200603 7.564158 
-6.01493 4.376821 10.67088 
17.2268 4.218204 5.773257 
0.4610835 3.641505 9.858027 
14.29537 -1.40319 7.129054 
0.3636566 -9.144091 14.35842 
10.03345 -5.027627 7.885724 
-3.795433 4.403126 10.57645 
-5.034181 -6.735148 10.25871 
17.09416 -9.582974 5.218225 
14.22949 -5.374925 7.181007 
-2.792295 -2.994026 10.06049 
-1.531405 -0.2764632 10.00732 
3.492452 6.026965 9.966985 
12.15149 -5.869551 7.501095 
-0.4596268 -6.771422 9.51742 
11.14169 -6.438567 7.631686 
8.743971 5.10667 8.567331 
16.8241 0.8029014 5.914973 
0.7428132 1.408165 9.712696 
7.318089 -8.844833 10.85593 
11.61729 -1.511549 7.799297 
3.898097 -0.5146222 9.586744 
-5.674295 -1.006783 10.64582 
6.587807 -8.948954 12.27692 
-4.343312 7.711513 11.08246 
-0.2306764 5.96307 10.08234 
14.30319 0.3084095 7.061099 
11.82641 -3.988598 7.647392 
12.29424 -2.237384 7.657541 
17.25071 -5.583827 5.325146 
8.961481 0.9568866 8.758287 
4.017696 -5.493211 9.33412 
15.28442 -3.840136 6.669531 
-4.991298 6.825942 10.88877 
-2.888831 8.414245 11.58652 
0.8328483 -9.108771 13.78093 
-0.2716749 -1.179581 9.753036 
3.49841 -6.295392 9.217064 
8.300162 -7.642758 8.03257 
5.265446 -8.902294 11.33497 
14.94875 -7.468857 6.535751 
6.618374 8.132438 10.14119 
-5.672166 3.379973 10.84297 
16.99232 -9.443634 8.418159 
12.34353 -8.663616 8.695695 
-0.7811105 -5.347782 9.651875 
15.47498 -1.543643 6.762694 
12.73843 -7.115498 7.335515 
4.531931 -8.494415 12.4154 
8.776474 7.564201 8.757766 
-1.974433 2.706675 10.6628 
2.931009 8.821623 10.7198 
7.619632 9.205298 10.09881 
17.97408 -9.891548 11.5541 
8.336583 -4.273205 8.195162 
16.7924 -2.993121 5.82056 
6.423977 -8.984578 12.84218 
-3.207751 5.232758 10.51771 
-6.023754 0.4844444 10.09651 
0.7114612 -8.913782 10.16649 
11.66678 9.267603 9.498625 
-2.033522 -8.728223 10.19386 
-6.040983 3.856323 10.48177 
2.36303 -8.863683 9.737175 
4.522806 -1.469826 8.964904 
4.575044 -3.066474 8.88221 
2.294654 0.508873 9.42405 
10.31077 -8.826571 11.93934 
16.18274 7.119897 6.793983 
-2.221637 1.748884 10.5598 
8.006331 -2.146058 8.354844 
-0.7893646 5.963635 10.231 
6.682998 -8.855394 10.86996 
-5.938258 4.500034 10.90479 
2.040191 5.746077 9.712575 
-4.614749 0.7980875 10.55723 
0.5404414 -3.571683 9.514281 
7.032147 -5.110338 8.370714 
11.43125 -5.109029 7.658047 
4.785553 8.170459 10.40749 
-2.078118 9.030468 11.58915 
2.892287 6.508328 9.610929 
16.03567 -6.685212 6.373827 
8.692953 -2.020788 8.245138 
4.242271 -0.5131891 9.052275 
17.75342 -9.805727 7.386864 
10.05414 -7.397253 7.754713 
4.664477 6.27783 9.289736 
3.807211 6.090399 9.918532 
-5.940703 0.11923 10.51295 
2.70516 -2.161684 9.234617 
-1.029468 -3.205021 9.78791 
8.972119 -0.3186082 8.666187 
0.7972755 2.835298 9.768192 
1.603551 9.026687 10.96259 
1.131266 -3.305469 9.429304 
-2.324706 7.466444 11.05972 
-1.914852 -9.082836 12.4275 
-0.9031675 6.11335 10.27494 
7.999542 -5.451274 8.195239 
-4.865663 6.999515 10.87609 
15.1334 -7.109412 6.526129 
8.39633 9.163537 9.963116 
-5.965446 1.598612 10.52009 
9.637819 -1.246117 8.12986 
7.505881 5.437395 8.776151 
15.20531 -5.003294 6.624326 
9.083961 8.438141 9.800222 
-4.859719 -9.226843 14.48385 
-6.066939 4.20039 10.38066 
2.257127 -4.971084 9.176012 
-5.726986 1.495625 10.76538 
-0.2259866 -7.456008 9.443493 
11.24949 1.503506 7.996197 
14.17396 2.429604 7.30406 
17.2499 -8.938339 5.170508 
2.711737 -2.518915 9.211126 
4.930223 -8.606358 8.542112 
-1.998657 -2.721787 10.41326 
-5.903951 5.366006 10.96753 
-3.687684 -2.242183 10.25281 
-5.899319 -5.198916 10.00803 
9.530769 0.3644389 8.238253 
17.09268 8.670444 6.015043 
-4.272647 4.416067 10.6622 
13.95181 -8.7335 10.20592 
16.65748 5.28975 6.224203 
17.07784 -8.841422 5.285187 
16.73811 9.29352 7.718349 
8.123401 -4.032193 8.24397 
5.303173 6.256672 9.182797 
-3.578432 5.539969 10.5908 
9.317606 7.691892 9.725819 
7.660613 -7.856195 8.127295 
9.842502 -4.126814 7.956894 
7.895896 -2.228191 8.370413 
-1.275208 7.473998 11.28273 
1.199461 -5.554066 9.315863 
2.253426 3.404312 9.55739 
-3.46978 6.840413 10.6319 
17.06197 -9.555126 5.744158 
-0.6417181 7.638237 10.21983 
-4.319411 -7.747897 10.08659 
16.82437 4.098359 5.996468 
2.67956 -8.929935 11.11464 
4.509268 4.668517 9.240108 
10.90865 -7.156825 7.631187 
-3.50362 -9.225754 14.53347 
16.45686 -3.591216 6.040017 
5.569808 -6.809556 8.527966 
17.48213 -9.69304 5.489038 
-1.652533 3.487847 10.32281 
10.12469 5.701807 8.391676 
9.577627 -0.7623394 8.435905 
-1.771525 -4.196826 10.30252 
4.513535 -5.79302 8.755047 
16.26517 8.932444 7.401843 
6.866476 -8.915847 11.68558 
-6.095079 -0.8747344 9.502952 
11.85633 5.376842 8.069607 
5.947609 7.950864 9.15975 
1.940663 4.909053 9.695672 
11.40599 -6.613733 7.580288 
16.45688 -0.7959902 6.183664 
17.01616 -9.285522 8.910813 
-4.04118 -8.243582 10.01587 
16.29802 -1.677763 6.347077 
2.958746 3.07452 9.429246 
15.86747 2.18628 6.874116 
-0.07558317 1.72547 9.858534 
16.08842 -8.985859 9.015716 
16.52607 -9.016459 9.369041 
16.57643 5.7228 6.31896 
1.279575 -5.656693 9.28866 
0.4887927 4.975098 9.929188 
10.36919 -5.451185 7.817377 
11.8502 4.549998 8.043112 
7.463132 -5.806433 8.264153 
1.606791 -8.674934 9.07865 
5.653442 7.958131 9.212273 
5.418215 1.672426 8.950089 
-2.871279 -8.667658 9.796469 
17.13563 -9.576738 6.425673 
13.73169 -0.8929071 7.480268 
4.580252 6.212937 9.30444 
4.212631 5.090202 9.305808 
11.15823 2.29696 8.045746 
-4.577616 -4.659791 10.28394 
5.755069 -6.388495 8.513492 
-2.875172 -9.148909 13.14986 
12.26274 4.850435 7.988972 
15.25874 -6.12663 6.55662 
-5.674859 6.464869 10.98685 
12.81742 -8.709105 9.523003 
17.02381 -9.300839 8.98691 
3.550589 -0.6089597 9.627989 
-3.615409 -9.234908 14.80221 
3.361747 -2.120282 9.168961 
16.519 6.591898 6.399525 
-5.926383 0.3621062 10.62272 
-5.314404 -9.605716 12.67069 
-4.100885 -0.4128937 10.40626 
14.27237 0.5238568 7.076973 
8.217281 7.415691 8.75377 
2.832894 -5.68017 9.047098 
8.789993 -5.642408 8.054187 
13.31535 -8.562454 7.270452 
10.55848 -1.703381 7.959992 
10.43995 -8.750708 9.839161 
-4.99239 -7.378668 10.21533 
9.944449 -8.774091 13.10266 
-0.8749938 6.962443 10.22804 
16.08647 0.0185784 6.515439 
9.991693 -8.45284 12.42628 
9.051638 -5.573051 8.31844 
-3.969613 7.699043 11.66955 
-1.193059 -5.663731 9.727972 
9.678856 4.459085 8.383656 
3.475146 -6.008993 9.094322 
6.172192 7.367949 9.090355 
5.803777 8.019569 9.318106 
6.219103 8.015029 9.838306 
16.87228 -9.264829 10.28516 
6.55756 -4.251884 8.491051 
0.3089499 3.943046 9.897715 
8.893971 -4.484408 8.099504 
-3.700527 1.973595 10.49042 
-1.260145 -8.835504 11.77687 
-2.087987 -7.786121 9.956715 
11.85715 -8.897408 12.60799 
15.51065 -5.356698 6.556821 
0.9042918 0.1864851 9.630057 
7.140432 -8.95994 12.54111 
5.849128 -5.56743 8.545248 
16.68871 -2.598574 5.936974 
10.53154 8.008848 8.437046 
-2.551043 -8.953502 9.914371 
14.12836 -0.7935258 7.423277 
13.84563 -4.620288 7.294744 
8.873491 5.836947 8.996874 
16.33845 -6.082659 6.111744 
11.60417 -4.607658 7.655942 
-3.901752 4.411412 10.59652 
16.79227 4.076877 6.031689 
10.68579 2.264756 8.117119 
16.77263 8.566226 6.19234 
-2.545616 2.144296 10.26786 
-0.3401788 -6.223648 9.52597 
-1.889802 6.495815 10.82985 
3.216381 -7.70511 8.868332 
16.99001 0.7233475 5.745333 
12.52536 1.7133 7.802874 
8.877238 2.628008 8.594406 
4.696059 -1.859467 8.916666 
-5.056033 -8.896672 10.16389 
-2.284918 1.194538 10.24125 
4.832335 -7.460036 8.617849 
-5.000646 2.755236 10.70519 
3.530699 -9.046801 13.54069 
6.691562 -6.004523 8.383229 
16.46408 -2.462341 6.158849 
-1.816722 -2.048062 10.41588 
7.348243 -4.464286 8.355543 
0.4499824 -9.068717 12.88495 
2.131227 -9.082994 13.79635 
9.485257 4.661357 8.548823 
3.819956 -8.895432 11.2213 
4.611592 -8.499073 12.34907 
4.022624 -1.16027 9.48262 
15.28907 -5.319016 6.595387 
-5.315605 -9.229633 12.68591 
3.143889 -3.166035 9.115932 
9.451288 -2.491871 8.568182 
8.419078 6.786766 8.692693 
-3.438564 -9.183351 13.79515 
10.79796 8.920436 9.544385 
-0.5525603 -9.057468 12.35453 
15.2392 -0.351043 6.867206 
-4.389883 -7.647004 10.10581 
3.875421 5.650884 9.501139 
4.8021 -1.964988 8.893428 
16.26927 -0.7655325 6.399421 
0.8872641 -5.040489 9.39382 
8.536802 -3.461847 8.201458 
2.47482 0.2483885 9.383962 
1.16147 -9.015545 12.1752 
1.510558 1.264534 9.582497 
7.507436 -5.665836 8.2688 
8.972668 7.591705 9.117556 
9.933393 2.123432 8.231569 
6.138639 -3.188271 8.61177 
14.32779 -8.187278 6.767313 
-1.388382 6.434936 10.55499 
-0.5952358 -5.174199 9.628457 
-3.767594 -5.302817 10.11636 
15.01734 -5.747854 6.6152 
1.257247 -8.915741 10.37737 
1.314748 -2.129282 9.45521 
1.769803 -8.410872 9.063326 
3.973673 -8.398567 10.49429 
-1.407824 -8.983566 13.94991 
5.822818 2.021894 8.901822 
-5.962976 0.4447157 10.42489 
2.801337 -2.76387 9.18929 
14.15952 9.051177 9.038407 
10.59447 -0.8905646 7.990944 
1.410231 -4.387159 9.337603 
4.183406 7.961711 9.861195 
12.81939 -1.274133 7.621049 
9.598471 -8.275589 9.641622 
13.97894 2.338531 7.590202 
6.697669 -8.899865 11.53713 
-1.383355 -6.878061 9.663604 
1.230437 4.3557 9.763424 
5.616234 7.34186 9.17944 
8.611618 -1.110798 8.304268 
1.181006 -9.060639 12.93837 
-0.01738783 -1.273675 9.709394 
16.04628 -0.7997112 6.584969 
11.41039 7.420047 8.262902 
12.83187 1.182591 7.729336 
15.63133 -3.67972 6.623488 
6.409684 -3.226971 8.567539 
16.88567 -9.181218 10.59501 
10.45734 -8.718729 9.313705 
15.99518 3.093515 6.777738 
8.999573 3.663615 8.928059 
5.494893 -8.874286 10.91275 
17.24026 -4.898137 5.366139 
8.39244 -6.227988 8.093337 
0.4567403 -7.554726 9.329311 
-1.965647 7.550128 11.40223 
5.53978 3.065838 9.004002 
-1.817084 3.234963 10.66647 
0.4152328 -1.497985 9.629391 
-5.941204 -6.206946 9.558939 
-4.78678 8.632789 11.90986 
-5.240847 5.03737 10.85093 
8.890135 2.165639 8.583837 
8.483041 -0.05110604 8.372892 
-0.2058639 3.727569 9.972159 
-0.08196056 -5.259243 9.541458 
-2.354164 6.802085 10.65477 
-6.131123 5.718066 10.26321 
14.08393 6.112234 7.431084 
-2.792928 -0.8317124 10.16481 
12.86708 8.197458 8.878277 
12.08482 -6.324472 7.48517 
-3.833639 6.196954 10.66191 
2.517777 8.227313 10.74474 
10.1594 -8.412821 11.78993 
12.18085 -8.869538 12.2081 
17.13837 9.562267 8.238636 
8.882503 7.41817 9.062541 
9.472036 5.344311 8.768682 
12.74911 -4.864884 7.455657 
11.84831 9.230343 9.450647 
11.85833 -0.6165109 7.80166 
7.912427 -8.994402 13.27118 
12.96632 -8.780937 10.82102 
16.06272 -2.608585 6.505272 
1.862909 7.89944 9.880095 
3.722713 -4.599335 9.433188 
12.09661 -8.871207 12.166 
4.367473 7.210582 9.382896 
3.486708 5.003527 9.917974 
-5.9496 8.174561 11.8251 
10.12528 -8.626153 7.769233 
9.721537 -7.308328 7.813025 
2.557703 -6.049206 9.063049 
1.730005 7.104313 9.819708 
7.447615 -9.021868 13.54621 
13.26764 -6.015412 7.313387 
5.376642 7.949021 9.260279 
-4.975056 -9.322674 14.80277 
1.210807 -4.301609 9.381422 
5.879821 9.099482 10.33225 
0.05941995 8.225628 11.11129 
9.771794 2.270729 8.26578 
-1.524596 -6.457112 9.763638 
11.60095 -4.790592 7.646069 
6.935155 -7.055047 8.288516 
12.68718 -0.8460196 7.655283 
14.52686 -7.180697 6.619563 
7.501554 1.743916 8.615973 
17.40225 -9.580315 11.26627 
-3.590016 -2.978924 10.2037 
9.545254 -8.313292 10.20715 
9.601821 -4.389985 8.065559 
13.50445 3.640236 7.729154 
6.673654 6.456108 9.237002 
11.25161 7.282654 8.282254 
15.44316 8.642824 8.438381 
12.60021 3.677819 7.879258 
7.279181 3.316515 8.724908 
-2.770661 7.712226 10.69437 
-5.761105 6.391605 10.99579 
0.4109877 -7.754525 9.325696 
7.435258 7.532394 8.886267 
16.67562 7.749907 6.283857 
-3.720425 7.226846 10.69619 
-5.479799 -5.760691 10.37862 
10.98372 -1.186063 7.917259 
0.04654271 -0.9804273 9.712164 
6.959332 6.221065 9.373035 
8.877529 -8.890829 11.68146 
8.023785 8.082466 9.084027 
-4.000683 -8.975018 10.04404 
10.29663 -7.565287 7.70507 
-1.398634 -7.231245 9.649035 
14.94065 4.511757 7.14415 
4.089313 -4.680367 9.236268 
17.32688 0.2030889 5.612331 
-4.791103 -1.400389 10.47651 
10.55434 -4.717931 7.817436 
7.434438 2.345335 8.653429 
11.99242 0.9282688 7.852478 
-3.492533 6.488122 10.6206 
6.292714 -0.02041063 8.731854 
-3.405084 -3.700883 10.13487 
12.15099 -3.909687 7.598643 
16.58709 4.536077 6.263588 
-2.725832 -9.006468 10.88915 
-1.596097 0.4896183 10.23004 
9.285264 -6.414375 8.406002 
4.522173 -8.617218 11.34649 
2.1454 -8.916818 10.71848 
3.437094 -1.83836 9.425318 
7.73108 8.063448 9.48159 
2.591478 2.382076 9.455847 
11.26278 1.253475 7.986484 
-3.611383 -7.042073 10.0037 
14.38504 -5.666853 7.02047 
4.01215 -2.608909 9.461259 
11.59531 -6.464486 7.558559 
-1.753562 -5.932151 10.21752 
4.079607 -5.76648 9.284166 
-2.250855 2.423271 10.50764 
14.19481 -0.6020226 7.41276 
7.436531 1.101845 8.598376 
17.86246 -9.894314 9.828044 
6.50808 -7.813466 8.321232 
-3.161225 -9.084131 12.26861 
-2.690801 -9.068169 12.14328 
16.83963 -9.236451 8.816838 
0.2586894 -8.641743 9.301588 
14.16802 4.764777 7.527052 
15.973 -1.300028 6.647529 
-5.279342 4.93975 10.85282 
0.9494587 -4.744553 9.39736 
7.484179 3.387943 8.695923 
1.294067 -2.589323 9.439869 
0.5981022 3.418133 9.824958 
8.901575 4.379144 8.89473 
4.062974 -8.93384 12.47893 
10.39215 -7.550357 7.69041 
14.50104 -6.309859 6.669892 
-5.992326 -8.185602 9.072247 
16.80935 -4.928684 5.728805 
6.235982 3.917166 8.92018 
9.006499 -3.445038 8.324205 
-1.981451 8.304353 11.43739 
-5.598599 3.526934 10.83848 
13.75577 -0.3638239 7.505859 
8.123283 -8.701218 8.476855 
5.642738 2.410941 8.948739 
10.50477 -8.740633 9.681583 
3.900065 3.391416 9.430382 
9.888241 -8.57628 9.490163 
16.60986 -3.280251 5.961851 
9.18152 -7.415211 8.361916 
-1.35865 -4.69602 9.779045 
3.80615 -9.007995 12.8867 
12.99993 8.770542 9.183004 
14.30692 -8.71783 10.02506 
-5.860096 -6.815324 9.912656 
7.35702 -1.374469 8.498207 
14.34484 -1.888123 6.92334 
11.10856 8.073678 8.345407 
-4.528037 -8.892188 10.07413 
-2.840153 5.519964 10.47219 
3.878579 5.335891 9.387884 
15.61769 7.702185 7.178777 
15.03491 -8.99195 11.11257 
2.035247 -5.796874 9.162122 
9.221133 -5.837284 8.435777 
-4.350295 4.716238 10.68871 
5.140395 7.847208 9.285308 
13.17733 8.882935 9.166142 
-1.41098 -8.922379 13.93705 
12.61073 3.503398 7.869579 
15.96196 8.90212 7.259481 
5.388774 2.224151 8.984554 
9.443399 -8.535988 10.21311 
9.35087 -8.964931 13.00563 
10.37482 6.105813 8.382265 
8.967646 -8.808693 10.63077 
11.00779 -0.0654292 7.965744 
9.979151 -2.683934 8.003244 
9.344174 -2.083415 8.605644 
12.65933 -8.764102 10.4871 
12.93108 0.7631544 7.69401 
-5.1444 -2.9108 10.46799 
-3.369302 -4.374792 10.09178 
0.4438404 -9.109157 13.6716 
12.91079 -2.026564 7.566095 
4.357668 -7.432701 8.697692 
-3.966352 -9.09837 12.40865 
14.26498 -3.626287 6.848866 
-5.525677 -9.394288 11.46317 
1.593132 -8.286576 9.099312 
-4.055994 -8.996001 10.32301 
4.812695 4.938359 9.201273 
12.93256 7.394964 8.010598 
16.83636 3.525266 5.967109 
4.488559 -8.607458 11.10785 
15.73557 -9.035458 9.882439 
7.202458 8.063997 9.218049 
-5.494085 -9.039975 11.1311 
-5.615628 -4.954799 10.45219 
-0.0009806515 -8.201197 9.366095 
11.2366 6.248256 8.235836 
15.40372 -9.154913 11.58652 
11.3778 -2.841917 7.776958 
0.4312853 -9.007385 11.79056 
14.29169 -6.15368 6.836228 
6.869975 -6.274215 8.339723 
-2.479688 3.695752 10.33049 
2.413229 -6.056101 9.085211 
9.504145 -8.6598 10.56463 
1.777752 4.68196 9.706696 
7.926488 1.57116 8.537313 
8.958426 9.00537 9.84159 
10.27994 -8.781564 10.36043 
9.612815 -8.629832 11.18592 
6.82223 7.39737 9.014359 
17.19096 3.500171 5.774225 
6.101343 4.867357 8.984704 
3.858197 7.033664 9.797087 
-5.052828 8.740193 11.98 
-3.082817 2.669913 10.38116 
6.705275 -3.501433 8.505548 
-3.431429 -8.158349 9.919961 
-1.694833 -4.742375 10.26104 
14.22395 1.228823 7.33108 
5.642705 6.219826 9.127443 
0.8161585 -0.895272 9.593493 
1.974658 6.725459 9.76689 
6.105734 4.408441 8.963987 
-3.287433 1.693188 10.37611 
13.89533 -0.5657702 7.471858 
-5.332675 7.662156 11.5131 
16.48039 -4.431111 5.96452 
10.70396 -8.791982 10.60755 
-3.998149 7.018939 10.73105 
4.888824 -7.858657 8.587038 
4.120654 3.644665 9.254951 
-6.145112 8.906773 10.76647 
0.2146118 -5.370151 9.486481 
5.673202 -8.939657 12.02999 
0.8510704 7.872506 10.32962 
12.35905 -2.571863 7.630847 
8.177485 0.9953501 8.471463 
13.85467 3.969659 7.688721 
-2.388506 -5.864673 9.856085 
-5.991088 8.288676 11.60419 
16.19463 -3.832865 6.258464 
-0.4755645 -9.181794 14.70372 
9.64003 -4.577419 8.414173 
-3.291499 -9.064294 11.99327 
-3.455775 0.6653453 10.35774 
-6.087873 3.957316 10.23211 
9.69237 4.619429 8.389712 
12.39254 4.626108 7.960448 
-1.664358 -3.810501 10.29821 
14.12047 6.952946 7.64015 
5.868297 -8.884163 11.1659 
7.413121 -7.667951 8.177805 
6.644816 -6.837739 8.349113 
4.277965 -5.700078 8.796652 
0.7459697 6.421517 9.948353 
-3.542045 -8.972853 10.04014 
13.34828 -8.836886 11.7941 
7.62316 -1.89075 8.429623 
8.997739 7.121062 9.088761 
0.2521061 8.571124 11.09712 
16.10889 -8.885048 6.384701 
14.81818 -8.955866 8.401776 
-2.668338 -7.667409 9.813091 
4.484953 -8.57634 11.12329 
6.78328 1.672823 8.727353 
4.618669 -8.814072 11.85593 
12.11246 1.932873 7.878659 
-5.48455 -9.698254 12.41827 
7.443848 4.040366 8.733908 
11.58128 -8.852383 11.76601 
0.9758965 -9.05814 12.81069 
-5.144139 7.657552 11.83664 
-5.31899 5.74625 10.89178 
-1.899853 -4.494157 10.31059 
1.63782 6.160706 9.79748 
16.7108 9.306301 7.441871 
8.982317 2.509949 8.868996 
5.707965 -8.79913 9.577015 
12.10806 -8.619827 7.896904 
6.075601 1.562463 8.836599 
-5.952635 -9.18614 9.081203 
3.958797 1.54913 9.429634 
6.360967 -9.002947 13.2287 
3.367493 2.571351 9.735269 
9.169293 -8.958203 12.94971 
14.7263 -8.88303 6.977119 
-5.942551 -6.318675 9.586633 
2.356607 -0.09514613 9.383119 
4.838896 -0.4050356 8.962142 
16.63057 6.05383 6.268627 
2.561313 9.130055 10.87367 
11.48946 -6.960507 7.547771 
-4.325209 -9.283066 15.28255 
13.3601 -8.836679 11.73668 
-3.521414 -0.6453043 10.3004 
-5.902156 -7.785721 9.564939 
-2.797432 -8.986946 10.44566 
0.004673698 6.623379 10.07362 
0.3662176 7.829612 10.92761 
10.06303 -8.692513 8.867403 
-1.568456 8.101137 11.36798 
6.02073 3.561567 8.938482 
8.652043 -8.891061 11.63945 
13.16529 -0.4161001 7.598586 
2.248976 3.499903 9.562022 
0.1611283 7.826422 10.94572 
6.765329 -0.7453582 8.626429 
9.664247 -8.425514 8.241653 
8.028417 -1.416774 8.38994 
16.28881 -0.3476288 6.422751 
16.16949 8.753996 6.871162 
-0.8186653 -8.989288 11.12126 
8.577327 3.283318 8.504824 
1.201443 2.140347 9.672994 
1.49083 -7.582591 9.155874 
4.020422 -3.289557 9.021049 
4.546261 -2.231208 8.929292 
-6.053061 4.043498 10.44243 
9.425643 -8.216806 8.429695 
11.4173 4.353648 8.102508 
-2.132529 -9.00365 10.96295 
5.540509 -9.038889 13.67812 
14.71803 1.170938 7.034267 
11.1463 -4.72495 7.721671 
10.25796 2.269276 8.186879 
10.64698 -1.73549 7.943496 
17.0875 -9.307803 11.89287 
-3.535259 -9.173221 13.57352 
17.03264 -0.4853883 5.675045 
14.1527 6.684453 7.644431 
14.05111 8.251075 8.198263 
0.852889 -4.569704 9.422621 
-2.768385 6.046792 10.48525 
-1.290553 -8.615099 12.63043 
-4.44226 7.719054 11.807 
17.42186 -9.614029 11.3938 
3.14642 1.792333 9.340273 
-3.320243 3.556792 10.46122 
4.637516 -8.571202 13.95529 
9.904366 -1.460768 8.074869 
3.303015 3.671357 9.547476 
-6.028224 -5.30472 9.258778 
11.84274 -1.862814 7.747139 
-4.699962 -9.068289 11.73698 
-3.486758 -2.252753 10.2179 
9.030964 3.335488 8.913325 
8.817808 6.498888 8.804945 
9.590932 -1.717561 8.356397 
17.01781 -1.089752 5.658757 
2.803692 -8.860575 9.854076 
16.9766 -9.43131 7.602786 
-0.9262671 -9.030925 13.28028 
-1.014758 -0.4906842 9.906898 
-0.3919873 5.513963 10.08726 
2.334227 -7.63403 9.012878 
10.14634 -1.39271 8.040251 
-4.150722 3.783306 10.61188 
-1.621874 1.624632 10.33848 
9.177989 1.691679 8.818393 
13.43268 6.56685 7.88954 
3.246685 6.175523 9.770287 
-1.540077 1.349758 10.0809 
-3.113873 0.7225676 10.30185 
4.399568 -0.8184717 9.013612 
18.10271 -9.991452 10.51389 
9.225285 -3.832488 8.538393 
5.611642 -3.079816 8.705648 
17.37537 -9.632433 8.531761 
-1.352973 -5.484534 9.744603 
-0.5272039 1.421656 9.917403 
12.26051 3.801889 7.941553 
5.529864 7.546566 9.204345 
3.630764 -7.109748 9.317523 
0.2802444 -9.159072 14.44636 
4.425811 -8.693898 8.63106 
6.200132 -8.7598 8.995579 
8.966232 -2.1961 8.341005 
5.581364 1.351441 8.908698 
9.035126 -8.252636 7.9198 
14.40146 -8.635611 6.964863 
5.308414 1.08081 8.942685 
12.69228 -8.653341 8.585575 
4.656688 0.6208272 9.024908 
2.397927 -8.561037 8.955482 
9.292124 -8.576121 9.2974 
6.278686 5.534723 9.038875 
9.655162 -6.241782 7.884202 
4.506639 -8.84532 10.22548 
-0.6436735 -4.615747 9.658323 
9.633975 -6.124952 8.165481 
0.997587 0.2913111 9.620459 
17.524 -9.46385 4.988038 
-1.833119 -2.473771 10.40149 
2.899755 -8.924081 11.03492 
7.910748 3.411537 8.623644 
-0.7525289 -8.001952 9.501019 
15.19031 -2.806596 6.740701 
16.64148 -4.837614 5.873033 
15.77742 -1.631139 6.705033 
3.699805 -6.130234 9.361139 
9.818048 0.3113685 8.169157 
2.312793 -1.073526 9.345538 
6.962096 -8.771122 9.402283 
13.59839 6.532861 7.859601 
-6.114349 6.084183 10.39574 
2.919385 -2.747572 9.171876 
-1.918827 -2.590201 10.40777 
2.454336 -2.102595 9.276538 
12.87378 6.737787 7.992713 
14.60764 8.200798 7.361462 
1.351669 0.1751498 9.557718 
4.192218 -8.531107 12.70483 
-2.116534 8.430484 11.46406 
13.74497 -8.786215 11.04832 
5.973404 -4.889988 8.555118 
16.4535 -2.092928 6.20559 
-0.894537 2.779362 10.03956 
4.54977 -8.786823 9.065183 
5.914403 -8.940086 12.05611 
10.25851 -8.693952 8.872435 
-5.734871 5.311619 10.94341 
3.370224 2.266715 9.730358 
4.595913 0.2214974 9.018886 
9.668012 -5.202415 7.937565 
14.36412 -8.63002 8.591311 
8.759673 -6.932419 7.991449 
16.70407 -6.544957 5.753541 
1.450928 3.703103 9.700677 
-2.939747 -4.045643 10.03712 
2.284015 -1.039288 9.349428 
6.530399 -0.2354685 8.687551 
-5.724508 7.972197 12.20586 
-5.029577 7.786569 11.91298 
9.319738 -8.906918 12.01372 
-5.849719 -5.664291 10.22076 
12.22108 -8.643873 8.332977 
8.941211 1.970296 8.776894 
16.46091 -3.519012 6.128572 
9.379278 7.728303 8.707605 
9.550057 -0.6210148 8.181593 
-3.207698 -6.182345 9.979549 
5.861644 -1.224819 8.759228 
-2.883111 -9.041056 11.56962 
1.246211 -1.098549 9.511598 
-4.753289 -9.243791 14.84672 
3.220412 -6.173304 8.947616 
-3.11414 2.690496 10.38787 
3.336138 -5.80429 8.960493 
11.11658 9.106773 9.504582 
15.90467 1.876473 6.845681 
5.194613 4.163202 9.101695 
-2.216422 -6.812492 9.803383 
-5.997626 -7.388453 9.119562 
5.080087 -2.113624 8.841486 
-1.415508 -8.636171 12.77793 
13.60665 -8.564921 7.358109 
-0.4977431 -2.494025 9.72961 
2.07585 -8.976802 11.77575 
7.391957 9.184925 10.12306 
4.885719 -8.895288 11.21751 
12.14166 8.704002 9.315807 
11.10645 -8.880767 12.14863 
16.35425 -2.534445 6.291145 
-4.79639 6.165489 10.82674 
-5.844028 -4.093418 10.50002 
-0.2309979 3.835941 9.976311 
9.65657 -5.248987 8.31703 
7.798631 7.660335 8.835467 
3.46964 -8.861054 10.03686 
14.83892 -7.438515 6.553915 
11.79329 -2.079024 7.742341 
8.502887 6.765947 8.677805 
10.14832 -5.316732 7.856615 
-5.55073 -0.3033534 10.6464 
3.449787 -3.814132 9.217035 
12.28113 -8.885776 12.58671 
7.876194 -2.693191 8.352146 
15.35884 3.498745 7.03532 
12.7416 9.011738 9.243116 
15.02435 5.104604 7.156721 
7.371942 -4.601741 8.341985 
5.034075 -8.836681 10.1598 
9.557846 6.357881 8.525744 
-2.093974 -8.866198 9.975867 
16.37727 0.9800063 6.280628 
-5.414515 -0.1961216 10.6327 
18.07177 -9.897224 7.752694 
5.277527 7.787203 9.25616 
3.918764 3.107701 9.518002 
7.71819 1.139079 8.553656 
13.35084 -0.5601252 7.562508 
5.130263 -2.524624 8.812922 
9.066143 -8.838123 11.16216 
11.06813 3.036612 8.092627 
0.2509789 -1.076971 9.671541 
9.523479 -1.005206 8.623342 
11.0635 6.302216 8.273221 
3.956482 1.729648 9.527337 
-1.155985 1.028658 10.00037 
-5.809696 -8.894222 9.955396 
0.3702343 2.951959 9.839576 
-2.25335 -2.260539 10.03752 
-2.158108 6.211051 10.8577 
17.00426 -9.440953 6.880763 
-4.726224 2.941441 10.66984 
-1.762836 7.237441 11.03484 
-0.03379451 -6.71412 9.449303 
10.58365 -1.754532 7.953389 
-6.081339 -1.683803 9.530819 
3.045043 5.516805 9.545134 
-6.062609 4.212957 10.40621 
8.679973 4.953838 8.562084 
7.72361 -8.974796 12.90997 
1.504113 -6.221007 9.224983 
2.142956 2.958005 9.558146 
15.17164 8.630038 8.526874 
11.23577 -8.611032 7.6056 
13.93464 7.149215 7.832197 
-2.315935 5.432778 10.74652 
-6.038743 -2.882497 9.587711 
13.47755 7.464259 7.923663 
-0.1020416 2.03517 9.87962 
-5.977486 5.576321 10.94097 
9.277969 -8.811572 10.75191 
-4.593053 -6.701011 10.1905 
0.9790119 2.874438 9.742901 
9.576633 -8.172304 7.905237 
-5.043189 -7.223678 10.23131 
5.53652 -0.3433367 8.844433 
14.17671 0.3667004 7.127362 
-5.974375 -2.00278 10.05917 
-0.3230858 -7.908297 9.434326 
-4.226637 7.688023 11.7333 
-2.347332 2.544835 10.27631 
6.170169 -1.451033 8.690253 
13.48246 -0.3180352 7.559356 
-5.229932 -7.81043 10.23286 
2.138872 3.738692 9.589141 
-3.119468 0.6604602 10.29803 
8.124266 -4.730537 8.211256 
4.119095 8.365138 10.5158 
4.076119 -4.771267 9.151292 
11.23257 -8.910282 12.71754 
3.664375 -8.359507 9.383371 
13.51505 5.598832 7.821537 
15.19849 0.0275872 6.90125 
-0.8920409 -0.460272 9.889719 
9.945637 -8.528979 9.748306 
9.588474 -0.5046883 8.535752 
3.958355 0.6517405 9.148339 
4.569184 -8.658454 11.62146 
0.1055396 0.5742541 9.771841 
-2.238417 3.72214 10.7263 
7.197045 -5.449433 8.329878 
16.77456 0.6200747 5.946639 
9.094877 7.632508 9.263829 
2.802306 7.913141 10.61391 
-4.060805 -5.528545 10.15456 
-5.415797 6.673448 10.94994 
0.1603144 -9.137564 14.06137 
13.11149 1.213869 7.684476 
13.25028 8.20292 9.027022 
16.20507 9.467242 8.982195 
14.78407 -8.233148 6.521091 
4.260425 8.530658 10.50238 
12.04855 -3.965392 7.611903 
10.37723 6.586161 8.396187 
-3.418984 7.7299 11.33542 
10.92922 0.7987147 8.019987 
10.98985 -8.829374 11.24557 
-1.388005 0.7457184 10.02714 
9.054464 -8.392813 7.973582 
9.478638 7.354328 8.585967 
6.313828 8.011826 9.40829 
-1.566803 -6.001853 10.142 
16.10806 5.264674 6.723115 
1.094723 -3.130647 9.44398 
16.09609 -6.403132 6.34027 
14.5357 -8.820944 11.80782 
9.513972 -2.225232 8.568298 
2.806212 -4.9816 9.091415 
8.493097 0.8104613 8.408781 
2.219278 -1.006306 9.362399 
15.08241 8.67068 7.334307 
8.466576 6.815577 8.686431 
-0.905975 -7.956669 9.527459 
0.1478393 -0.6818798 9.709536 
10.4244 3.557549 8.221278 
9.865249 -3.642126 7.976317 
14.47869 8.431884 7.396228 
1.649759 6.367166 9.802976 
6.554682 8.72336 10.17351 
6.48179 8.018384 9.759768 
-3.883948 -9.206522 14.08999 
2.620585 0.7848527 9.384155 
-6.039561 -1.301848 9.790451 
4.462125 3.245525 9.184528 
8.35191 -7.457766 8.034415 
12.27961 -8.781995 10.69696 
16.63479 0.1781354 6.079782 
-2.985007 -8.994968 10.56084 
2.54827 -8.836185 9.370066 
9.063993 -7.231111 8.120612 
11.75288 -8.740016 9.887696 
18.00412 -9.916694 11.41684 
1.375725 -8.90005 10.16956 
18.22742 -10.04605 10.36343 
-2.173476 -1.525941 10.34039 
8.655624 8.027869 8.745778 
4.626968 7.992456 10.41563 
12.03813 -6.209877 7.498481 
2.036142 -2.045069 9.345335 
12.67779 7.181391 8.043198 
1.079392 -9.026638 12.35367 
8.837731 7.247537 8.972979 
-2.588431 -0.6135177 10.14191 
13.89173 6.398531 7.804512 
14.359 -3.192259 7.150922 
14.21001 -4.680422 7.233691 
9.499434 9.129498 9.790028 
15.36139 -6.857686 6.504719 
-3.49889 -8.608463 9.908616 
13.80195 1.339794 7.576977 
12.81902 -8.586342 7.492041 
11.81654 2.000727 7.926414 
-5.811943 3.219852 10.85363 
12.39264 4.80046 7.967273 
1.841899 -9.10186 14.00207 
-5.018399 0.4410541 10.60332 
8.48843 -8.817329 10.64597 
0.2044865 1.391565 9.801028 
5.233704 6.910298 9.222908 
-5.238765 8.138341 11.96471 
16.15433 8.899948 8.393381 
2.004412 7.891792 10.70105 
2.341847 7.996375 10.75725 
4.822592 -7.236467 8.633823 
12.03092 1.503497 7.872588 
9.082989 7.628067 9.225346 
8.837181 -1.951325 8.226612 
14.12485 -1.88684 7.368223 
7.470055 4.119956 8.73314 
9.764913 -8.296118 10.02889 
6.470213 3.708232 8.871784 
14.127 7.079265 7.391885 
-2.167168 -1.134268 10.43371 
5.928552 -8.894413 11.33934 
3.800825 6.03844 9.914268 
15.12423 -0.341657 6.885011 
-5.451842 6.953346 10.97062 
14.43558 -5.684785 6.714416 
-3.441865 -1.047534 10.26224 
-3.071592 -8.865123 9.828623 
4.331979 -0.4302374 9.040022 
17.61814 -9.748564 9.57118 
13.93217 8.143623 7.877345 
-3.892938 -9.100975 12.43571 
15.93173 6.916589 6.937334 
9.624134 -3.853557 8.274666 
-6.057252 5.140468 10.58116 
10.60814 -8.81292 10.96195 
-3.178837 -8.972824 10.08226 
-3.16541 6.465859 10.56611 
15.42269 3.226414 7.013013 
14.19193 5.371325 7.645411 
14.98387 5.968915 7.205071 
6.304862 -3.679026 8.562247 
-2.661587 0.1289267 10.19549 
14.42833 -8.818886 11.71547 
-5.769249 1.364836 10.76698 
12.00204 2.534757 7.923707 
3.99115 -1.483802 9.067486 
3.09551 0.8375854 9.306711 
-3.195633 -9.00859 10.82048 
-3.995365 0.5112692 10.44006 
8.730847 -1.982321 8.241901 
4.247564 -8.749182 13.44347 
-0.7744088 -6.699711 9.571747 
9.674887 -6.684785 8.196456 
-5.179885 -4.528385 10.38941 
5.374352 0.4622567 8.90239 
-1.742785 -9.097353 12.64574 
-3.014192 -6.593536 9.924538 
13.96873 -4.808744 7.262643 
9.437768 5.959911 8.530127 
-2.363189 -2.658514 10.00407 
-4.04134 -9.02669 10.94276 
12.33893 -8.867227 12.18151 
-0.118036 8.264654 11.13891 
-1.105117 -8.707714 12.88848 
6.196991 -5.307572 8.496554 
-3.92072 -3.068008 10.25119 
9.584116 1.423746 8.258224 
12.6803 -8.677426 8.989083 
14.12912 8.617339 7.786687 
3.376166 1.662951 9.605344 
-1.5277 5.293384 10.67047 
-3.711888 5.208932 10.60473 
15.37447 2.421045 6.983445 
-2.327964 7.973745 11.47768 
-4.487574 -7.660518 10.11862 
-5.699237 0.941526 10.73325 
6.81996 -8.748006 8.919679 
3.52164 1.466476 9.733141 
9.649897 1.655372 8.255796 
-1.250059 6.541397 10.44701 
16.58792 4.83113 6.275516 
8.236446 -8.935354 12.34444 
-3.294738 -4.673282 10.0672 
9.205441 -4.192795 8.522874 
7.90508 -5.253084 8.21883 
9.445535 6.317215 8.711864 
3.208071 -1.758919 9.168772 
8.223225 -3.026593 8.276079 
5.708922 -8.872915 10.95965 
-5.920846 8.672329 12.13692 
-1.481225 -7.55511 9.653268 
3.082303 0.672204 9.301499 
10.11806 7.275746 8.469757 
10.03896 3.655918 8.287878 
-1.662556 3.640089 10.24327 
3.983576 1.315967 9.565504 
15.396 -8.601913 6.401367 
-5.82786 -3.923619 10.52309 
11.66998 -8.613151 7.751683 
6.277585 -8.910925 11.6495 
-0.1580104 -7.268906 9.443705 
-1.869868 -9.164894 13.7105 
14.39437 8.441979 7.410773 
-1.898505 -9.142715 13.23365 
-5.868994 -5.022475 10.21564 
2.168845 -8.861316 9.634548 
14.2478 -3.99784 6.840658 
9.391897 7.494107 8.625019 
-3.391449 3.093196 10.45421 
10.19627 6.531863 8.423969 
11.68474 -8.77454 10.46315 
15.25884 5.207482 7.1258 
-2.623861 5.667131 10.44515 
12.0698 -7.350754 7.427934 
-2.806641 -3.692265 10.03061 
11.434 -3.253248 7.748025 
16.61824 9.220598 7.538825 
1.232069 -8.296106 9.165327 
15.92303 8.47281 6.928591 
3.140934 -1.859516 9.176206 
3.047272 6.181358 9.571966 
0.5429665 -6.388696 9.372994 
-2.34971 7.463792 10.94952 
0.2030346 3.804985 9.90962 
17.20192 -9.401012 10.15681 
14.64237 -8.675398 9.386582 
13.84727 -4.668547 7.292167 
-0.4401686 3.913613 10.0168 
4.145731 -8.273651 9.084809 
-1.367961 -8.6055 11.44622 
3.226321 -1.824527 9.166901 
9.989014 -8.277645 7.711577 
9.619927 -6.59838 8.046034 
10.86719 7.082576 8.336468 
-5.802105 7.102087 11.04309 
9.11151 -8.356688 8.182237 
15.22252 -3.899873 6.677294 
1.425413 -8.957876 11.16358 
10.1187 -8.779085 10.3381 
-3.353384 5.704335 10.56328 
7.223524 -6.451225 8.272773 
13.84252 1.747755 7.587704 
16.77467 9.442203 7.075784 
1.442803 -6.404344 9.227541 
1.834362 -8.985541 11.86976 
16.41883 -8.977721 8.450287 
-1.463533 -3.818959 9.832536 
6.253493 3.814074 8.918279 
14.26778 -3.965861 6.961222 
16.53502 -8.207683 5.908927 
0.7473198 4.949896 9.885509 
8.9774 -3.133304 8.254316 
-5.59126 1.40209 10.75505 
15.19864 -1.407431 6.811309 
11.95199 -8.719709 9.594966 
-1.595583 -0.1020257 10.33038 
-4.154052 0.7619461 10.48105 
3.747516 -6.51526 9.336228 
0.8825248 9.111199 11.13026 
1.461112 2.267298 9.634068 
15.92727 7.123244 6.943708 
6.968549 -8.72647 8.603189 
4.312171 5.231266 9.295285 
16.23647 -8.946214 8.178768 
-5.017961 -9.091521 12.17367 
5.530498 -8.941031 11.98883 
-5.92573 -6.465663 9.626499 
4.28456 -8.896316 13.66191 
14.32129 -2.887064 7.216333 
8.910379 -8.883279 11.55584 
11.36265 -6.64524 7.584755 
7.125702 4.728489 8.811793 
14.26282 -0.3663452 7.390791 
9.197515 -5.608727 8.451011 
14.94913 -8.298814 6.49102 
9.071951 -4.717674 8.478693 
7.973619 3.730453 8.628614 
5.19805 6.422979 9.206795 
10.18362 -8.792395 10.61826 
16.49013 -5.449339 6.06892 
8.076638 -2.395929 8.337305 
3.407658 -8.911567 10.93616 
-1.635219 2.249674 10.39765 
13.60487 5.076634 7.777368 
-5.927389 8.864478 12.28193 
-2.517311 -3.108418 10.00786 
8.774752 8.24601 9.837627 
-2.785608 -9.00434 10.77708 
10.16239 8.208728 9.615126 
3.671843 6.424581 9.957588 
15.24912 5.570201 7.145873 
-4.798717 -7.009694 10.19988 
8.931063 -8.696264 8.604221 
-2.286016 1.256788 10.24436 
-4.911407 -6.532456 10.24454 
7.61849 -5.737329 8.244875 
9.071539 -7.203302 8.169535 
1.987044 8.054981 10.81482 
4.374976 7.642033 9.396984 
8.252731 -8.940678 12.389 
16.675 5.872292 6.214017 
16.51596 8.686631 6.493581 
10.67599 4.156751 8.208704 
15.00065 -8.977926 8.838657 
9.839758 -8.846991 12.6608 
6.650189 -6.768225 8.352354 
-5.912375 -2.230706 10.33911 
-1.886588 -9.072778 12.22383 
8.782441 6.242226 8.662252 
0.9321489 -8.922794 10.45493 
4.142134 -8.481859 11.99982 
16.61892 8.123412 6.356108 
2.585803 -8.316408 8.939623 
-5.742293 7.654967 11.17665 
-6.184059 8.956631 11.44687 
10.46082 -4.212384 7.853455 
-5.78176 -6.446262 10.33025 
3.373008 -6.90593 8.902328 
10.67279 8.164543 8.678221 
12.05264 4.219955 7.992452 
7.145358 -8.828774 10.55858 
12.15478 5.129554 8.009245 
-2.682549 -9.034845 11.41889 
8.936434 1.283312 8.709872 
12.24755 -8.740356 9.972646 
14.5672 8.140602 7.365559 
12.55968 8.195316 8.831005 
14.7407 8.615051 8.805988 
0.965327 -3.286757 9.457777 
0.5252016 -5.497122 9.430435 
-3.723804 1.842383 10.53893 
12.09068 8.377945 9.307739 
0.6020305 -9.018838 12.01381 
15.75854 5.063193 7.032476 
13.35871 -0.399227 7.567677 
16.92158 2.268804 5.853181 
16.82013 -9.138979 10.31548 
0.5482501 5.664337 9.947566 
14.54127 -6.380984 6.659673 
3.650011 2.181122 9.746231 
-3.014407 0.3119564 10.26259 
-0.5017556 -9.017462 11.64506 
9.715895 4.39488 8.373972 
14.11952 1.652102 7.537409 
1.280133 -8.901197 10.111 
11.41057 -8.792089 10.69086 
5.002093 2.921313 9.077835 
16.46948 9.10638 8.257251 
1.050883 6.378783 9.900881 
10.57673 -5.359097 7.7849 
16.15228 -8.277086 6.188077 
-5.762824 -7.918508 10.2284 
9.645008 -5.857696 8.043836 
7.163319 -8.140195 8.191551 
3.984825 1.067836 9.551775 
4.271449 -3.763956 8.896457 
-1.285985 -8.934936 10.74096 
9.604483 2.386917 8.297903 
16.77787 -9.358898 6.375341 
9.103744 9.245735 9.901261 
4.880743 -8.845172 10.27334 
7.352277 0.668665 8.590501 
1.473095 -9.112618 14.09406 
4.990227 -3.011502 8.81294 
2.243865 -6.095036 9.111475 
0.5578302 -5.952739 9.39212 
2.479315 -4.405231 9.166906 
17.07277 -9.45533 9.303858 
1.374557 -5.243594 9.305538 
-4.622521 -4.437633 10.30198 
12.03198 5.276106 8.035544 
7.305758 -6.890631 8.235353 
11.02873 -2.379887 7.851892 
-5.421583 2.087876 10.74145 
-1.456948 0.004262006 10.00422 
7.042915 0.17453 8.616847 
-2.812068 -4.31117 10.00443 
-5.246184 -9.608459 13.05305 
15.41908 -6.38626 6.519223 
-1.356509 -8.719357 9.559857 
12.15733 -6.703496 7.449931 
5.769009 -8.861286 10.75291 
7.380086 -2.420914 8.448344 
14.0584 7.557099 7.433371 
2.067489 5.005826 9.673586 
-1.827269 -3.150512 10.36613 
-4.951148 -0.06294002 10.56639 
7.684133 3.248188 8.649889 
7.489156 -0.3427708 8.529544 
8.177107 -2.058503 8.329522 
-1.913688 -8.839654 10.92365 
4.115575 -8.541161 12.43658 
15.48577 -4.973663 6.580863 
7.878969 2.787064 8.597869 
-3.963338 -0.4155936 10.38387 
16.68234 5.991446 6.210448 
-1.212557 1.450486 10.03033 
8.543153 8.108022 8.89755 
-1.912378 -9.025901 11.5792 
4.481137 -8.515805 12.71377 
4.322056 -5.978834 8.776709 
-4.937824 7.789832 11.89682 
12.96603 -3.68877 7.478343 
-2.466338 -9.283222 15.20101 
12.38169 -6.15847 7.44815 
4.950659 0.865214 8.99088 
-2.19523 -6.336879 9.853322 
-2.793629 -9.120972 13.03036 
2.319826 -9.082622 13.7725 
15.43359 -9.009116 9.406666 
6.030188 -6.958031 8.441411 
9.073036 -7.315663 8.161308 
12.05622 1.447777 7.864862 
16.6285 5.486734 6.258527 
16.78884 -3.323491 5.808581 
0.4732983 -8.985708 11.37765 
6.518506 7.791439 9.050447 
15.79884 -3.798137 6.586549 
5.353086 4.339093 9.090454 
-0.169208 -9.082381 12.88168 
-1.903012 -9.02033 11.48773 
10.59937 7.539256 8.399975 
10.27435 -4.79434 7.85782 
11.29483 -6.720982 7.592588 
-5.689097 6.145577 10.97444 
4.566916 -1.045903 8.978284 
13.63715 4.640567 7.754818 
-0.1496615 7.935095 11.12848 
4.461955 6.48373 9.339638 
1.305458 -9.113567 13.92199 
