ply
format ascii 1.0
comment VCGLIB generated
element vertex 1653
property float x
property float y
property float z
element face 0
property list uchar int vertex_indices
end_header
-59.1103 6.152758 -11.6306 
78.59 61.27785 11.02418 
-53.66565 80.25703 -2.362726 
68.87592 70.91304 -10.91077 
99.95753 70.88579 -5.848554 
47.901 15.92059 11.14931 
6.077431 44.71542 -11.02307 
-51.46452 65.19469 10.90597 
99.97433 64.36913 -7.717194 
-86.06012 79.9518 7.252535 
-61.88585 4.817853 11.11585 
-45.86079 1.035275 8.411953 
43.64881 49.48292 11.01624 
79.30393 79.72417 6.834729 
99.98857 63.99352 7.972694 
20.59207 79.52087 -9.933607 
47.11079 50.73491 -11.00274 
-72.25203 78.01956 10.8893 
-83.82179 -0.8049081 1.075926 
65.36424 13.56672 11.37858 
12.2326 21.09819 -10.02363 
-36.17553 71.20886 10.89915 
-24.33588 64.57316 10.96388 
41.58968 39.90359 11.01943 
-99.99544 50.11779 0.6942486 
-78.58597 41.88625 11.03728 
27.61413 39.09225 11.00503 
6.166509 73.79868 -10.99685 
11.44586 53.34244 -11.01524 
16.54856 46.34228 10.93185 
96.78193 20.90293 11.06281 
-54.92453 36.22205 11.3781 
-77.00162 25.32533 -11.46285 
-48.6729 13.0621 -11.40047 
99.9904 18.04335 -2.840207 
-13.37286 6.244784 -10.3501 
-47.629 57.42991 10.96447 
84.85717 -0.146409 1.569312 
-64.9532 6.943887 -11.84605 
75.36765 22.83091 11.1541 
68.71098 73.64476 10.67716 
-81.74241 74.67205 -10.82305 
99.95092 12.71716 4.102597 
-67.11478 44.34092 -10.14035 
-93.6739 79.80197 -2.468909 
95.00722 60.03326 11.02658 
27.57304 41.33089 -11.02063 
24.74627 10.17486 -10.05802 
26.63874 60.26521 -11.02052 
-48.55264 0.1053227 3.301021 
-83.19957 16.14223 11.40689 
-70.7506 24.42914 -11.7766 
-25.43241 48.35826 11.08248 
98.5339 12.92588 10.77534 
51.19277 58.29284 -11.01889 
81.08208 -0.09942959 3.9509 
68.25073 80.44678 2.62956 
50.08058 0.03108112 2.362422 
6.98381 21.90084 -10.01101 
-23.41212 76.88355 -11.02361 
-21.30667 26.27474 11.6875 
56.19214 55.01951 10.12994 
-30.39208 80.58762 -2.275805 
-90.92067 51.1469 11.03183 
-56.5837 37.86126 11.30232 
42.37904 74.64229 -11.02528 
-44.79665 41.24718 11.34833 
99.35249 2.65196 6.709486 
53.81229 28.23497 -10.85142 
-15.01112 76.74297 -11.00759 
96.20898 18.59499 -11.06673 
-17.78157 61.08179 10.98172 
87.45136 80.04175 1.400349 
-72.18602 54.73695 -11.02185 
-0.2800759 33.55283 -10.16309 
83.21053 29.07763 11.04258 
-36.86804 53.25618 11.01214 
-5.055009 41.86913 10.808 
32.67943 2.000197 10.0766 
-5.328199 79.79111 -8.960948 
-91.88759 39.65887 -10.966 
55.99735 76.30792 -10.96781 
-40.89951 59.45376 -11.03775 
55.95251 -0.003305849 4.182594 
-5.428551 72.17116 10.84434 
90.23713 0.09071063 4.897577 
-37.47497 42.87129 -11.01024 
57.34306 32.3314 -10.90859 
40.88097 75.60876 -11.02274 
20.95469 56.29959 10.97956 
-39.79036 80.42163 -3.733622 
84.76994 0.0802606 -8.233214 
99.53092 43.90143 7.592793 
-62.20462 -0.09555937 4.155826 
-64.64751 10.13371 11.24437 
-50.42179 -0.03229845 2.373118 
-13.43596 15.11009 11.63289 
-14.3241 48.87275 11.02467 
-94.86417 69.19137 11.03115 
61.60847 79.2461 10.47739 
-85.728 0.2466367 -10.57228 
9.998831 0.3754205 -5.121707 
79.48768 69.22434 10.92119 
-12.27624 12.80034 -10.08229 
-77.89149 32.43782 11.05277 
-82.65555 12.55072 -11.8427 
49.85369 41.17229 11.02085 
99.98911 18.84977 -5.601809 
99.99129 32.11808 -0.4673833 
63.59482 32.10545 11.03325 
38.28609 52.48133 -11.01351 
2.840948 34.04335 9.50104 
-82.04393 64.83995 -10.93942 
-34.85309 73.55775 10.88725 
-73.44626 35.66391 11.03933 
-32.31264 28.55952 -10.97554 
-47.63351 67.2969 10.89922 
-99.09035 0.6521991 -10.71296 
99.9921 40.63737 5.765503 
51.96112 11.84051 11.24931 
53.76388 6.199384 -12.00034 
71.01791 77.07177 10.57089 
63.20749 -0.009338445 -3.409549 
-21.35338 20.86085 11.92341 
-60.80396 14.54167 11.47419 
88.33385 53.75795 11.02751 
28.82722 74.68568 10.83725 
-7.014427 29.33733 10.45412 
27.10437 46.40142 10.98488 
-5.460788 41.6508 -11.02597 
-60.60873 0.1097502 -6.362512 
63.64435 38.5971 -11.01129 
-49.99756 50.30373 -11.02386 
-70.32228 63.22476 -10.94168 
-46.60403 -0.118142 -2.240879 
99.97652 59.74511 -6.801838 
-100.159 6.388542 -2.931719 
68.13459 27.38239 11.04572 
3.86409 0.08536313 -1.914427 
49.84396 22.33964 11.07745 
43.87098 58.45432 10.25056 
-66.06302 10.21436 -11.96121 
95.77821 65.94552 -11.01678 
3.200957 0.07812021 -1.832784 
41.26567 57.89742 10.62676 
-69.16997 -0.1931033 -5.071503 
58.61742 -0.008845137 1.893986 
-39.08717 70.42469 10.89763 
51.05175 54.29494 -11.01451 
-54.59743 47.89639 11.01451 
-67.92893 24.60106 11.26883 
-84.17391 20.43943 11.30054 
-68.5378 78.86443 -10.52826 
60.85042 -0.01395818 0.0226201 
26.19084 52.14087 -11.02729 
59.72062 12.36218 -11.40595 
-24.61219 0.3426507 5.606319 
-33.12822 13.59081 12.24406 
-32.5957 39.01814 -11.00968 
99.17448 1.191366 -4.031091 
-75.0491 70.59241 -10.86647 
99.98859 30.8841 2.020584 
90.63882 54.24664 -11.02697 
1.922289 50.75884 11.02896 
-99.94821 76.81802 -6.59443 
50.77521 78.63346 -10.37858 
-99.49248 5.440926 10.72528 
41.63053 80.10941 -4.073423 
99.85721 77.79309 5.89424 
-70.52765 76.44212 10.9096 
-6.396755 0.01197056 0.6327464 
58.71887 68.76833 10.94404 
80.34547 27.76713 -11.00912 
1.37886 30.16999 -10.22908 
-99.99492 71.4468 4.615983 
76.80715 32.00731 11.03925 
9.472563 70.05852 10.66713 
-15.00522 11.11004 -10.13686 
99.98525 49.65107 -3.525841 
-99.99499 65.56303 0.01386028 
60.25759 22.69789 -10.87738 
58.63203 0.01165546 -3.501024 
-15.0303 80.19023 4.620881 
-99.78059 26.19842 9.668962 
25.42268 37.04501 -10.31466 
-95.5768 70.75801 11.02881 
-34.53474 24.16838 12.19714 
-4.268561 39.96563 10.72146 
99.98877 18.95987 2.177342 
99.19034 2.04934 3.149594 
-84.91296 80.17154 2.51914 
27.10991 54.28218 -11.0264 
99.97915 57.2332 -5.136627 
-80.19819 29.80169 11.12152 
77.39687 5.858907 -11.58141 
-61.31842 28.90248 11.34507 
39.7 -0.131287 -3.589925 
-9.089104 74.40419 10.83876 
94.17769 41.78032 -11.02814 
24.72391 58.99338 10.99928 
-25.97495 43.60529 -11.02782 
-96.73787 -0.5717561 -6.782687 
-63.79954 59.43533 -10.98431 
7.776948 1.699057 -11.0821 
69.46258 41.15216 -11.02851 
-79.96449 48.25757 11.03695 
58.46937 40.68089 -11.01589 
-63.17379 79.9808 -7.653896 
73.08681 -0.05287098 5.457435 
-52.91624 46.34842 -11.00925 
61.77067 33.97476 -10.93074 
-65.27652 45.73057 11.02518 
-29.97252 42.5826 11.3232 
-49.82264 1.466779 -9.397427 
-99.99509 70.09565 -2.207015 
-99.99531 62.22309 -3.54412 
34.35299 51.02705 11.04397 
-50.30013 20.62567 -11.38062 
66.94223 64.51553 10.78217 
-100.1582 6.846732 -1.903213 
-99.99348 63.2834 -7.956147 
34.00066 42.71138 10.99739 
-49.70229 80.11664 -4.019078 
61.90449 61.68202 -10.97899 
-95.48457 59.76594 -11.03014 
74.20678 78.91429 -10.71026 
86.45422 31.85775 11.03896 
-46.60057 16.56835 11.89285 
21.8827 79.18233 10.54942 
4.591511 3.16654 -9.64565 
94.60067 20.35032 -11.04019 
-48.66813 14.28661 11.67038 
40.00076 10.42201 -11.85368 
81.69662 53.18464 -11.02583 
-93.29205 61.16097 11.03156 
-94.06652 68.79051 -11.02957 
-77.35918 42.3296 -10.36349 
-81.91261 61.09592 -10.9863 
13.7696 55.96902 10.99426 
30.21189 -0.1580454 5.134008 
-68.08308 78.3417 -10.79124 
69.3018 80.75011 -0.2939304 
-22.77713 8.944275 -10.45986 
-46.75608 0.1210708 -4.983321 
-86.7997 65.27416 -10.99439 
46.92949 61.96843 -11.01385 
-44.55227 16.06822 -11.48479 
83.42751 27.07833 11.04979 
90.94402 3.040941 11.36001 
85.56725 -0.09363058 5.693441 
92.58859 40.32417 -11.02817 
-90.56916 32.18649 -10.99396 
21.75472 49.59095 -11.0246 
21.81814 -0.09987251 1.588692 
-99.74734 53.91952 8.704826 
56.49851 0.0135693 -2.356097 
-24.96071 45.70546 -11.03003 
-72.79747 80.22635 2.502296 
58.15314 -8.768728e-05 0.06895126 
-66.90811 0.4905449 7.037773 
19.93456 0.02169217 -9.887107 
62.48149 72.39955 10.81552 
19.66402 29.63295 -10.19161 
21.09035 75.64903 -11.00054 
54.43694 23.34149 -10.82144 
-38.11419 75.48205 -11.05313 
2.529902 79.6993 -9.860464 
43.33364 50.76013 -11.01121 
-55.12184 5.659326 -11.60027 
59.51846 76.5173 -10.94704 
13.2872 10.03975 -9.882153 
-69.73504 31.47321 -11.56605 
99.98596 48.98288 -2.59549 
-54.60341 50.63002 -11.01921 
-75.04225 7.830776 10.94998 
60.53593 8.360123 11.38919 
-78.85052 -0.3178173 9.0164 
80.46347 -0.09596873 -2.009753 
15.42868 24.45295 -10.06697 
-23.57673 0.2689739 4.996421 
-100.3437 6.065014 7.159794 
-92.98555 -0.708164 -1.313979 
-70.1766 27.59449 11.17866 
55.59589 69.77423 10.99563 
94.58924 79.5301 -9.415692 
-70.79788 12.90859 -12.08513 
-100.2255 9.597867 -6.32162 
-60.55473 22.30205 -11.6185 
38.46806 68.10432 10.98205 
-12.41533 4.536672 10.67659 
75.56973 55.75619 -10.87165 
33.32066 7.575625 -11.63262 
-39.72163 26.70476 -11.02283 
98.84792 62.46683 -10.28617 
-31.64182 60.42264 -11.04139 
14.83451 80.33434 4.179342 
40.8455 9.133028 -11.87151 
-8.519993 62.63971 10.97315 
-71.41111 8.967606 -12.05646 
58.65679 23.97121 -10.8574 
-5.065191 42.31765 -11.02531 
-8.134559 80.34456 2.162992 
-88.00185 79.99118 6.127045 
-47.93126 16.28322 11.81249 
-92.29321 -0.8237863 2.190449 
-95.07835 56.75148 -11.03029 
-32.20232 71.03281 -11.04817 
-89.31681 56.4462 11.03315 
6.430099 43.51005 -11.02439 
83.65022 13.74146 11.43411 
53.92316 12.25473 -11.4222 
-5.147578 59.50102 10.98931 
-59.94624 10.77414 11.35196 
55.09903 80.04496 6.813369 
-11.2873 0.0118066 -5.636272 
-23.88703 20.49817 -9.687387 
80.41498 62.93552 11.02496 
-22.92983 0.0312023 -4.961429 
-95.2843 79.61181 8.516644 
24.14039 70.71015 -11.00838 
33.82555 48.75121 11.01058 
-80.16419 45.90521 11.03685 
99.97833 70.35922 4.880971 
93.26739 1.098676 -9.878614 
29.56236 6.464429 11.54276 
77.293 62.82863 11.02367 
-45.78152 29.90375 -10.9349 
76.28906 52.91877 11.02084 
7.152668 67.68736 -11.00052 
-73.4818 80.34411 0.5095865 
99.94448 47.67408 6.168904 
60.85297 58.74048 10.21599 
71.98918 -0.05291102 1.680152 
76.56764 45.81865 11.02215 
-35.59477 80.46911 3.949244 
16.00815 42.53863 10.81055 
-47.06685 75.6552 10.84689 
-40.34539 4.035611 10.93947 
-66.11911 64.77801 10.9311 
-50.60135 45.93772 11.04025 
-57.72958 54.00934 10.96824 
3.269396 5.886476 -10.34237 
-65.94832 73.74709 -10.83788 
13.40466 37.61179 10.57647 
92.79669 66.08516 -11.00365 
23.25877 65.25095 -11.01227 
16.43324 58.32184 10.88577 
32.27086 80.04494 -4.405768 
-36.07165 76.22519 10.8677 
-39.22717 28.095 12.12357 
88.43456 80.35331 -5.09666 
0.3857322 68.99294 10.84331 
57.31429 54.05534 10.49492 
-60.2396 50.07094 -9.94355 
62.69326 -0.03245258 2.312463 
95.34238 0.04777627 -3.210076 
30.4012 79.86482 6.749587 
76.51207 49.35524 11.01975 
-60.37953 66.61417 10.89665 
87.62711 29.61425 -11.02785 
51.25733 32.693 -10.92405 
-71.82037 61.16394 10.97449 
90.60139 18.07784 11.23373 
19.52128 0.04947797 0.2738008 
-66.57865 39.42814 11.03801 
83.54589 45.39796 -11.02854 
-18.69554 49.75577 11.02691 
-26.167 69.87352 10.92979 
-14.44132 34.00405 11.11642 
-76.03557 -0.5371447 -0.2631155 
-9.617244 9.146408 -10.25092 
34.53738 18.99831 11.29821 
-25.32916 80.14443 -6.425789 
-20.77654 78.09383 10.84622 
-27.35886 18.89491 -9.969246 
99.78077 69.57971 -9.522676 
-36.31732 79.00025 -10.54877 
-83.64073 67.37018 10.99417 
-60.08273 50.85228 -10.07294 
-50.86393 18.59381 -11.40067 
36.74601 23.67827 -11.15488 
71.68891 36.0664 -11.02829 
-61.19765 54.35299 -11.02143 
60.54332 61.15528 10.20738 
-75.59326 -0.3419297 1.050318 
-36.99488 80.04521 -6.530241 
99.98896 54.78652 4.729573 
-100.3343 14.26552 1.447518 
63.1515 77.154 -10.92431 
54.84012 53.63269 10.99882 
-35.7917 27.91249 -10.93384 
13.30299 54.88142 11.01242 
48.84514 4.187067 -11.16902 
49.52061 1.468882 -9.627354 
33.75087 78.6693 10.86133 
-99.99342 44.43115 -5.319098 
-45.19209 27.16988 12.01968 
19.9003 75.36198 10.67472 
24.06602 26.5792 10.82885 
-82.12884 79.79043 9.538513 
57.26141 28.76079 -10.85388 
0.6542072 24.42336 9.667233 
23.34213 79.11464 -10.41847 
63.9394 6.484923 -11.83723 
-29.72182 39.578 -11.0137 
27.91405 18.06199 -11.48078 
-43.19234 37.41222 11.60794 
-47.49625 69.75114 10.88325 
27.15981 7.639235 11.49123 
-100.3375 10.95296 -1.31452 
-16.2768 23.26964 11.36191 
-22.07915 27.50332 -10.71562 
99.09517 0.4519527 -3.981134 
-51.90112 6.865619 11.20514 
53.65886 27.97832 -10.84772 
-90.69417 59.32803 11.03271 
14.00241 0.2315373 6.573958 
-21.94403 56.96173 -11.02771 
-84.50848 68.1216 10.99409 
-81.35936 10.30834 11.44956 
-98.43101 79.45398 8.032495 
-59.07396 52.97649 -10.73801 
-78.27695 61.87541 10.99899 
-79.93838 79.90844 7.430229 
-90.681 21.19421 -11.11532 
-13.05373 35.98738 11.01026 
-74.53661 -0.5392404 -8.217555 
85.25956 31.01745 -11.02794 
-8.227824 69.99756 -11.00704 
-27.85921 0.9839556 10.32173 
4.991806 70.47052 -10.99918 
50.71873 47.17399 -11.00654 
89.39156 0.05987268 -7.411698 
-11.81401 34.07286 -11.02872 
36.55773 79.4791 10.03498 
78.24258 53.03284 11.02215 
51.52843 25.38781 -10.86553 
25.50871 56.23969 -11.02286 
86.09428 26.09292 11.07799 
46.99562 22.37442 11.0652 
42.13606 79.71179 8.810178 
80.46999 60.88751 -10.88273 
1.470485 59.00985 -11.00918 
96.37099 46.54079 -11.02828 
24.57784 57.11373 -11.02103 
40.38486 28.61569 -11.04515 
16.36437 3.984265 -10.57165 
19.02822 22.52906 -10.129 
-63.5771 42.43204 11.0347 
-75.61164 80.32465 0.7262517 
77.07088 59.33093 -10.8046 
-25.63906 22.05563 -9.496141 
-35.46559 52.90417 11.01709 
42.40641 2.137785 10.14092 
34.15481 74.0192 10.93081 
-76.71862 70.52038 -10.86665 
74.09347 61.57022 11.01805 
-47.91837 33.95889 11.67948 
99.98905 58.42471 6.362065 
-33.95103 53.54066 -11.03446 
-29.74125 42.68369 11.3176 
-7.243239 65.96816 -11.00848 
8.036103 20.49372 -10.00221 
-100.1731 21.23524 -2.742977 
-78.40241 1.159401 10.55758 
-100.1626 8.204844 -8.874474 
17.49048 71.8205 -10.99994 
23.17727 58.4503 10.98513 
57.20037 70.60691 10.94737 
76.30576 33.55117 11.0388 
-100.2572 16.08682 -4.350016 
-52.27439 -0.0902538 -5.724428 
-46.97904 70.7627 10.87798 
79.06781 17.82702 11.3446 
18.98051 59.58907 -11.01255 
-56.22261 67.32753 -10.92583 
58.09348 78.26399 10.54176 
-61.84 48.70966 -10.09502 
-100.2341 16.70235 -5.200415 
11.73504 25.10773 10.26836 
-74.40703 52.48547 -10.96618 
21.52882 80.36797 1.067505 
90.93404 18.84898 -11.13202 
-99.99535 51.96021 -2.519712 
72.35596 57.23882 -10.84851 
78.55157 79.7726 5.4056 
-99.99149 74.39175 1.016264 
14.86307 8.943174 -9.755255 
77.8936 13.56327 -11.15523 
-76.59309 79.67018 9.937768 
77.82977 10.77105 -11.48443 
89.0996 79.9072 5.1746 
29.97626 80.19838 3.782679 
99.10928 35.24199 -10.53451 
-98.2563 65.86583 -10.90658 
63.08163 -0.002616969 -4.834114 
75.85886 69.24573 -10.75852 
-45.26175 42.38567 -10.99916 
-54.62746 -0.05700735 -7.043738 
77.79945 70.10658 -10.71395 
29.71308 76.64596 10.82287 
-42.11197 63.28642 -11.04087 
-81.02995 79.87568 7.986498 
95.28932 0.8000741 10.14246 
28.75595 27.41678 10.9958 
-44.23568 32.06222 11.87017 
-0.4042168 2.464586 10.194 
-5.452165 41.31826 -11.02627 
34.81692 79.90127 6.567705 
43.40096 4.822455 10.06704 
75.43999 41.62125 -11.02847 
-24.9434 15.3985 -9.933292 
-77.55458 80.04546 5.271396 
-82.10669 49.93655 11.03623 
99.9892 36.2146 -5.960358 
99.95986 70.04937 -5.013001 
6.174264 43.44274 -11.02441 
98.09152 19.40859 -11.0154 
95.47702 56.56946 11.01525 
-29.81812 1.453418 -7.082788 
-100.2973 14.75365 4.565002 
-99.99471 40.79509 1.432526 
25.40788 58.45922 11.01225 
-100.1097 23.63945 5.713375 
0.9543357 22.05835 -10.03837 
75.62751 54.755 11.02081 
51.99935 0.1023635 -7.810941 
-35.46513 8.276784 11.92495 
50.26077 39.37935 11.02189 
37.20325 79.56055 -8.287884 
-21.69548 45.86191 11.13465 
-84.42261 44.16039 -10.81074 
-90.6806 80.00734 -0.4593296 
54.50314 0.02035367 -1.382332 
-17.87423 49.81478 -11.02266 
-42.85896 26.29933 -11.04779 
92.7455 41.65078 -11.02825 
-42.25112 -0.1217812 -0.4058328 
6.528823 49.81328 -11.01789 
-94.05173 29.6316 11.01003 
84.43535 8.837039 11.51445 
-89.66123 18.2384 11.2883 
-78.8903 76.14834 -10.80967 
-28.23624 12.23324 -10.1251 
25.26296 -0.2078294 -3.950834 
-62.61137 80.39892 0.144237 
66.82624 2.374308 10.2501 
-63.56068 0.05911741 -2.811206 
20.81198 66.31314 10.82644 
99.5031 49.89368 8.622025 
-87.03883 68.25642 -10.95877 
98.42189 26.60101 -10.94964 
17.0772 67.60699 10.74324 
16.59046 24.71485 -10.09312 
-21.85211 39.51018 11.29733 
-64.06553 -0.03245991 -2.905075 
93.7186 59.03616 11.02671 
99.97744 59.17713 -5.594155 
-99.99701 53.34459 7.478435 
-54.00291 32.21868 11.48017 
-60.07413 67.07145 10.89298 
60.19487 15.76654 -11.26499 
19.21201 58.24918 10.92048 
93.90314 79.95179 2.284532 
5.808372 14.57828 10.96516 
-75.49149 79.97234 -6.53043 
56.88173 32.40805 -10.91052 
-91.06076 -0.6776981 -1.722909 
74.53341 52.85048 -10.93333 
-54.03534 36.11259 11.4038 
74.61508 12.92431 -11.1867 
-35.98945 79.87599 8.703833 
27.13303 10.72685 -10.12743 
12.34821 79.90904 -0.8903522 
-99.66905 57.20039 9.139521 
-26.98276 49.64964 -11.033 
61.38459 1.160691 -10.89357 
93.55946 55.53469 -11.02697 
-63.38216 33.3821 -11.42764 
66.74325 80.39777 -5.273348 
-18.92646 2.779645 11.13492 
-37.55583 60.77005 -11.03994 
-23.94687 72.70186 10.91686 
-43.5645 0.5345877 9.582613 
39.96272 37.37764 -10.98904 
2.955349 62.17797 -11.00609 
-68.21002 36.45042 -11.43788 
-16.45462 0.9353029 -7.731776 
-89.3255 32.84276 -11.01451 
46.85741 9.236712 -11.78142 
55.68108 0.459904 -9.521137 
92.50469 51.41588 10.383 
-18.4638 5.333176 -10.99961 
-4.958028 28.34268 -10.25854 
-99.99656 58.74578 3.38686 
69.33504 5.753933 -11.62029 
28.20348 -0.2346077 -1.376426 
-28.91607 55.86984 11.00939 
16.3884 48.46616 -11.02141 
-11.44405 23.45214 -10.12919 
49.74838 76.9856 -11.00145 
64.14156 10.23483 11.42091 
26.24387 38.22372 10.94679 
4.294403 76.13622 -10.99676 
65.76912 -0.0518485 5.948694 
22.01332 50.84413 10.35311 
2.417327 78.22037 10.55197 
-54.98811 77.16873 10.82022 
-20.49371 77.61908 -10.7715 
-45.89133 24.64939 12.01802 
-31.8133 37.62936 -11.00887 
-81.60071 65.79125 -10.92144 
-17.29614 42.81333 -11.02631 
-71.12697 49.9334 -10.1076 
-39.54749 36.47551 -10.99848 
-10.23609 59.53996 -11.01341 
-29.46003 -0.08955713 2.100298 
30.61951 80.06183 5.06316 
61.29385 67.74072 10.54353 
-81.04501 46.86285 11.03649 
-37.61718 58.86734 10.97388 
-87.06364 51.45095 11.03383 
99.98856 19.52729 2.328494 
91.78653 78.82337 10.057 
91.99387 11.20628 -11.31335 
55.01471 79.57308 -9.240383 
-10.30651 0.01226587 -5.29936 
-65.51831 1.90176 8.233943 
-97.71865 63.51711 -11.01702 
-28.4795 47.54353 11.13834 
-42.83511 47.43518 11.0916 
-87.53239 56.72174 -11.02997 
45.37701 52.1749 11.01583 
-39.59843 6.934951 11.66594 
63.79592 25.78449 11.08038 
-84.69319 74.70297 11.0095 
-84.79025 74.18951 -10.85318 
-30.24032 31.22912 -11.00279 
62.59912 44.93932 -11.02648 
-66.45808 32.09436 11.14009 
-53.78874 76.32041 -10.86576 
15.45995 56.52536 10.9532 
-0.3031058 11.10165 11.35491 
-59.51548 59.09999 10.93145 
-51.06611 26.83006 11.76142 
99.9352 17.21389 7.871266 
-22.80783 46.62311 11.1185 
-8.183467 79.20991 -10.4405 
46.45865 24.17753 11.04321 
43.71637 67.08576 10.86649 
-20.75774 74.10258 10.91412 
-92.29258 42.87188 -11.02798 
-98.0816 73.70802 10.79241 
68.90236 1.950367 -10.62032 
-100.1781 21.02732 -2.869965 
-69.31715 36.41821 11.0398 
-41.12049 30.43436 -10.9358 
94.80777 80.06544 -2.182004 
12.52431 30.01216 -10.10578 
65.5544 53.59159 9.45516 
-28.04366 35.92645 11.55189 
97.38235 56.0244 -10.50549 
73.09285 59.0509 -10.83023 
-97.28419 36.02607 -10.36228 
93.43562 75.88987 -10.86191 
14.03267 21.40447 10.58521 
95.15397 26.02992 -11.02693 
31.38423 4.058547 -10.59168 
-99.99519 55.85397 -1.237694 
-8.639059 18.52104 10.99641 
-82.88657 60.02911 11.02856 
-92.47783 39.21965 -10.95768 
-41.02441 79.45872 10.0777 
-56.35004 50.01136 -11.00848 
-86.05066 43.21622 -10.5964 
99.98936 17.62261 -9.248056 
98.5036 78.9792 -5.444049 
-18.16434 11.22351 -10.44199 
-40.81363 40.13187 -11.00153 
50.80149 60.19682 -11.02003 
-100.1747 18.95268 -6.732405 
-100.1854 18.88615 -6.124253 
-72.68945 59.29392 10.98788 
-38.5782 18.55999 -11.3931 
-77.58252 -0.3955743 2.673851 
-36.12154 3.943988 -11.17166 
-15.72743 10.9582 11.8173 
99.9911 18.76237 0.4353608 
-93.96404 -0.9161967 9.562356 
70.28522 17.20427 -11.09874 
-72.03918 -0.01948898 9.554055 
31.63963 24.66308 -11.19422 
2.853655 2.888782 10.45611 
31.23399 -0.2223531 -0.2179567 
12.06612 39.25123 -11.02662 
99.99106 15.74123 -1.549845 
-59.57208 60.95067 10.9222 
-24.341 76.69141 10.89079 
-94.07805 0.7322859 10.28374 
-64.05806 48.34132 -10.16249 
2.080473 51.23424 -11.01626 
-64.77744 0.7582551 -9.869726 
-68.44384 71.37138 10.90739 
-73.15431 23.89548 11.27767 
33.38058 51.22563 11.07522 
-16.29037 16.77324 -9.892282 
86.75687 79.96067 3.192892 
-62.5005 -0.0920775 -0.8547883 
-59.64839 24.16781 11.48582 
-70.30397 50.22635 -10.0729 
92.47943 14.15171 -11.23209 
-15.16922 35.73369 11.19005 
-10.90633 59.84758 -11.01365 
-68.08076 76.93155 -10.80534 
-55.00109 43.48901 -10.74693 
-99.9949 38.27658 4.785251 
51.69339 15.337 -11.13876 
8.671688 79.71427 -7.666473 
-100.2375 14.3097 9.08597 
-58.05472 73.53811 10.85099 
-27.37972 0.6706566 -6.97261 
67.82784 12.61187 11.44428 
99.49457 50.78988 8.032763 
95.30016 39.64439 10.97022 
13.23335 67.02605 -11.00145 
-11.74903 80.24705 0.0388114 
-39.12868 67.42271 -11.04552 
9.946531 43.04871 -11.02558 
-97.90633 4.510011 11.20666 
-70.7061 54.18423 -11.02879 
3.584471 68.09195 10.81997 
16.33053 0.2917736 -3.321628 
-2.257381 9.196226 -10.24824 
99.94356 11.62873 4.158256 
26.05672 76.15411 10.76787 
-38.66848 77.84221 -11.03845 
-31.55009 67.70948 -11.04782 
81.98361 79.86581 -7.527805 
-42.95037 62.43713 10.94009 
-18.23562 45.29623 -11.02512 
95.77419 78.36896 -10.41777 
36.65346 80.62619 0.1719273 
-24.91937 79.6982 -9.551604 
92.96544 17.67962 -11.13612 
35.82956 18.61728 -11.47669 
70.62148 -0.04639503 0.6013253 
81.40053 53.18537 -11.0246 
-97.87772 39.55635 10.43272 
-92.65886 45.72565 -11.03083 
-87.82234 80.04639 3.810843 
-69.19714 69.98776 -10.87442 
-17.38435 74.93277 10.90963 
-24.79204 61.87958 -11.03299 
-20.60408 80.15506 -4.119216 
69.41853 44.64634 -11.02003 
4.753664 7.241867 -10.19168 
53.50678 50.87236 -11.01608 
89.27309 4.525983 -11.63299 
44.11673 74.92817 -11.02568 
60.29672 53.56723 -11.01313 
-71.28093 19.30086 -11.8317 
-62.66726 -0.08472633 -0.8490124 
-88.15001 25.51616 11.13248 
-42.47532 19.29244 12.08897 
86.73415 57.59155 11.02656 
85.38068 21.86367 11.21704 
-74.85445 63.66338 10.97489 
-66.78139 62.35392 -10.95154 
88.04057 42.3782 11.0249 
-22.21789 80.35004 -1.821245 
80.41104 60.53411 11.02521 
86.84507 14.0298 11.37981 
-67.38954 18.70904 11.33639 
-49.41272 73.17429 -10.95177 
-17.42064 62.90681 -11.01587 
54.26414 55.09722 10.13206 
25.66845 71.87379 10.82565 
5.904686 36.18827 -10.21229 
-14.97362 1.396935 -10.64043 
81.39499 8.10151 11.56706 
-99.99529 75.10745 -8.440717 
-76.24868 80.26603 1.669003 
-15.15355 40.54863 11.14248 
-18.72355 72.47292 -11.01347 
-41.36254 22.50034 12.13623 
-29.87252 32.90938 11.72846 
-61.28756 60.33772 -10.96755 
-39.89698 25.994 -11.05234 
11.58719 42.61294 10.76809 
-26.20322 40.11902 11.33648 
-77.93114 78.12212 10.90462 
-14.34477 0.08810692 -6.282433 
-29.60096 44.14339 11.26593 
19.74566 72.58945 -11.00178 
99.9894 20.52721 -4.846903 
-50.28844 11.66238 11.46615 
-98.66439 49.56969 -10.85016 
1.583223 43.02743 -11.0239 
0.5829473 50.55939 -11.01705 
8.474765 12.8642 -10.06969 
-13.11386 1.915734 -10.59476 
-19.29217 49.36312 -11.02397 
14.06295 77.45743 10.54357 
75.63179 16.62174 11.37465 
46.95631 6.593391 -11.79843 
-92.27495 43.09579 -11.02914 
99.98597 54.34271 1.990672 
-78.24368 18.49558 11.41787 
-92.9305 46.34532 11.03035 
33.54354 75.52441 -11.0146 
-70.49627 80.27022 -2.050064 
-82.27336 50.61706 -11.03004 
16.43124 37.5225 -10.42003 
60.80963 30.1508 11.03227 
-64.14183 77.19932 10.8631 
61.6226 25.71229 11.08226 
-46.70045 15.34496 -11.49051 
16.2753 61.22344 10.82561 
-72.13835 39.33448 11.03914 
94.1743 25.71898 11.00701 
26.40878 39.36549 -10.3967 
-95.70844 71.98699 11.02307 
-55.2748 18.09227 -11.52432 
66.33601 43.57161 11.0328 
90.50021 33.97179 -11.0279 
-71.46393 80.29727 1.389886 
62.33271 -0.04204307 4.958935 
-12.79441 79.9346 -6.953837 
8.753368 11.21859 11.1834 
-82.59731 11.6151 11.44006 
-26.47929 80.49922 1.143073 
88.75027 27.90499 11.04401 
-0.2496916 33.74048 -10.1736 
-29.29529 54.40691 11.01702 
-13.96312 16.3817 -9.922443 
56.55825 80.31976 -3.593298 
-30.45065 58.60836 -11.0401 
1.464837 76.3174 -10.9983 
27.13945 80.15372 -2.927578 
87.39969 74.65136 -10.66952 
-61.61277 33.69917 11.24712 
-39.92811 32.37566 11.95344 
-34.73266 0.8920503 -10.17577 
65.36456 46.05297 11.032 
62.47227 80.03609 6.443614 
-45.40191 0.9743668 -9.629049 
-45.47657 49.43566 -11.02622 
53.64697 72.6419 -10.99252 
-69.60292 53.78632 11.00269 
64.23997 6.120104 11.5038 
32.51635 0.4336372 8.748792 
65.23895 20.00975 -10.98824 
17.66708 3.52371 -10.55011 
15.02355 76.96521 -10.99257 
-56.84417 58.86312 10.9378 
-82.04359 42.24125 -10.22551 
27.23277 1.458703 -11.04236 
-7.426982 68.11322 -11.00752 
68.33809 46.87342 11.02606 
-22.25806 79.71207 9.779869 
-76.66287 65.33334 10.97421 
72.87659 33.00668 11.03732 
69.21877 80.39165 -5.890886 
60.495 3.062474 -11.43021 
23.6712 8.915965 -10.08241 
-36.19423 35.20197 -11.0008 
23.13752 79.79484 -6.688361 
15.15577 5.974956 11.40378 
-96.75952 39.55592 10.51188 
-80.38995 11.59558 -11.90189 
-84.99819 74.62523 -10.85017 
35.70629 22.79201 11.18669 
-25.85409 60.07267 10.98737 
38.32634 27.70955 -11.04203 
-28.44716 23.82287 12.06154 
41.26292 10.19977 -11.83755 
78.91276 59.33984 -10.87629 
99.98931 42.03488 -0.4058849 
-39.089 41.56568 11.3497 
-41.35117 61.77417 10.94746 
99.77683 20.33923 -9.836232 
59.07083 10.41573 11.33766 
65.60568 80.46404 2.781436 
-49.61707 44.14976 -11.00195 
70.88724 19.34626 11.26094 
-49.12479 28.23984 -11.07546 
-100.0011 3.735636 -1.359766 
-44.81284 75.866 -10.98191 
-86.65263 44.11306 11.03336 
-66.479 79.47577 10.05276 
60.95284 25.01961 -10.87828 
-42.53266 80.00802 -6.509915 
39.1637 2.673472 -10.88383 
85.17249 58.084 11.02635 
21.17527 3.356983 10.71469 
-73.97215 43.29396 11.03785 
-54.96897 80.39046 -0.7261268 
61.7844 75.09984 10.65659 
-31.11176 17.78019 12.16902 
-25.87127 4.875368 11.85847 
-58.0602 60.96117 10.92166 
-20.10815 49.90713 11.0273 
-48.94061 23.23224 11.8889 
-51.1643 80.15558 5.594193 
64.95661 45.27818 11.03193 
-66.23621 52.64598 10.99387 
91.65781 79.95628 4.69959 
48.10169 38.67717 -10.99245 
-46.32903 50.816 11.01063 
48.82998 79.98792 7.196524 
-87.70647 16.33874 -11.3384 
-50.05377 -0.04104383 1.565385 
-61.10196 40.89487 11.12368 
-13.00779 64.14377 10.96555 
-51.39872 60.57138 -11.03563 
-95.25153 59.10563 11.03036 
29.05343 1.951174 8.230377 
63.67989 3.874299 -11.64055 
-33.76717 20.71018 -9.976925 
11.75037 5.803726 -9.876341 
52.95325 1.260791 -10.52194 
89.06488 48.61436 -11.02861 
90.54382 24.97599 11.07138 
12.82859 67.4864 10.68455 
70.17641 42.61998 -11.02817 
21.56345 47.44804 -11.02631 
67.35383 17.75725 11.30421 
-52.37454 27.0659 11.69218 
-0.2345793 0.4047222 7.619113 
68.38123 4.897848 11.60555 
-41.44531 -0.03896342 4.996865 
-34.32083 0.033411 -6.808777 
93.43998 22.23653 -11.02682 
99.07178 2.147342 9.591761 
-87.41206 50.55649 11.03357 
79.25658 45.00167 11.02254 
-78.63982 53.88933 -11.02955 
69.02344 1.772501 -10.59772 
-7.102501 48.18616 -11.02015 
-18.06254 27.68403 -10.24392 
99.97558 21.75809 6.803702 
33.151 35.85463 -10.47308 
53.37701 5.326671 11.23353 
-14.10303 79.97195 -6.292016 
58.67331 80.57477 1.703866 
-4.250053 52.30738 11.02669 
53.18 5.445418 -11.95671 
49.68974 14.93437 -11.22772 
17.81435 46.09274 10.97048 
-49.73734 70.16531 10.87633 
43.99212 42.95935 -10.99809 
-14.30595 18.70048 11.45691 
-52.46583 37.43903 -11.11982 
-31.48415 72.04581 10.90427 
-83.3341 2.928741 -10.98894 
-97.25281 79.71078 -6.188424 
23.42987 61.40212 10.94502 
-3.625625 0.01950447 -4.177183 
-71.89325 -0.2956568 2.271366 
2.304038 80.59403 8.362713 
-42.06187 0.1983212 7.158732 
43.06152 80.38841 2.995965 
79.09348 38.51611 -11.02831 
-52.80569 60.67737 -11.0351 
-100.0976 22.14215 -8.456015 
-49.4816 37.46608 -11.07189 
73.28684 9.134456 -11.49303 
62.56448 11.15924 11.37269 
82.86116 68.81323 10.98973 
34.20136 79.64982 -7.871099 
71.79436 6.080859 11.64838 
-19.06219 0.02895469 -1.288331 
-71.75488 56.71658 10.99704 
62.91096 69.89589 10.97548 
44.5246 13.7874 11.14899 
-83.81936 43.73586 -10.18573 
-90.96016 48.43494 11.03156 
-27.39602 25.0279 11.98861 
89.85163 0.08140612 6.836076 
-57.7694 12.96147 11.47083 
41.44109 63.44972 -11.01943 
-3.630475 76.63594 -11.00108 
-91.51361 38.7632 -10.93763 
51.39617 0.7032138 -10.44243 
13.08597 17.58958 10.73293 
-2.072629 13.15282 11.24938 
59.0906 6.430612 11.35976 
-51.10949 6.445738 11.19531 
99.06563 58.28126 -7.960687 
6.344261 42.94313 -11.02496 
90.35887 22.5934 11.1301 
-6.09045 29.25962 10.37676 
-92.44331 44.75431 -11.03088 
-88.19894 37.11903 -9.41256 
-99.67322 55.01057 9.233345 
-85.60588 -0.7517632 0.04876043 
71.30258 45.09134 -11.0255 
-82.04448 2.760333 10.46892 
-64.89566 13.56508 11.36524 
49.99417 54.9206 -11.01297 
-65.13465 60.60809 -10.97033 
-79.87639 28.79243 -11.29274 
63.55162 15.281 11.31033 
27.03988 80.21548 3.15957 
-47.19364 75.08855 -10.96012 
-77.4647 63.25148 -10.93512 
49.99905 11.61473 11.23298 
-18.73504 25.17986 11.49842 
-34.16076 9.913347 -10.24109 
28.09904 25.78503 -10.96545 
77.66592 49.0211 -11.0275 
35.34555 46.08025 -11.00489 
-19.26981 71.18736 10.92921 
-100.0672 25.58994 0.979039 
-22.29311 51.07355 -11.0309 
28.05004 46.42471 -11.02456 
30.71601 -0.2092407 0.9874451 
-48.39782 46.82602 -11.01198 
84.08189 12.8536 -11.36337 
-18.01955 57.0788 -11.01912 
99.98952 43.7083 1.668922 
92.95052 43.96482 11.02336 
99.89996 9.961082 7.633132 
1.608708 19.70578 -9.972698 
30.81331 42.37144 -11.01289 
-15.4733 34.9665 -11.02881 
-14.04668 56.69167 -11.01703 
15.71833 71.82407 10.65659 
59.77826 49.39413 11.02808 
-39.83433 62.16274 -11.04053 
-44.90585 -0.1017716 0.07694857 
57.80523 80.43791 3.030118 
13.98734 63.40938 -11.00534 
-99.99037 56.0336 -8.342567 
7.23074 48.70035 -11.01918 
-98.25462 40.89127 -8.243597 
-50.37908 76.85566 -10.90278 
80.20941 47.78928 11.02142 
98.37459 3.417263 10.79995 
-76.91275 77.31251 -10.79867 
-13.24815 5.728259 -10.37245 
-3.259752 59.90429 -11.00921 
-25.40628 71.78976 10.91938 
-68.53773 2.260995 10.93575 
73.44662 6.492057 11.66909 
-69.80002 42.55627 11.03733 
43.39622 9.065324 -11.80516 
-57.37577 69.13939 -10.8933 
87.03886 7.093284 -11.69895 
-4.37794 55.44678 11.01036 
-19.91199 80.05339 4.934393 
-75.27609 67.02267 -10.9021 
-22.90838 0.0525954 -3.636183 
52.83445 13.4218 11.23502 
7.728627 1.264966 -11.06921 
8.197641 12.78438 -10.06967 
-89.90109 79.84445 9.473291 
-82.64568 37.64584 -10.29755 
-8.271966 24.57958 -10.1796 
-61.25407 0.4852406 -9.795458 
-12.42817 5.447525 10.92146 
-94.54299 49.34893 11.02981 
55.45403 9.441614 -11.86725 
-44.33451 75.9831 10.85089 
-97.47564 17.75188 11.21029 
72.16125 44.11741 -11.02789 
86.48563 55.53917 -11.02679 
-52.51177 64.42739 -11.00109 
-53.90288 -0.05556204 -4.857465 
-72.81632 2.375601 -11.31303 
-32.17716 80.28857 -5.060136 
36.943 5.723931 9.68866 
77.70031 18.19479 -11.04437 
-47.61956 8.962675 -11.81715 
-57.1855 76.55781 -10.82115 
-99.51726 77.52183 2.86469 
28.11415 79.83533 6.935063 
85.14339 50.41171 -11.0276 
90.48639 0.6618347 10.10604 
-67.88397 35.50114 -11.45255 
-100.3108 5.953898 5.820636 
-13.92318 79.71156 9.72681 
-76.9157 65.90494 -10.91143 
-70.34165 28.82137 11.14871 
-26.83858 38.23825 11.41163 
-60.17444 18.17067 -11.77633 
66.45615 54.05788 -10.97641 
-24.49501 4.700881 11.83959 
-86.54156 63.43639 -11.01493 
71.9552 63.53043 10.99706 
-20.74322 10.40372 -10.40794 
16.90985 74.82538 -10.9966 
76.06714 70.92023 -10.75229 
29.05232 67.07256 10.95479 
37.18812 43.38589 11.00576 
-18.82485 0.02101594 -0.9687445 
-17.74912 66.334 10.95439 
62.01686 79.79762 8.305561 
-81.73475 74.89798 10.97944 
-17.80656 60.60289 -11.01725 
10.68656 0.01821999 4.717515 
-30.60731 20.98103 -9.92874 
-19.2088 80.09883 4.26371 
-0.5107594 80.51234 8.014399 
13.96699 79.79803 -7.73737 
-32.28688 59.42795 -11.0403 
32.60736 55.98055 10.37075 
89.59247 6.77984 11.40597 
-81.62975 79.85333 -7.772775 
-95.20275 51.70291 11.02874 
37.10445 79.9268 6.416277 
30.55161 80.30253 -2.094127 
53.95448 58.78139 9.974127 
4.180051 16.92771 10.83506 
-64.56837 59.10725 -10.98673 
19.42437 59.8163 -11.01284 
99.99039 32.0048 0.6342592 
80.40684 79.71129 7.487853 
56.55794 79.85336 8.641153 
-78.43366 70.58911 -10.86541 
25.69521 0.9509948 -9.117465 
4.120291 14.97247 -10.01349 
-9.808379 48.78098 -11.01993 
34.37441 -0.2600317 -4.534796 
66.95335 80.7198 -1.227866 
52.43488 -0.003948508 6.217575 
29.4867 80.0078 5.493853 
-22.97353 77.67625 -10.87065 
31.8487 80.22707 -2.861717 
96.11362 63.08612 -11.02608 
-80.92531 16.15565 11.41898 
86.71435 5.674578 11.47144 
68.79923 40.15647 11.03442 
-53.61396 16.39297 11.67057 
62.431 32.61521 -10.90572 
-99.9948 71.63186 5.637041 
44.01901 23.53414 -11.06908 
78.18349 50.08488 11.02054 
70.23718 80.28276 3.677041 
86.97388 14.24298 -11.3279 
88.06782 9.097731 11.44717 
45.87793 56.35354 -11.00594 
82.15563 29.99327 11.04197 
4.330619 19.67122 -9.980677 
-15.32895 69.1358 -11.01156 
47.86129 42.8792 -10.99625 
-36.23188 53.82609 11.00956 
-67.01038 9.678971 11.27883 
-20.65769 18.68517 11.93185 
69.4697 80.67035 0.8331683 
-51.25505 44.5567 -11.00713 
45.27493 23.65245 11.04403 
88.78798 73.58766 10.96642 
20.50318 24.7163 -10.17507 
-66.38879 37.89502 -11.38017 
55.03249 42.1408 -11.01029 
11.4075 0.7065198 9.382608 
52.12309 0.04010019 -1.24723 
-53.88148 65.86034 10.89706 
-9.974489 80.4269 3.800429 
22.38963 49.84705 -11.02508 
58.9003 70.57942 10.94475 
61.91998 53.34617 -11.00453 
16.54558 42.67981 -11.02736 
-65.88773 -0.1681989 -1.131385 
73.57268 21.52398 -11.01569 
-99.58035 50.61376 -10.07772 
-44.41252 79.28997 10.21504 
38.26991 55.17829 -11.01125 
-19.69751 15.93853 -9.917889 
-98.31975 47.92586 10.9975 
-32.0276 35.56179 -11.00607 
29.50013 51.29842 10.7775 
-69.58748 51.06559 -10.04413 
-62.19316 12.75141 11.38392 
81.84962 27.32706 -11.01897 
99.98964 22.36748 -4.386008 
12.02659 60.19777 10.9057 
-50.34939 49.95429 -11.022 
-74.6869 7.076361 -11.06658 
-69.76821 8.383381 11.33268 
14.99159 23.67463 -10.05752 
55.19202 7.236213 -12.06005 
-2.170057 26.36982 -10.18441 
48.32941 68.39428 -11.02331 
-50.80766 7.074034 -11.70485 
-55.74462 80.36426 -1.156869 
92.36485 25.21423 -11.02712 
-40.01353 40.48879 11.4172 
92.31849 13.22705 11.28424 
-2.051139 80.4516 4.935294 
30.93792 60.78189 -11.02487 
-9.160044 74.85013 -11.00516 
-61.6101 80.40097 0.1604431 
-99.94504 43.60088 7.725262 
99.9759 61.57284 -2.735146 
-5.664448 80.45139 4.18015 
-10.05219 0.3193949 -7.792755 
76.59666 49.87192 -11.02218 
96.17155 68.27286 -11.00609 
-49.81612 18.24043 -11.40646 
-61.41125 48.7119 10.9964 
47.8332 -0.007357088 7.167603 
-29.93029 28.20166 11.94364 
-35.76096 -0.1407337 1.588782 
3.74791 42.84259 -11.02454 
34.87911 -0.2800667 -6.70426 
8.885378 20.35839 10.44525 
-36.55973 77.44632 10.8589 
-87.95441 19.1115 11.28752 
-49.77302 26.46283 11.83362 
88.75365 63.06312 11.02549 
41.54453 -0.08675361 1.829942 
-17.63267 79.86176 -7.957522 
59.58974 21.37841 -10.90378 
50.83437 72.58674 -11.00877 
-21.12447 79.08394 -9.921977 
52.74399 5.697482 -11.94439 
-47.20059 31.32011 -10.94408 
85.87494 8.441856 -11.66557 
-11.4435 72.42469 10.92238 
-22.27222 0.0665754 -0.4612387 
-41.2065 42.42389 11.2847 
-98.96111 30.03456 8.284169 
-60.01386 24.87666 11.46562 
-12.84013 63.51388 10.96881 
-98.72686 58.68912 10.54329 
79.07238 73.76659 -10.68189 
-17.72789 66.32208 10.95445 
52.37385 0.03829261 -1.352161 
-26.5874 22.67159 12.02824 
4.9397 70.73912 10.72324 
95.66557 76.0213 11.01153 
-7.19889 64.5145 10.96333 
52.90108 79.78274 9.292467 
17.9352 64.88258 10.79887 
-26.42727 35.73769 11.51711 
-43.85534 79.72061 9.810741 
48.0285 3.464452 -10.7037 
-57.60015 80.11812 -5.499634 
69.02519 38.8452 11.03472 
-100.2073 19.77302 0.316014 
56.39843 39.41257 -11.01032 
-94.20518 38.82465 11.03073 
-81.40842 11.81506 -11.9078 
38.51149 -0.1786697 -6.175652 
-35.42978 79.79275 9.361894 
97.73875 52.11851 10.49858 
-11.3546 48.35782 -11.0205 
-99.99506 63.03924 0.1093099 
12.30687 77.88963 -10.93643 
80.04137 23.5543 11.14562 
7.006069 4.669785 -9.989316 
58.57217 35.63031 -10.96383 
-8.287201 66.08176 -11.00903 
60.70425 79.72618 -9.416778 
-89.97143 31.14549 -11.00962 
65.16473 75.64128 -10.91745 
-26.47384 18.39312 12.0589 
16.42513 47.97111 -11.02193 
54.00467 63.2275 9.684711 
43.38599 23.61514 11.03658 
96.93197 28.47294 -11.02695 
23.69318 44.18742 10.9881 
-10.93166 37.10855 -11.02805 
-40.35659 7.407579 -10.269 
-49.78706 18.81713 -11.40813 
99.70394 3.954308 1.861586 
-27.94393 55.42026 11.01168 
-48.45414 39.76516 -11.03118 
41.78448 54.20073 -11.02602 
-19.00187 15.64711 -9.976464 
85.06837 55.97157 11.0268 
-29.06317 0.0990627 -4.958171 
-7.666167 31.1156 -10.65153 
24.08911 55.19312 -11.0222 
-20.3372 53.3781 11.02193 
-34.66616 76.31301 -11.05234 
-38.28976 70.14323 10.90118 
-57.63823 -0.05470959 1.261029 
71.25136 79.96873 5.944391 
-96.72086 -0.4791619 9.979053 
-63.36301 17.01533 -11.93891 
88.48087 12.79255 -11.49195 
29.63196 80.02841 -4.240804 
74.12547 16.15608 11.38561 
-51.10078 6.169577 -11.78736 
3.859417 2.764396 10.76847 
-65.13317 6.416531 -11.83738 
93.64556 13.32503 -11.23631 
12.32751 79.6415 -9.788181 
71.59314 67.08298 10.98174 
-70.66675 56.94872 -11.00371 
-55.01957 22.00017 11.63301 
-76.8076 55.86861 -11.00436 
-92.44893 0.1381885 -10.68382 
-100.2541 10.51739 -5.144978 
99.98161 61.80767 4.059721 
60.33731 7.755213 -11.71017 
76.81398 71.49986 10.81588 
77.09396 76.76629 -10.72379 
74.41295 42.53104 -11.02852 
-69.72999 -0.2416964 -0.2991379 
-22.99084 66.28595 10.9549 
77.22718 80.613 -0.6333603 
-99.99518 52.66042 -0.7624265 
-40.71946 57.2413 10.97861 
99.99294 39.22174 6.707058 
39.50549 11.88564 11.35069 
55.68001 80.18555 5.414885 
-68.72281 80.12325 -4.800357 
15.81212 49.83738 -11.01975 
58.13474 19.71834 11.18502 
-7.340261 22.64223 10.4907 
-82.15308 61.45568 11.01804 
1.226685 5.610435 11.58095 
46.92419 8.403822 -11.78025 
13.7926 18.68532 10.69963 
-99.99429 39.13688 2.648612 
-23.03062 67.69742 -11.02625 
-43.48917 3.045503 -11.03318 
-98.5245 49.23911 -10.90924 
11.69717 20.84904 10.52536 
62.42252 -0.02433379 0.6549459 
49.35239 72.13651 10.7519 
-51.43955 14.80924 11.60808 
54.52608 64.34002 -11.01301 
-87.24757 71.73415 -10.91633 
-39.74978 56.26711 -11.0352 
23.26488 62.80346 10.92112 
-8.832883 31.4663 10.62344 
-38.79151 63.32533 10.94312 
-12.2689 61.89883 10.97719 
77.47491 67.94606 10.92014 
33.69324 20.61776 11.26513 
28.4434 72.84534 -11.01128 
85.85603 74.66991 -10.60853 
75.30998 59.6312 -10.77969 
-88.49986 10.57928 -11.95089 
45.50335 17.15399 11.11619 
-40.53784 4.194062 -10.79284 
46.93832 55.67325 -11.00743 
-62.55182 35.63577 -11.36831 
-35.05315 31.8316 -10.98987 
-41.83921 64.28304 -11.04185 
-4.448253 45.93122 11.00025 
72.797 74.58897 10.66629 
63.03217 26.97846 -10.89447 
-0.3290241 46.54422 -11.02086 
29.93902 8.084467 11.52345 
71.79858 72.15392 10.72295 
31.92255 60.7073 11.01959 
-13.01601 55.80555 11.00893 
-59.07127 62.69347 -10.94374 
89.92273 45.84602 11.02536 
-10.51548 31.69046 10.7667 
-37.75566 20.77044 -11.26316 
62.17496 23.05789 11.13862 
-0.3391899 74.83614 10.69438 
-2.853637 5.557158 -10.37476 
-66.16295 70.56692 10.90158 
35.25259 33.83702 -10.54623 
45.41956 57.27625 -11.00594 
93.17052 20.71531 11.13825 
11.33685 0.3579314 7.453652 
35.64392 69.90871 10.99158 
54.14837 66.27472 10.64948 
42.92119 70.57431 10.81842 
-19.28347 17.92295 -9.90231 
-80.77804 38.30891 11.03588 
61.66092 18.65708 -11.05516 
22.33768 -0.1327711 -6.094824 
27.09398 19.07946 -11.32389 
10.59413 66.87976 10.73907 
17.86683 47.62518 -11.02297 
57.34772 0.00409835 0.07006019 
46.85055 62.69115 10.05149 
-39.0652 3.71504 10.86182 
-61.13575 8.024399 11.23023 
99.96813 66.34142 -2.853352 
3.1295 80.03836 0.06688726 
-42.93121 78.88515 -10.73509 
-21.1919 60.7979 10.98336 
55.89826 25.94139 11.07556 
-94.59277 79.70811 -7.128153 
99.9894 34.6103 -7.433617 
96.45502 19.06699 11.09357 
-27.7659 34.17627 -11.0093 
32.72891 -0.1802586 3.283384 
-94.123 37.2702 11.02473 
-60.79434 40.87209 11.13159 
85.45566 34.81044 -11.02809 
-30.58016 48.75484 11.11563 
14.38578 0.1353413 3.105546 
-56.77169 -0.05688626 -4.673254 
-82.10077 72.0932 -10.84634 
-79.68362 30.14453 11.1127 
99.98601 49.84099 -1.806017 
18.88942 -0.03133307 5.959086 
42.766 29.86217 -11.02392 
93.21025 64.04246 11.02466 
52.82632 46.51215 -11.01021 
39.90612 -0.1168924 -1.707865 
83.2466 36.14637 11.03385 
-1.098341 79.80546 -7.315131 
46.09168 9.707732 -11.76362 
-10.57512 80.18027 7.411806 
19.86413 6.327194 -10.05217 
87.26877 77.63303 10.83461 
-99.9796 48.62654 -7.925385 
63.99714 43.01788 11.03183 
-62.58546 59.33758 10.94361 
-66.73074 54.33818 -10.7253 
-62.81212 2.99415 10.86971 
99.99221 11.08074 -0.1575934 
11.52224 3.153494 11.13417 
-100.0314 27.01249 5.761472 
60.26612 12.54411 -11.43359 
-52.83857 44.63049 11.08772 
-26.48231 -0.07430415 -1.391458 
-85.90382 33.13163 -10.64565 
-72.05616 80.28184 -1.755315 
-15.71765 14.7329 -9.981048 
-6.072696 41.87875 -11.02583 
76.76501 -0.0520799 8.701278 
76.57312 79.67097 7.328651 
88.49595 80.46347 -7.351835 
69.15604 0.4248752 -9.779043 
-23.72035 24.8949 11.87088 
-18.04576 48.32203 -11.02351 
57.90858 80.40664 3.368307 
-45.55068 75.60211 -10.97539 
-99.25636 40.98173 8.891734 
10.56951 6.500374 -10.07738 
-100.0033 29.05292 5.362657 
-67.07479 15.23468 11.37199 
53.67388 44.65035 -11.01006 
93.41792 33.26675 11.01606 
61.61844 -0.005580232 -2.494767 
23.97999 26.3256 10.82713 
-33.62573 37.90728 -11.00711 
92.87843 78.14156 10.66155 
57.53743 0.001963512 0.4003955 
35.41369 -0.1915491 2.147899 
-26.7901 17.22709 12.0996 
-99.99263 37.42051 1.514504 
75.49235 30.79967 11.03883 
-79.7438 65.26121 -10.91307 
-99.99538 70.51791 -7.705431 
-38.48917 13.46672 12.09244 
-15.05766 79.89102 -7.578888 
-96.64523 49.59494 11.01392 
-4.854496 14.55892 -10.05264 
79.5196 -0.126485 -8.283683 
67.46962 25.91772 -10.9432 
3.688687 59.89243 -11.0081 
-30.2658 80.40365 3.586217 
-7.935827 15.36956 -10.00048 
-30.63693 9.657111 -10.28317 
78.67787 78.86503 10.36111 
41.67679 32.65122 11.0247 
-100.3448 10.15187 4.413153 
-71.31238 21.96954 11.31406 
-51.65852 63.93485 -11.01665 
-6.086614 3.771079 11.16137 
58.02984 -0.01171537 3.599507 
85.26853 64.51958 11.02422 
67.89592 25.78093 11.07981 
-96.24956 61.60448 11.02952 
28.70452 33.73202 10.93277 
-5.76817 80.17759 9.01804 
-77.64092 65.39098 -10.91507 
12.68167 50.78425 11.02882 
-70.64505 1.51839 -11.20891 
-88.70919 -0.8828508 5.791274 
7.313904 67.7683 10.76838 
90.47483 10.51585 11.37046 
-54.40585 13.95209 11.56725 
15.35318 26.99804 10.39841 
66.79549 79.75643 7.959867 
-86.89341 55.93201 11.03434 
7.190455 79.04649 -10.48263 
35.13704 4.261138 10.52917 
-53.35624 53.53954 10.97951 
-91.78216 43.77995 -11.03093 
-67.83505 -0.2307038 1.35693 
-71.31342 32.77786 11.04758 
4.289456 43.10959 10.79066 
89.39481 75.9183 10.91587 
57.92539 12.72612 11.29558 
-87.53487 23.05187 -11.07642 
-87.07305 0.417911 10.06621 
66.55383 55.8991 9.527898 
-64.27078 80.37807 -0.4423122 
75.52016 73.21077 -10.76254 
99.99078 21.78464 -9.054132 
-79.9285 57.10799 -11.01273 
25.15361 41.28354 -11.02436 
56.88959 46.51859 11.02614 
-38.58083 24.08186 12.16781 
99.9653 70.41862 -1.160032 
19.98511 51.57759 10.96675 
-99.99178 64.07843 -8.615122 
-28.16212 44.98188 -11.02841 
44.62836 10.97121 11.19994 
0.6847345 2.914819 10.15558 
41.34542 59.51966 10.19391 
-12.80099 3.714156 -10.45938 
-22.97797 20.93275 11.95976 
-23.37187 30.41213 11.65277 
15.19861 0.9371014 -7.184665 
3.185476 75.45786 -10.99774 
12.2542 0.4989216 -7.37662 
84.99142 80.18684 -0.4159441 
2.476428 4.3745 -11.12556 
87.92632 80.42989 -7.932724 
-70.98062 80.24284 2.319372 
-85.06316 44.78337 11.03424 
-77.30354 79.70904 9.905958 
77.91945 74.51905 -10.70722 
90.25729 0.1866631 -8.122101 
-65.25148 45.88809 11.02426 
64.95008 63.71955 10.58023 
-77.52061 48.09236 -10.24723 
86.4649 48.80743 -11.02855 
-99.99667 56.64823 6.476789 
42.99358 40.52098 -11.0026 
-95.97848 40.61098 10.66157 
78.65452 0.4002508 9.728512 
-33.78028 55.40218 -11.0362 
90.7737 20.48975 -11.08859 
-63.53527 70.44346 -10.8717 
-63.27395 1.917116 9.398734 
71.76141 73.3942 -10.84716 
-46.99728 79.65732 -8.754853 
97.107 0.06547566 -5.198101 
43.65555 80.5337 1.481922 
-68.24456 74.02972 10.89288 
-17.40467 0.972875 -9.98356 
-63.17547 4.323133 11.14199 
-97.25057 -0.4401701 -9.380322 
37.85366 80.02305 5.611497 
79.09279 64.0172 -10.71882 
-61.27533 65.49552 -10.9223 
11.39308 0.918566 9.659284 
42.61106 32.8576 -11.01213 
-84.26732 6.656813 -11.42957 
-9.004401 71.24572 10.92234 
-8.200356 4.579481 11.48208 
81.79905 31.30462 -11.02799 
-96.67337 66.37277 -11.02982 
99.97563 60.8798 -5.817341 
85.59966 72.38379 10.94328 
81.00202 49.21257 11.02182 
-47.16437 45.57405 -11.00855 
10.41679 63.76142 10.83092 
-90.90866 49.96296 11.03173 
-34.32195 -0.1443236 -5.075764 
-100.2254 18.36573 -4.112473 
97.92302 10.00343 11.13977 
61.00115 69.0983 -10.96137 
-12.24703 80.06637 -4.577277 
-43.56452 21.6694 -11.22728 
-99.99532 65.60584 -4.966299 
11.4221 72.07721 -10.99597 
-5.493474 76.29573 10.73451 
67.31377 13.69233 -11.17255 
81.00042 -0.1003549 1.00828 
-63.7155 59.46893 -10.98407 
-6.299228 58.96365 -11.01143 
-34.45023 17.14382 -9.885764 
-99.99144 33.47361 3.286077 
81.40275 33.89913 11.039 
-22.16305 21.70203 11.92833 
90.81128 0.2168763 7.174676 
-49.90813 4.956455 -11.53092 
99.11827 0.8789595 1.566681 
26.01155 65.03223 -11.01555 
65.25494 0.1228557 -6.992702 
88.46341 68.4999 11.01983 
55.71497 -0.009038103 6.294349 
99.9577 73.25197 -3.641235 
-29.87757 80.34515 -4.778561 
99.98946 21.52514 -4.661333 
-88.79073 79.86784 -4.350387 
-67.85426 79.64359 9.903959 
-32.9409 80.56287 -3.08724 
-67.61199 31.48798 11.12064 
-79.86134 65.0535 10.98958 
-11.31048 80.35701 1.677142 
10.00263 71.78943 10.60895 
0.8276721 33.73399 -10.16236 
-61.11156 45.9901 11.01496 
85.65064 35.38346 11.03384 
36.86336 7.433409 -11.19727 
-88.14227 57.02181 -11.02999 
-19.43951 80.05598 -5.106172 
11.63382 19.94233 10.56413 
-9.8599 50.67479 -11.01819 
12.99344 79.80775 9.35172 
51.43304 51.35537 11.0217 
-33.46084 77.82921 10.86336 
28.70048 80.32439 -1.703631 
-66.64621 62.03871 -10.95473 
-62.21199 -0.1131365 0.5225483 
48.52076 46.03566 11.01782 
28.45959 47.12684 11.00819 
-29.03792 2.214614 -9.135776 
41.58099 62.15677 11.1187 
-48.13866 49.91202 11.01323 
-85.04824 34.5062 -10.32941 
-98.68776 67.53307 -10.67889 
75.76213 0.02229236 -7.041557 
-100.0929 24.45933 5.279899 
60.10607 3.952594 11.16708 
-99.61012 77.11613 1.663436 
-75.90959 59.62547 11.00022 
-23.05108 4.46262 11.81762 
-85.04633 38.12614 -10.22072 
-95.7455 34.63306 10.49323 
45.29705 62.95213 10.23121 
-75.45551 7.644689 10.80417 
28.78119 5.048523 11.44399 
-95.59189 28.34783 -10.92132 
-92.05946 11.74317 11.38854 
99.95897 70.21857 -5.445631 
-74.15533 80.18623 -3.308846 
-39.81326 57.84815 -11.03662 
-46.61528 45.44506 -11.00874 
-65.59558 63.91343 10.93325 
-35.99912 80.46396 3.996516 
-84.93919 47.03127 -11.03048 
21.80904 -0.101314 0.957889 
-79.06657 67.12936 -10.89684 
99.98374 49.01303 -7.145588 
-43.81024 -0.1461122 -4.516362 
99.9889 49.09954 4.116441 
-68.84501 57.8993 -10.99541 
8.48735 26.06824 -10.05461 
-2.842138 79.85008 -6.59645 
4.483195 65.81314 -11.00256 
-95.98167 79.77187 3.505612 
-81.71946 23.96504 11.26172 
-79.31152 5.729118 9.440311 
23.95258 69.80063 10.82756 
-3.465123 79.92719 -4.867936 
-28.25496 17.77051 12.1042 
76.66676 66.60886 -10.7427 
-98.74196 -0.861945 2.490908 
-90.48923 54.10916 11.03233 
-1.173672 25.65593 9.916733 
93.33676 37.40709 -11.0279 
83.80751 30.40163 -11.02793 
