ply
format ascii 1.0
comment VCGLIB generated
element vertex 1587
property float x
property float y
property float z
element face 0
property list uchar int vertex_indices
end_header
3.800987 0.5142333 -8.066387 
3.42425 -0.718256 8.622491 
0.7434217 0.1200564 12.6839 
-1.510782 0.01698658 -0.2518666 
-2.095297 0.1050704 1.099641 
-12.68327 -0.718256 4.117848 
3.473769 0.4333189 -4.507466 
-3.869637 -0.0263491 -1.1529 
5.411681 0.3811309 -0.6869571 
-4.949766 -0.4877749 -0.103956 
-6.280796 0.04801383 9.006888 
-7.444712 0.3755503 -6.099287 
3.794762 -0.718256 -0.9112735 
-13.97902 0.1812339 0.4687996 
-5.654849 -0.718256 -8.320583 
1.826264 0.09210573 7.469121 
9.98424 -0.7182561 8.709755 
6.516958 -0.718256 4.998425 
14.32023 -0.7182559 8.642635 
4.177063 0.1251273 14.72212 
4.649535 -0.718256 6.663644 
-1.81394 0.4092816 -6.910931 
-16.33663 0.1275294 -4.383106 
-18.01494 -0.7182561 -2.255903 
-5.473794 0.3632207 -4.766308 
-15.01656 0.2518481 -2.48636 
2.897602 -0.7182559 -13.85007 
-14.33473 0.1122465 2.619606 
4.047393 0.1190632 14.62573 
-8.939735 -0.718256 -5.378654 
3.115717 0.3643409 1.837147 
10.1533 0.323962 11.60412 
-1.048492 0.5422848 -13.63805 
-0.02912594 0.5399161 -12.60139 
-5.634696 -0.718256 13.33943 
-0.3984269 0.1421806 3.855805 
5.411611 -0.6372199 15.30862 
10.23609 0.475988 -2.752706 
-3.698139 -0.7182561 -5.484742 
-2.901343 0.4010232 -6.883919 
-9.01989 -0.718256 9.714455 
3.814462 0.4750903 -5.839397 
-3.736636 0.08274938 14.55538 
3.282285 0.1324098 9.383774 
-11.88388 -0.1205744 7.525512 
4.460549 -0.718256 -2.185004 
-8.569566 0.09373224 5.525922 
-2.947362 0.1184388 13.45114 
-1.436827 0.05737131 19.04321 
13.78114 0.5119939 5.175029 
-4.707002 0.1283824 5.380905 
7.45581 0.4242123 -1.303677 
-6.363074 -0.718256 10.90733 
8.290084 -0.718256 6.273777 
-4.69333 -0.7182559 -10.25323 
-1.078454 -0.6830992 -13.97418 
-6.708789 0.07923498 10.62768 
-6.824496 -0.718256 4.095349 
-7.552266 0.1034613 6.608153 
4.595711 0.3462229 2.986563 
10.04012 0.4898573 -3.558568 
3.111223 0.106779 8.993244 
9.235907 -0.718256 -3.00138 
-1.586262 0.1335225 11.33082 
10.30242 -0.718256 -0.6349244 
-1.575684 0.5443252 -13.14217 
-6.513759 -0.718256 0.7653313 
-11.6735 -0.03791071 6.924952 
4.813879 -0.718256 -8.65976 
-13.67818 -0.7182561 -2.201305 
-7.573207 -0.3537123 14.38797 
10.57524 -0.718256 9.215916 
2.078593 -0.718256 -10.56275 
-8.064621 -0.718256 -5.430147 
-8.107206 -0.718256 4.592973 
-5.856863 0.2945843 -3.007996 
-0.3068537 -0.718256 8.339443 
12.20241 -0.7182559 6.300563 
-6.66921 0.1363892 5.048352 
-7.416181 -0.718256 -7.693005 
-5.516753 -0.718256 0.5506587 
14.37783 -0.718256 3.001895 
3.881567 -0.718256 -13.68368 
-5.677092 0.0561024 15.79127 
5.243015 -0.718256 9.836516 
-7.646667 -0.718256 -2.000329 
7.656815 0.540682 -8.083645 
-5.02042 0.09496534 -0.8601549 
8.926019 -0.718256 0.3028917 
1.262796 0.4881708 -8.994541 
-0.6798979 -0.718256 -13.69967 
13.55433 -0.6300096 0.6960659 
-3.201526 0.1204974 6.162163 
8.423296 0.3106299 8.265815 
0.8381979 -0.7182559 15.47849 
9.981247 0.390505 0.1939015 
8.795157 0.369518 7.552024 
-0.3276836 -0.125221 0.3198875 
2.510437 0.3006414 2.737393 
4.098494 -0.718256 4.032477 
8.452747 0.4041753 2.039845 
6.706923 -0.718256 4.257326 
-2.506612 -0.718256 5.790455 
-1.995383 -0.718256 -3.505329 
11.80725 0.5462821 2.895804 
5.309025 0.428072 -3.1876 
13.46784 0.07462326 0.5584613 
-4.053072 0.007210775 18.29509 
2.724154 -0.01019188 5.181179 
-2.921931 0.1130468 7.625075 
5.379584 -0.718256 2.244039 
-1.296181 0.4840799 -9.166446 
5.858547 -0.1904147 10.07162 
11.93225 0.4570495 -1.209888 
-7.098411 -0.3694387 1.062857 
-2.782611 -0.718256 7.36356 
8.678061 -0.4154337 -7.061423 
5.614511 -0.718256 2.712923 
2.781634 0.3016 2.209625 
5.949306 -0.718256 -4.140718 
-14.04615 0.2576957 -2.216269 
-0.1176969 -0.03780471 -1.947106 
-9.184005 0.3642178 -4.397421 
-1.82166 -0.718256 15.9155 
-15.76503 -0.718256 -1.635394 
-0.5076258 -0.718256 -11.32177 
-2.91853 -0.03620723 20.5187 
10.19121 -0.718256 4.646018 
-5.394895 -0.2086687 -11.26092 
5.963055 -0.718256 11.87484 
3.438197 -0.718256 1.964101 
-6.731772 -0.718256 0.5770693 
-13.6499 -0.718256 -4.834382 
-6.099113 0.3990658 -10.26997 
-3.618525 -0.718256 6.477803 
-3.105302 -0.718256 1.391866 
0.7026514 0.1368881 7.757512 
15.20899 -0.718256 8.598148 
-8.440183 0.08761147 0.4645718 
-6.496269 -0.718256 13.16485 
-6.949695 0.4007782 -9.809265 
-7.671174 -0.718256 11.71269 
3.028816 -0.718256 15.18947 
-9.265399 -0.718256 -6.117567 
-7.890663 0.07812694 8.756148 
0.245882 -0.718256 -6.966426 
-3.538484 -0.7182561 19.79134 
-11.60337 -0.718256 5.610058 
-3.367579 -0.718256 -0.5845232 
6.537289 -0.718256 -9.175376 
-4.27625 0.3950394 -7.803583 
-11.10929 0.3491785 -4.14818 
-3.896854 -0.718256 8.810209 
-4.886074 0.1096574 0.9100891 
5.036655 0.3448247 0.8237442 
1.466185 0.5362614 -15.46294 
6.12042 -0.718256 9.751576 
-3.576478 -0.718256 6.71574 
-16.7728 0.1877984 -1.359129 
-14.3939 0.2539856 -2.776613 
-10.3957 -0.718256 -1.150661 
-1.705484 -0.718256 1.69031 
0.413634 0.1088349 5.932978 
0.2511902 -0.7182561 -13.77743 
-1.091303 -0.718256 0.5389528 
-1.877391 -0.718256 -0.811657 
-8.072817 -0.718256 12.88847 
-3.18498 0.4308195 -9.0777 
-0.01080265 0.4548137 -8.544009 
2.306237 0.1030441 16.57867 
-5.927787 -0.718256 6.289515 
8.448073 0.377281 6.04053 
6.546954 0.2659713 7.181609 
12.22726 -0.718256 5.195523 
-4.04868 0.3943702 -7.432794 
5.333542 0.1003007 11.06462 
3.133296 0.1268047 13.56526 
-5.121001 0.2923688 -2.759822 
12.77051 0.4720504 6.58211 
4.974128 -0.7182561 5.531749 
-14.72453 0.1586231 1.652009 
-4.217414 0.4310409 -10.26151 
8.722055 0.3850597 1.676891 
2.222823 -0.718256 11.61851 
5.26832 -0.1249601 9.275615 
2.345093 0.1671363 10.01418 
-0.002090961 -0.426759 18.7116 
-11.58755 -0.718256 -1.182201 
-0.9843958 0.4770551 -10.00437 
-4.124527 0.002943639 18.6737 
-2.009588 -0.3179416 -13.38888 
-2.313279 0.4277349 -7.570351 
-15.5046 0.2742204 -4.152612 
-4.266496 -0.718256 1.502952 
-4.113256 -0.718256 16.93939 
0.3660574 -0.718256 5.339065 
-5.95428 -0.718256 -9.484385 
-2.429208 -0.718256 10.369 
-5.229225 -0.7182559 -9.994089 
-7.537488 -0.718256 13.69772 
1.169557 0.3625209 -4.000886 
4.479742 -0.718256 -8.523676 
-2.133604 -0.718256 -9.18722 
-4.946617 -0.718256 15.54806 
12.46923 -0.718256 4.162264 
8.510724 -0.718256 1.012618 
-12.72492 0.2837267 -2.758553 
2.908845 -0.718256 -11.1689 
-3.412088 -0.718256 -6.747394 
-7.783891 0.09478652 7.020706 
0.947006 0.1235672 6.575441 
-12.54546 -0.718256 0.7742147 
-8.601449 -0.718256 -4.879214 
0.4848855 0.4573031 -7.276059 
-2.95936 0.1070748 14.35087 
-5.117455 0.08392791 8.947109 
-3.619625 0.09419906 13.7223 
-10.16332 -0.7182561 -6.348627 
5.480177 -0.718256 3.016531 
-9.154957 -0.718256 3.774677 
-0.1199681 -0.718256 4.561391 
7.284417 -0.7182559 7.477726 
-1.576019 -0.718256 -7.78476 
3.407654 -0.718256 6.776195 
-1.12445 -0.718256 7.298843 
-5.855618 0.1262982 -0.7125654 
14.5357 0.5306368 4.991062 
-0.6954381 0.3283708 -3.542266 
1.6526 0.2925178 -3.276902 
-2.951647 0.1256147 7.205484 
-5.918751 0.3793658 -7.308665 
3.204699 0.1367528 7.546502 
-9.212532 0.03229777 8.073136 
-0.4192417 -0.718256 -0.3005266 
6.818161 -0.718256 -3.654261 
8.794805 0.4633351 -3.055579 
4.262568 0.5626767 -13.73812 
-14.8278 0.1036061 2.854447 
-2.684969 -0.718256 16.5786 
-7.824238 -0.7182561 -8.908115 
8.162699 0.08540928 10.84136 
-3.233731 -0.718256 18.7426 
-9.378584 -0.718256 -2.118051 
-0.8024384 0.09246254 17.48374 
17.53143 0.5244191 7.19844 
-1.993255 -0.718256 10.11829 
1.89727 0.1305519 12.50206 
-6.782969 0.158804 -0.8138616 
7.163826 -0.718256 5.751144 
-12.61409 -0.08905433 4.877684 
-12.01038 -0.718256 -1.598879 
-6.098851 0.370806 -4.763078 
-2.821972 -0.718256 -0.1256504 
-13.99952 -0.08425658 -5.85218 
-0.1695303 0.4153509 -5.04455 
-16.27018 0.2069221 -2.047031 
2.777116 -0.718256 16.61835 
13.93739 0.4900907 7.83927 
-5.973605 0.05244996 11.05697 
-11.26688 0.3591953 -6.15437 
-3.46885 -0.718256 -0.8986831 
-2.361581 -0.718256 2.20926 
3.062222 -0.718256 3.233065 
1.168278 -0.718256 -2.008838 
-0.5095092 -0.718256 12.08004 
-5.531281 0.01734036 16.71092 
-7.492162 -0.4357327 -9.942613 
4.999897 -0.718256 -8.245414 
11.29213 -0.718256 -0.2108951 
3.420619 0.322664 3.235467 
8.950995 -0.718256 12.69511 
9.073623 0.4460485 3.735499 
-9.881634 -0.718256 -2.702968 
10.22806 0.3887683 8.038288 
4.212665 0.5542495 -11.65264 
-3.500557 -0.718256 18.1656 
-16.65692 -0.0353475 -4.174518 
5.537842 0.3185309 4.704521 
-13.18248 -0.718256 0.1963501 
-7.351023 -0.718256 6.716019 
-7.601949 -0.7182561 -9.62174 
3.169051 0.4269745 -3.465364 
-10.58975 0.03333832 8.162942 
-5.152738 0.2923443 -2.472444 
15.32073 -0.718256 6.837676 
7.38849 -0.718256 8.608217 
-9.048315 0.1843532 -0.5634465 
5.65016 -0.3574834 9.442221 
-7.561671 -0.718256 -9.530866 
-6.908721 0.4020399 -8.590276 
-2.717639 0.4011836 -6.791533 
2.653463 -0.718256 0.574419 
-10.27866 0.3736331 -6.199949 
-6.545086 -0.7182559 -9.426994 
13.84291 0.576822 3.146261 
-2.924462 0.2817807 -3.813146 
1.959708 0.504908 -10.66726 
13.07361 0.5521816 3.68094 
6.253527 0.5174981 -8.270383 
-7.368007 0.3913343 -7.17157 
-6.049605 -0.718256 -4.934967 
-9.140087 -0.01510836 10.29457 
-2.129871 -0.718256 -8.453211 
1.188915 0.1490104 9.362217 
-1.63583 -0.718256 7.453485 
2.463128 -0.718256 2.944788 
-1.47258 0.05285654 19.26295 
2.310962 0.4947948 -6.875386 
-8.52481 -0.718256 10.93875 
2.470257 0.1076299 7.415206 
-13.19168 0.1202172 1.895166 
10.26752 -0.718256 10.922 
0.9008896 -0.718256 -12.60357 
-4.194098 -0.718256 11.90565 
11.00598 -0.718256 0.7596011 
-7.914786 -0.718256 7.3468 
1.105543 -0.718256 -1.311929 
-4.394347 -0.7182559 -6.252278 
2.972455 0.512085 -15.86922 
-4.432808 -0.718256 -6.152253 
-2.52887 0.1208478 1.171702 
7.880719 -0.718256 6.679618 
-16.17506 -0.718256 -1.444557 
4.617745 -0.718256 3.053384 
3.727726 -0.2218506 6.498802 
-7.415374 0.1062127 7.580896 
-7.40554 -0.1980294 1.174922 
-8.224774 -0.6212219 13.36684 
-10.362 0.2769746 -1.604065 
1.827942 0.1294107 11.46164 
5.256791 -0.2053136 9.169951 
-2.643516 0.05252487 18.17502 
-14.81944 0.2582457 -3.719417 
7.439859 -0.3345754 11.00478 
-2.743088 -0.718256 8.776453 
-6.95946 -0.718256 10.71805 
-10.43251 -0.05442238 9.032728 
-3.450027 -0.2825359 20.87892 
11.83637 -0.273784 -2.036983 
-0.5913517 -0.718256 15.97248 
-11.24352 -0.718256 -4.367812 
-3.818311 -0.718256 13.21444 
2.016263 0.1271417 8.540973 
13.97737 -0.718256 5.391328 
-1.82101 -0.718256 17.22143 
-1.476551 -0.718256 16.37325 
-8.177686 0.3835315 -5.209241 
-5.319984 -0.718256 4.976383 
-15.48871 -0.6587563 1.810897 
-4.903135 0.1333829 5.865823 
-4.015232 0.2328299 -12.12503 
-3.5562 -0.718256 12.07728 
-11.64318 0.3187856 -3.465592 
-9.803806 -0.6096476 -8.489546 
2.960913 -0.718256 -8.489456 
7.563663 0.389302 5.891938 
-1.012964 -0.4757312 -1.41285 
-0.5538668 0.1241682 11.34577 
16.12226 -0.2273991 8.576066 
-9.678993 0.363565 -4.55218 
3.746992 -0.718256 0.3028631 
2.062536 0.1094774 16.37257 
-1.516772 -0.718256 2.918456 
5.540713 0.5273132 -9.040221 
4.89228 0.3482551 3.092434 
-1.82471 -0.718256 14.1863 
-4.286505 -0.6076921 19.63209 
11.23572 0.4751103 -2.57622 
5.135826 0.04952697 9.47905 
13.21055 0.5623075 2.409591 
0.8393843 0.2149658 -1.90577 
-3.143178 0.2742468 -3.008236 
-10.07059 -0.718256 8.961611 
-5.394275 0.3421071 -3.84903 
-10.24947 0.05688078 5.473004 
11.59871 0.4527576 7.164955 
-4.633069 -0.718256 -4.770025 
-4.722217 -0.718256 -9.016416 
-17.74132 0.1756035 -3.493545 
4.995373 0.08661176 10.35732 
-0.6381551 -0.718256 -10.175 
-0.5223367 0.4514038 -14.31484 
10.04722 0.3664146 8.399746 
-12.43164 -0.718256 4.847385 
-2.542449 -0.718256 -6.98042 
-11.87834 -0.718256 -1.979426 
11.80183 -0.718256 10.91052 
-18.02487 0.1155223 -3.311803 
1.068681 -0.718256 -2.171884 
8.956697 -0.718256 -2.117219 
1.967592 -0.718256 6.420211 
-4.522975 -0.718256 8.364165 
9.603565 0.5046257 -5.191951 
-1.754099 -0.718256 -6.15485 
5.804088 0.5770094 -10.64928 
4.140283 -0.718256 15.88387 
6.482894 0.5278625 -6.913831 
-13.2063 0.3351412 -5.817264 
-10.76349 -0.718256 7.687806 
-0.8116479 0.08163504 1.650596 
1.796591 -0.718256 -0.5582838 
0.9824593 0.1127797 14.47916 
13.48779 -0.7182559 5.410532 
-7.971414 -0.718256 -2.287328 
11.82611 -0.718256 4.395034 
13.79424 0.5686469 3.276491 
-15.16172 0.01382995 2.308426 
1.353278 0.08463354 16.1175 
11.70293 -0.718256 7.685195 
-2.863982 0.07953422 17.3826 
1.621257 -0.718256 -15.00748 
-4.515996 -0.718256 3.337169 
-2.394383 0.1267117 6.74169 
4.537509 0.1125724 12.28669 
10.9067 0.4828662 5.412413 
9.343061 -0.718256 12.65887 
7.752808 -0.229151 11.96438 
-3.174918 -0.718256 11.76714 
-2.584132 -0.718256 18.04932 
-10.96622 0.2129045 -0.4858023 
-12.81473 -0.3710821 -6.596925 
-1.941146 0.1026363 8.628202 
5.903173 -0.718256 12.5378 
-12.07039 -0.718256 -1.112336 
5.046549 0.5188233 -8.037238 
-3.206067 0.4455088 -9.391059 
5.926092 0.3863415 -0.01623136 
0.4692813 0.08176361 0.333594 
-8.856309 0.0893444 5.603811 
-0.1659658 -0.4473985 -0.5750136 
-4.882195 -0.718256 0.922164 
4.840669 0.4930611 -6.916479 
0.5180836 0.4884378 -10.56574 
4.110385 -0.718256 9.630191 
-4.362556 -0.718256 10.43733 
-0.9403726 0.07097461 16.32955 
13.40721 -0.718256 9.098782 
-2.767795 -0.718256 -2.634476 
-5.896739 -0.718256 -10.60378 
2.415442 0.4261453 -4.654748 
9.549623 0.4485878 4.78834 
-4.120912 -0.718256 10.2506 
9.578943 0.4751661 -2.573474 
-3.974622 -0.718256 18.35097 
6.119127 0.5055464 -11.10499 
3.058419 -0.718256 -15.9641 
-1.178478 0.1335605 3.964484 
8.731663 -0.718256 -4.042776 
-8.594741 0.06920264 3.340923 
-3.299756 -0.2959649 -0.8927526 
-9.155053 0.384669 -8.141055 
2.784334 0.08098461 13.58558 
-6.74978 0.2428062 -1.751093 
-9.529913 -0.718256 11.26602 
-3.113993 0.1171703 13.05949 
5.752253 0.4797301 -7.954793 
-6.553176 0.1739078 -1.080119 
-10.78019 -0.718256 3.256442 
-5.118205 0.04462658 2.050508 
0.6930127 0.3250362 -3.067636 
16.63124 -0.7182561 6.411817 
5.70015 -0.718256 -4.390333 
9.331526 -0.718256 -2.379553 
8.649786 -0.718256 -4.818228 
0.6384817 0.06100746 13.98042 
2.367989 0.2826409 2.609553 
-0.3638868 -0.718256 -5.297159 
-0.1374586 -0.718256 1.990336 
0.3267266 -0.718256 -2.567698 
13.21197 0.5143273 5.100892 
-0.6829506 -0.718256 18.31944 
10.70831 0.4941403 2.220098 
-9.870216 0.04827237 0.9256545 
15.18973 -0.5448187 3.297768 
-11.029 -0.718256 -3.448616 
-1.335871 -0.718256 4.9204 
-5.595981 0.3396396 -4.175931 
-7.005298 -0.718256 10.96495 
-3.98742 -0.718256 7.070771 
-4.339634 -0.718256 -4.509658 
10.50995 0.4147818 8.269541 
7.170029 -0.718256 -3.708241 
11.34379 -0.718256 2.152986 
-8.555279 0.3227916 -3.050545 
5.904714 -0.718256 5.102231 
15.89914 -0.718256 7.23895 
-5.919587 0.08351967 6.213606 
6.457749 -0.718256 -4.66178 
-2.989707 -0.718256 -11.69591 
5.982426 0.05918397 14.18569 
10.34349 -0.718256 -2.1036 
11.92695 -0.718256 4.643524 
2.058569 0.5421404 -14.29121 
-7.523043 0.1684465 -0.7389971 
0.4608305 -0.718256 12.22807 
12.13511 -0.718256 2.867525 
-6.987575 0.2946234 -3.376803 
2.022766 -0.718256 13.85092 
1.540824 -0.718256 -13.4363 
-9.532788 -0.04046988 1.716348 
-0.5950857 -0.3145248 -0.2453467 
5.380527 0.5425044 -9.376522 
5.091371 0.1200176 15.193 
-13.23564 0.1496421 -6.332345 
12.93201 -0.718256 6.580828 
-6.573655 0.1350709 5.004219 
-1.517882 0.5381569 -13.23576 
-13.25129 0.1298172 1.654908 
-14.64132 -0.718256 2.679937 
-0.4180921 0.3211897 -3.832088 
1.597577 0.4538274 -5.972339 
-12.25551 -0.718256 3.697883 
8.967374 -0.718256 0.8480325 
7.640143 0.3654982 6.698289 
-16.84162 -0.718256 -2.547042 
2.869681 -0.718256 3.129992 
3.951325 0.1180444 6.291342 
-12.49964 -0.01443202 3.468381 
-6.372378 -0.718256 -8.353963 
-0.7016389 0.2523897 -3.058161 
-4.621936 -0.718256 13.07867 
5.873834 -0.718256 9.477633 
5.554073 -0.718256 -8.500574 
-0.7122626 -0.718256 -0.4912567 
-7.125113 -0.718256 5.455637 
14.97102 0.5024314 7.788456 
-4.567365 0.0842531 13.09132 
0.3367208 0.5651803 -12.84294 
5.929811 -0.3597349 9.883597 
-3.27627 -0.718256 9.266582 
-4.436465 -0.718256 14.46841 
2.774164 0.3499458 0.2398418 
-4.817978 -0.718256 -5.573562 
-7.223187 -0.718256 -4.762616 
-1.657154 -0.718256 -2.957532 
9.942399 -0.718256 1.307532 
-8.016741 0.3541662 -4.182517 
6.156545 0.3685975 3.262572 
1.031978 -0.718256 11.80683 
-15.94257 0.2041756 -2.111616 
-1.845633 0.1273681 12.26515 
-9.177171 -0.718256 2.782277 
3.787254 0.3211097 2.443209 
6.583598 -0.718256 -7.703116 
-4.191501 -0.718256 16.4274 
13.01316 -0.7182561 8.823939 
-11.58793 -0.1069837 4.11101 
-9.520068 -0.718256 5.495359 
-1.034385 -0.4736574 -1.733802 
2.593724 -0.718256 -12.48497 
3.822544 -0.718256 -11.98708 
1.505455 0.540383 -12.50683 
-10.37703 0.0006894344 8.476896 
5.218235 0.3758923 0.4587282 
3.343813 -0.718256 16.37532 
-4.397292 0.3952275 -8.135159 
10.01466 0.4889279 -3.550814 
6.245959 -0.718256 -7.222893 
3.688643 -0.718256 -0.004236221 
7.799281 0.399608 0.8147304 
10.43069 0.4123361 7.425147 
-11.80209 -0.6751153 -7.233456 
16.06885 0.5251638 6.494565 
-1.517702 0.104485 15.76293 
5.541043 0.3536399 1.197887 
13.11657 -0.7182561 3.525166 
-5.028433 0.117845 4.312585 
4.998007 0.484024 -6.467029 
-1.764601 -0.718256 -0.3426619 
-3.916686 0.3753529 -6.207187 
4.312551 0.1290735 11.29761 
5.551126 -0.3093401 -12.03595 
-8.25268 -0.7182559 -5.011697 
6.271229 0.5188094 -6.948846 
4.514242 -0.718256 -7.95246 
-5.639893 -0.718256 6.328496 
-5.537008 0.2485687 -2.255587 
-2.416773 0.1077455 9.148965 
5.526715 0.4016069 -1.31541 
-8.530228 -0.718256 6.970417 
4.417297 -0.718256 -1.766719 
-6.349641 -0.718256 4.485702 
-2.95684 -0.718256 6.713097 
-14.67214 -0.718256 2.206968 
4.427527 -0.718256 -12.30333 
2.20042 0.110999 8.99051 
16.5605 -0.3610045 8.300591 
10.23642 -0.718256 0.3437481 
1.858103 -0.718256 11.21146 
-9.934453 -0.718256 3.442852 
-2.578609 -0.718256 18.92549 
6.645151 0.3750321 -0.3187072 
-2.582663 0.1111921 10.08412 
-4.211345 -0.718256 -2.595016 
-10.66912 -0.718256 -3.219153 
0.8676361 -0.7182561 -13.7416 
0.00371528 0.5359005 -14.61202 
16.05094 0.530885 7.077249 
2.253425 -0.718256 2.37749 
-2.258899 0.1276755 6.724205 
-10.30809 -0.718256 0.7373419 
-16.94154 -0.4039082 -4.00287 
13.52391 -0.718256 2.049474 
-10.10229 -0.1622837 10.36463 
-5.515935 -0.4954974 17.67459 
-4.129854 0.1121836 8.39719 
-0.7792474 0.1326162 9.332876 
-1.501883 -0.718256 -4.342987 
-3.220953 0.01368614 19.81818 
-2.166424 0.1173295 8.884777 
-3.523589 0.1136664 8.28723 
-1.442531 -0.718256 4.855289 
-6.16617 -0.718256 -9.5885 
-1.741945 -0.718256 12.70018 
-17.94357 0.2114355 -3.106845 
4.512477 0.07660927 10.54185 
-3.592089 -0.718256 8.058746 
8.670753 -0.1440557 -7.073047 
14.6355 0.5840576 2.687869 
0.9178059 -0.718256 9.752594 
4.305561 -0.718256 9.384289 
13.53568 -0.718256 1.971939 
-5.151951 0.1459195 5.117552 
-6.774483 0.05845088 10.71766 
6.04913 0.5143387 -7.116599 
-7.55717 -0.718256 -1.435335 
9.226088 -0.718256 1.180175 
1.185123 0.1129577 6.627523 
9.149789 -0.718256 1.44943 
10.85626 0.4673778 -2.723498 
3.13492 -0.718256 14.46344 
9.849922 0.4556802 -1.447812 
5.739586 -0.718256 -1.561972 
-10.30641 0.01309595 8.883247 
-2.082507 -0.4386345 -1.568112 
-5.008866 -0.718256 18.21494 
-2.89745 0.1165923 2.487382 
-12.46744 0.2923937 -2.922823 
1.701655 -0.718256 9.025467 
12.66249 0.4328986 10.51136 
-3.559411 0.06789996 17.02417 
-8.867126 -0.718256 -0.6170459 
3.744078 0.1251896 12.65287 
5.491392 0.3394881 4.941549 
-10.51993 -0.02552398 8.731178 
-11.77615 0.1998797 -0.2947695 
9.177952 -0.718256 11.83648 
-0.3166524 0.1133094 2.52418 
6.194896 0.5633994 -8.881143 
7.395782 -0.718256 -3.399559 
13.85934 0.4896202 7.492166 
-3.269193 -0.02712471 -1.404107 
11.95677 -0.718256 1.353424 
-6.851985 0.02266992 0.1220575 
-11.71545 0.06850282 1.283634 
-8.59313 -0.718256 -2.23621 
13.79585 -0.718256 4.410069 
6.335979 -0.718256 4.86943 
1.36076 0.2492622 -1.134091 
2.451838 -0.718256 -1.015906 
3.469199 -0.718256 1.847539 
3.397717 0.09571005 16.19099 
4.577932 -0.4838237 15.83177 
0.5535622 -0.718256 4.659443 
-9.396913 -0.718256 6.113073 
1.639971 -0.718256 -7.423759 
1.479027 0.265711 -0.8646488 
1.047241 -0.718256 -10.74315 
1.379806 0.1456745 8.414797 
-7.994057 -0.718256 -3.868034 
-11.0822 -0.0607051 2.571403 
-11.97187 -0.718256 -6.865733 
-2.899337 0.1050883 8.37402 
-7.794764 -0.0230252 11.93388 
-4.911397 -0.718256 -4.232042 
0.8916357 -0.718256 -10.65621 
1.954654 0.4353969 -5.598371 
-2.440554 -0.718256 -4.823772 
-9.324831 -0.718256 -0.0597949 
-1.638476 0.1281769 1.886324 
-4.997018 -0.01016448 0.3823253 
13.49949 -0.718256 9.921105 
-4.830763 -0.718256 4.965957 
-7.77668 0.04744844 2.176817 
9.279643 0.2984598 9.958244 
-1.017893 0.1324925 5.861697 
-8.110206 -0.718256 5.874823 
7.815805 0.4240833 -1.817265 
4.055201 0.5653741 -11.48899 
-11.79947 -0.718256 7.493381 
-7.036456 0.1743807 -0.7616019 
1.168913 0.1431293 8.460103 
0.04712025 0.4852508 -9.514082 
-13.83399 -0.718256 0.2855864 
4.901603 0.3560447 0.7093421 
-7.736607 -0.718256 13.9178 
-8.209704 0.03617939 -9.491575 
-2.581038 -0.718256 -10.35091 
-4.680694 -0.718256 18.62811 
1.347424 0.1159689 5.423289 
1.744439 0.1368167 10.63611 
-1.705818 0.1283811 7.784831 
-0.3672037 -0.718256 -12.60377 
12.421 -0.718256 3.028133 
6.688877 -0.718256 -4.961865 
-6.075379 -0.718256 -6.509811 
2.184304 0.2928944 1.762023 
-15.08404 -0.718256 -3.016966 
4.912944 0.1938519 6.664973 
2.186774 -0.718256 2.171255 
-4.811194 0.1204737 10.70287 
-0.2232191 0.2676289 -2.954775 
-8.92178 0.387025 -6.896822 
-2.37861 0.5111647 -11.36107 
-11.67841 0.3541942 -5.91509 
-5.581724 -0.718256 6.558569 
14.2324 0.5718933 3.4463 
12.01999 0.4256703 9.068408 
-5.353473 -0.718256 -8.052643 
4.045591 -0.3137048 16.1614 
-14.78755 -0.718256 -2.262328 
-1.097562 0.1074771 1.942808 
-6.146279 0.01550931 13.82041 
1.024552 0.4887176 -9.382614 
5.955959 -0.718256 -8.714005 
5.306619 -0.718256 8.246237 
-7.683279 0.1001154 6.062816 
-8.725067 -0.7182561 -4.706788 
6.303975 -0.718256 8.36981 
9.349951 -0.718256 -2.738864 
6.519328 -0.718256 -0.2204847 
-1.752212 0.4872369 -9.910591 
-2.174166 -0.718256 -12.17056 
0.3243081 0.3381361 -3.647682 
-9.449928 -0.718256 0.5007544 
-2.670784 0.06861552 17.27573 
-11.59177 -0.02578098 -7.36566 
13.06192 0.4816137 7.387947 
9.468711 0.4657577 4.118511 
-12.95746 0.2901351 -3.77485 
4.24656 -0.718256 13.53503 
-4.460152 0.1239595 -1.205553 
1.369307 -0.718256 14.02942 
6.977154 0.4730236 -4.441498 
-9.094512 -0.718256 8.148284 
15.98977 0.3290015 4.585525 
7.898873 0.2509024 8.541495 
8.634778 -0.718256 1.076165 
5.470006 -0.718256 -11.27994 
9.894018 0.4802709 3.528179 
-7.045508 0.06516233 10.22717 
-5.011919 -0.718256 16.83963 
-1.939303 0.1164333 15.68405 
-12.91299 0.2491914 -1.887759 
-4.671651 0.07734205 14.5984 
-0.742519 -0.718256 6.355757 
-7.645778 -0.718256 1.250001 
-8.429384 0.3787649 -6.847935 
2.686569 -0.718256 -1.740537 
-4.316678 0.3990851 -7.988498 
-5.13683 -0.718256 10.3589 
6.947269 -0.718256 -5.908366 
-15.46179 -0.718256 -2.324749 
-11.14457 0.3656063 -6.265793 
-8.450068 -0.003882287 2.362767 
10.65649 0.1465527 -3.914012 
-4.532489 -0.718256 4.556952 
-9.715629 0.3896386 -7.201543 
5.625751 0.4790519 -6.65622 
13.10863 -0.1755191 -0.0129776 
0.223291 -0.2573087 -1.884625 
3.521509 -0.718256 1.847476 
-12.4566 -0.718256 -3.276032 
-12.15346 -0.718256 2.96302 
-15.80964 -0.718256 -4.424344 
-6.42158 -0.718256 6.140276 
0.4181305 -0.718256 12.76878 
-9.816661 0.3694692 -6.30083 
15.48147 -0.718256 6.991992 
6.815003 -0.718256 5.515827 
-2.223272 -0.718256 17.21983 
-0.7816092 -0.718256 16.67809 
8.65556 -0.718256 12.11683 
0.6728138 0.120084 12.21092 
-5.739419 -0.718256 -1.176066 
7.928092 -0.718256 0.5493789 
2.323366 -0.718256 -4.672181 
-6.3696 -0.718256 16.08358 
-12.50593 0.04708413 3.057721 
3.132611 -0.7182559 -15.17106 
6.903348 -0.718256 -1.096694 
-4.498865 0.4118445 -8.777851 
12.66439 -0.7182559 4.028569 
-6.702519 0.2635182 -2.313242 
-16.87122 -0.718256 -3.515586 
-1.145671 -0.718256 13.51199 
-13.28455 0.1561381 0.8179613 
1.091357 -0.718256 16.61801 
1.691926 -0.718256 -13.01261 
-1.880628 0.3477418 -4.414814 
5.606421 -0.3491677 9.189816 
-0.08925965 0.1300276 10.46864 
-10.96706 0.2158616 -0.5323914 
-2.651404 -0.718256 7.398286 
-0.9255686 -0.4661087 -1.497374 
-3.395631 -0.4669994 20.84473 
5.901985 -0.718256 9.732197 
2.375238 0.3241607 1.567138 
8.089962 0.3078276 8.197631 
-0.7209196 -0.718256 0.1633253 
-7.417222 -0.718256 11.93521 
-7.752807 0.08818162 8.132353 
9.442673 -0.7182559 8.472281 
0.5048825 -0.718256 13.20243 
-4.867289 0.06896618 1.796805 
3.145551 -0.718256 15.84136 
15.18933 -0.718256 5.621814 
2.6517 0.1373044 9.666364 
-4.319142 0.008386176 18.10159 
-5.479418 0.08963044 6.978024 
8.536701 -0.4327195 13.34283 
6.261936 -0.01965165 11.48539 
-0.8468018 0.3763006 -4.423118 
3.462089 0.3308506 0.7886385 
-10.02942 0.004669579 8.975015 
-7.86771 -0.6492682 13.93488 
4.887255 0.3864757 -1.507976 
7.612475 -0.6043174 -8.756622 
-0.2922226 -0.718256 8.876339 
-7.445549 0.07538418 5.698403 
-4.789719 0.2291475 -2.100151 
1.262575 0.09436247 14.05838 
-2.243635 0.06136105 0.2488067 
8.344625 0.4405342 4.5623 
7.875197 -0.7182559 -6.157165 
8.714689 0.1585059 12.60706 
3.061865 0.4485709 -4.655293 
11.04767 0.3896208 -0.1636615 
6.13391 -0.2893625 8.269562 
5.527882 -0.718256 4.09398 
-0.8404961 0.128102 9.354431 
-2.847381 -0.718256 15.44351 
-10.78637 -0.04657411 8.805714 
-10.98708 -0.6835696 -7.74576 
-7.927512 -0.718256 -3.533492 
-5.525965 0.1148972 6.412762 
-2.206269 0.1742576 12.98361 
-5.346952 -0.718256 6.732415 
9.981608 -0.718256 11.31331 
6.345441 -0.718256 10.23884 
-10.78098 -0.0009873149 7.60561 
5.411303 0.04844078 9.660116 
-10.07089 0.3404409 -3.059098 
-4.788594 -0.718256 -4.487517 
9.452154 0.4699455 -2.903272 
-5.180367 0.08113466 16.77811 
9.232495 -0.718256 -4.478967 
3.513745 -0.718256 3.825148 
-12.28569 -0.718256 6.210864 
-3.932415 0.2475879 -2.495011 
-8.524296 0.2818411 -2.191026 
0.390159 -0.03943954 0.2880015 
4.763501 -0.718256 -1.178755 
-5.891101 0.09696437 3.113643 
-11.2723 0.3412557 -4.807508 
-7.206626 -0.718256 -7.475876 
0.240305 -0.7182559 -14.03927 
-15.44103 -0.08211074 1.8652 
1.235282 -0.7182559 14.39741 
8.499046 -0.7182559 13.20001 
7.502635 -0.718256 11.43176 
-10.39249 0.2805763 -1.628803 
2.075903 -0.718256 11.87703 
-6.187016 -0.7040595 16.60863 
15.51255 -0.718256 7.063856 
4.807066 -0.718256 -10.02452 
10.37255 -0.718256 4.154269 
2.35753 0.1103151 15.75854 
-11.46659 -0.718256 7.763505 
-5.937423 -0.718256 -6.214575 
11.12526 0.4203508 -0.7358328 
-3.250656 0.03471186 17.87934 
4.484915 -0.718256 -5.177156 
-7.320712 0.08473092 6.332359 
-4.329876 0.08032775 13.04992 
8.336788 -0.718256 1.263604 
16.65712 -0.09786138 5.632176 
-7.581042 -0.718256 3.170314 
7.822649 -0.718256 -3.839479 
-0.06881875 -0.718256 8.638052 
-15.4226 0.2311649 -2.393661 
9.750506 0.0178878 12.57341 
-15.60923 -0.718256 -3.772591 
17.17315 -0.4017834 6.453109 
-3.896224 0.4653099 -11.41253 
-2.335205 0.364337 -5.285468 
8.50137 -0.7182561 7.015507 
3.99875 -0.718256 6.345475 
-4.042658 0.409618 -9.13054 
1.431602 -0.718256 7.093632 
-13.14915 0.3407847 -5.947658 
15.98184 0.1712622 4.559165 
0.5320579 -0.718256 -4.506732 
-6.446414 0.03113614 14.60136 
17.75857 -0.4021327 7.547503 
-3.593169 0.3469684 -5.297771 
14.57593 -0.7039953 2.321295 
-5.35171 -0.718256 -6.936481 
6.571418 0.455779 -3.530248 
-7.198946 0.2778584 -2.421422 
-5.640336 -0.718256 13.8366 
3.140407 0.3935494 -3.227097 
-15.40998 -0.718256 1.525469 
-9.683611 0.07661285 5.685194 
17.28756 -0.718256 7.116325 
-8.302008 0.0281748 10.10443 
-1.566965 -0.7182559 17.02754 
-11.69494 -0.718256 -6.58289 
-9.545297 -0.718256 0.4381976 
-6.495647 -0.718256 -0.06142235 
2.780664 -0.5253031 16.96237 
7.320665 0.4192686 -2.282356 
-12.23871 0.3217456 -4.713674 
10.67154 0.3643583 10.03575 
-16.04681 -0.718256 -0.9163673 
-7.406182 -0.718256 4.571692 
16.84562 -0.5142682 5.932056 
10.09068 0.4681639 -2.591485 
-0.7466329 -0.718256 -13.28337 
1.360056 -0.718256 -6.98138 
-3.629762 -0.718256 9.665027 
-2.064771 -0.718256 -10.72084 
-3.980401 -0.718256 0.7082605 
6.458267 0.5219996 -8.364923 
-14.39141 -0.718256 -3.273328 
-5.933364 0.3849101 -8.1513 
4.921682 0.4310967 -2.993817 
0.7577938 -0.718256 1.274451 
-3.515855 0.07940857 15.59188 
2.197641 0.1053887 16.75312 
-2.441762 0.4859838 -10.53312 
12.46538 0.4403148 9.621895 
7.842862 0.3321252 7.705431 
-2.108627 0.5187412 -12.40158 
-11.22741 -0.718256 -3.661906 
-15.31788 -0.7182559 -0.3066974 
6.979127 -0.718256 -3.731119 
10.22251 0.4271668 6.886247 
-5.541605 0.1164613 3.253743 
-7.27206 0.2260481 -1.318462 
-14.81321 -0.718256 -3.621423 
-10.96124 0.3508849 -4.861822 
3.365297 -0.718256 5.597425 
8.914707 0.4724775 -2.586714 
-9.442076 -0.718256 8.326016 
8.26111 0.4201002 -1.741515 
-5.882891 -0.718256 0.6955681 
1.695773 0.2916678 -0.4996505 
-6.697006 0.3928952 -9.989604 
7.196598 0.088207 13.36106 
9.268036 -0.7182559 10.40784 
5.308187 0.5894796 -10.87503 
5.016381 -0.718256 11.2406 
11.21467 -0.718256 7.115407 
-9.50491 0.3297387 -2.951423 
7.750725 -0.2638828 11.79186 
-12.8385 -0.718256 1.81706 
3.389208 -0.718256 10.83224 
3.005941 0.5012974 -6.760567 
-6.028825 0.06186771 12.28439 
2.184778 -0.718256 -14.03275 
5.449816 -0.718256 6.571134 
9.347731 0.2649939 10.87564 
-1.348653 0.1129913 0.9872522 
9.644071 -0.718256 6.840571 
6.972105 -0.718256 -8.845833 
1.955036 0.498987 -8.010775 
-3.037044 0.1328206 6.340868 
7.121298 -0.718256 12.94065 
-1.440239 0.4198887 -7.669209 
-15.25165 -0.718256 -4.608885 
-7.028023 0.3840952 -6.19327 
-9.015668 0.376895 -5.965039 
2.751242 -0.718256 8.550612 
10.68069 0.3249018 11.9584 
-7.598176 0.05818353 2.24477 
-5.165854 0.098108 1.077807 
-9.210938 -0.718256 -0.1450086 
1.293474 0.1159818 9.665275 
-0.9222743 -0.7182561 12.37756 
1.036306 -0.718256 3.151156 
1.072481 0.4763584 -7.930509 
-6.966251 -0.718256 -8.435935 
-0.9558945 0.3756275 -5.032299 
5.891422 0.3742891 1.450038 
3.384735 -0.718256 -14.52166 
-4.994971 0.06221183 16.16034 
-5.532743 -0.718256 -7.31686 
-11.22639 0.001031601 5.884486 
-13.2823 0.1912115 -0.191964 
4.185846 0.374014 0.2499585 
-2.489399 -0.718256 0.5589056 
-5.34244 -0.02671578 -0.4049454 
-3.46628 -0.718256 10.26061 
-4.914296 -0.718256 4.517145 
5.488315 0.3636211 3.351111 
-8.557636 -0.718256 8.519358 
-6.963731 -0.718256 7.282986 
7.833545 -0.718256 -5.694701 
-7.243413 -0.718256 -5.637887 
3.005643 0.1275394 16.4213 
-10.75108 -0.718256 2.341998 
-7.416396 -0.718256 3.020434 
-13.42747 -0.7182561 -1.560647 
-14.85024 0.1889851 0.07705286 
-7.890405 0.008129644 11.50153 
-0.8631521 0.06960955 16.9761 
-1.04948 -0.3315883 -1.031423 
3.214968 0.3927221 -3.035196 
1.308906 -0.718256 -2.793735 
-10.37578 -0.7182559 -5.936778 
-2.724173 -0.5038162 -1.546127 
-7.973068 0.2209301 -1.358979 
4.189758 0.09801085 7.97775 
-12.70561 -0.718256 3.155735 
10.70259 0.4057384 0.5408474 
-1.046926 0.5150037 -10.76988 
-3.682976 -0.7182561 20.11505 
-2.239327 0.1178536 10.21981 
-16.54148 0.2411113 -3.16035 
11.23191 0.3952924 9.889359 
0.4838752 0.5346763 -13.34533 
7.194739 -0.1962397 12.36624 
-13.85024 0.3023128 -4.57103 
-6.973716 0.07497592 9.230007 
-5.884761 -0.718256 7.311576 
-13.1969 -0.718256 3.357745 
-12.25217 -0.718256 -3.2012 
-4.141021 -0.718256 8.154913 
2.273857 -0.07143143 4.03186 
4.70519 -0.718256 -9.336779 
6.868705 0.3850201 -0.146401 
7.26239 0.416219 -1.959288 
0.997255 0.4736652 -6.378685 
-4.322371 -0.214468 19.55725 
-8.5919 -0.03180112 12.25031 
-1.938633 -0.718256 -11.21 
-3.212358 -0.718256 15.65674 
-3.172802 0.07558545 14.4699 
4.655459 0.07240337 7.190133 
-11.63141 -0.718256 -1.235155 
12.01592 0.3812473 10.64358 
3.802182 -0.718256 -2.705929 
-11.87842 -0.718256 2.228671 
-17.85263 -0.5408642 -3.43017 
-5.781483 -0.718256 -6.063212 
3.457812 0.0874332 7.819481 
5.431079 0.3892772 -0.3627011 
2.642227 0.1219503 11.65275 
2.69682 -0.718256 12.27472 
-1.990294 0.2706692 -13.39789 
-3.848353 -0.718256 17.65364 
15.38998 -0.7182561 7.81748 
-1.855246 -0.718256 -12.30503 
2.293674 -0.718256 8.005629 
5.727726 -0.718256 -2.181067 
7.515948 -0.718256 -7.060438 
-10.59117 -0.5449172 -7.994619 
-7.648861 -0.718256 13.1828 
1.427428 0.5576209 -13.51629 
4.388369 -0.3389202 15.94778 
-1.118252 0.5567278 -13.15401 
-14.59513 0.1371537 2.318397 
5.94944 -0.718256 5.137402 
-0.6666594 -0.718256 -9.271873 
-2.731674 -0.7182559 -6.288694 
-6.013803 -0.718256 8.543823 
2.392538 0.0981552 7.333087 
9.188043 -0.718256 4.681093 
-6.51188 -0.718256 -6.224908 
-10.27258 -0.7182559 -4.893428 
-2.621218 -0.718256 -9.295353 
-1.38215 -0.718256 5.785501 
-1.686631 0.2440834 -2.831099 
-3.611006 0.1107127 8.354825 
0.4844378 0.1251496 7.152513 
-0.5001239 -0.718256 3.311356 
-7.392048 -0.718256 5.918847 
4.494509 0.3975472 -1.159607 
-5.562826 -0.718256 -8.366634 
0.2516557 0.1310948 3.939258 
-7.08812 -0.718256 3.751425 
1.348315 0.1442261 8.727942 
0.6979425 0.5401303 -14.53093 
2.541369 -0.718256 -1.287706 
5.661694 0.5585611 -10.39166 
-14.18336 -0.7182559 -3.635934 
9.296907 0.2791635 10.81328 
-5.427221 -0.718256 -5.40262 
-6.817879 0.03403768 13.10956 
1.813978 0.1039172 4.766504 
-6.137661 -0.718256 12.23685 
-12.64697 0.1986065 -0.2477153 
-7.110126 -0.5603867 15.14009 
-13.97975 -0.718256 1.405116 
7.219903 -0.7182561 8.901703 
-7.952693 -0.718256 7.984928 
10.46081 0.4850312 5.017607 
3.704185 -0.718256 15.21457 
-2.056452 -0.718256 -2.096849 
11.04948 -0.718256 3.727204 
-14.05533 -0.718256 -4.690377 
-4.494721 0.1251616 9.292549 
-11.01739 0.3664982 -5.662329 
3.454494 0.4755535 -5.840546 
-5.407797 -0.718256 -9.381721 
-4.31981 0.1063939 10.87074 
-1.189753 -0.470546 -1.692794 
-4.434613 -0.05333478 19.0938 
-2.325265 0.1195799 6.868436 
-7.339723 0.08929668 2.441463 
-12.72939 -0.718256 -1.528437 
-13.69909 0.1934032 -0.06009519 
-0.5907198 -0.718256 2.012973 
10.97944 -0.718256 7.865959 
-1.909215 0.1280642 1.138089 
-5.468795 -0.718256 -4.484602 
2.89473 0.5244265 -14.69088 
-4.989995 -0.5025425 -0.1778607 
12.55261 0.4670317 8.211938 
-18.44443 -0.1833944 -2.891259 
-2.547594 0.4136003 -7.098235 
1.265657 0.05098618 2.655587 
-16.01874 -0.718256 -1.679443 
5.974121 0.4969544 -6.067392 
-1.876169 -0.718256 10.23789 
0.4008835 0.4792608 -9.074694 
-15.74042 -0.718256 0.8562171 
-7.173619 -0.718256 9.676875 
-7.766403 -0.718256 -8.215668 
-7.835372 0.07300059 5.542567 
9.341305 -0.718256 9.644665 
2.910947 -0.718256 -10.95439 
7.204687 0.3907385 -0.3082074 
11.70468 0.4518089 7.856492 
1.19535 0.4392113 -4.901546 
3.867855 -0.718256 13.92278 
15.05663 -0.718256 7.97439 
-14.84108 -0.718256 -2.481382 
12.42602 -0.3195065 10.89947 
-8.255127 0.3868523 -8.996925 
0.1151646 -0.718256 -14.66992 
2.757561 0.3341648 -1.23739 
-8.383624 -0.718256 7.461728 
-2.03222 -0.718256 8.491093 
2.109851 0.121907 6.005985 
-14.25385 -0.718256 3.675798 
5.076982 0.01578358 9.196045 
10.66232 0.4992777 -2.871562 
-1.212422 0.5241832 -11.43705 
2.399448 0.1430144 9.75149 
15.20513 -0.7182561 5.513509 
-0.5425033 0.1733123 3.224985 
-9.593543 0.02676823 8.514784 
1.462094 -0.718256 14.04428 
9.135928 0.4429351 4.530591 
-8.094929 0.3931645 -9.200156 
2.226778 -0.718256 2.139688 
-6.091675 0.03734235 15.96752 
-3.688185 -0.718256 -3.375303 
7.944866 -0.718256 -6.347735 
-1.375116 -0.7182559 -8.950974 
9.034158 0.4777384 -3.45567 
3.129387 -0.718256 -5.397796 
-8.990818 -0.3973027 12.14141 
-6.748466 -0.2217573 1.088336 
1.962463 -0.718256 -7.659039 
-5.05752 0.04564635 13.84575 
8.133606 0.002207893 13.01115 
-7.977472 -0.01241952 12.34853 
6.37656 -0.3368259 9.817401 
-5.173403 -0.718256 -5.41401 
-12.58757 -0.718256 6.129817 
-5.995306 -0.718256 7.073845 
-6.586615 0.3744561 -7.756957 
2.894574 -0.718256 5.870273 
-1.080088 -0.718256 0.08077335 
-2.710658 0.09444913 9.663065 
-0.04983349 0.1199669 1.836557 
-12.9289 -0.718256 1.735859 
9.592896 -0.2489745 12.67631 
3.454968 0.08207999 15.14168 
11.97317 0.4539946 -1.164552 
-3.42881 0.08031201 17.05028 
11.9452 0.2484723 -1.858731 
3.094274 -0.718256 -2.32255 
1.762607 0.2770494 2.383129 
10.87572 -0.718256 10.7181 
9.197996 0.3249341 8.655018 
-3.7833 -0.718256 6.898325 
6.160599 -0.718256 -0.5700722 
-6.204885 0.00477047 16.27497 
4.40407 -0.718256 -5.496754 
9.818846 -0.718256 11.84072 
4.923809 -0.718256 -10.69003 
4.18121 -0.718256 10.54391 
-6.85332 -0.4646158 0.8541645 
3.161683 -0.718256 -0.5722456 
-9.353055 0.03441736 0.9576097 
-1.079935 0.1493894 12.88585 
11.786 0.5120571 4.971755 
-6.756202 0.1023082 8.16344 
9.677562 0.4963964 2.898841 
3.7163 0.1298324 9.487794 
9.339411 -0.718256 -1.248436 
13.59986 0.4814656 6.279963 
10.47709 0.4299437 -1.005349 
10.67907 -0.718256 -0.9203706 
-2.717445 -0.718256 5.083742 
4.066889 -0.718256 -3.21334 
-5.691833 -0.718256 14.21911 
-7.248133 0.09756829 4.266597 
11.97593 0.437622 -0.1891848 
4.142074 0.1239519 8.08616 
-5.889052 0.3199984 -3.293751 
-1.051191 0.1265624 13.24632 
3.813501 0.4522549 -5.258245 
0.8775015 -0.7182561 -9.819007 
-0.03642249 -0.718256 0.4460497 
12.45814 0.4825794 6.277337 
10.16024 0.4155357 -0.8016864 
-9.879316 -0.718256 -0.2888455 
-5.228986 -0.007032145 17.71363 
4.836763 0.2391289 5.562434 
1.473668 -0.7182559 16.37034 
-7.222033 0.376765 -5.631963 
6.73078 -0.718256 -7.616135 
-6.460211 0.05671265 9.532092 
-3.793517 -0.718256 -5.854261 
8.506199 -0.718256 3.020809 
-7.031863 -0.718256 -5.730882 
-5.219715 -0.718256 11.6105 
-6.234371 -0.718256 1.415585 
3.210125 -0.718256 9.365005 
3.980542 0.1121614 15.30494 
-16.82137 -0.718256 -0.8294816 
4.309966 -0.718256 -1.016521 
5.679053 -0.718256 2.641406 
16.1974 -0.7182559 7.562029 
4.752358 0.3484328 0.7504393 
-5.541968 -0.718256 5.253917 
-3.116764 -0.718256 -10.66925 
-2.518251 0.04879324 18.69419 
6.411234 -0.718256 -10.39622 
7.837812 -0.718256 3.175622 
-11.9121 -0.05267698 -7.164301 
-12.4619 0.3384602 -6.037091 
9.191785 0.3215778 8.909275 
0.9823928 0.2820299 -2.665388 
7.331794 0.2968699 7.267231 
2.869485 0.4747398 -6.577384 
-7.824512 0.3982838 -9.161253 
15.03892 0.5270332 5.98314 
-0.7164891 -0.718256 9.452412 
-2.359343 0.1097765 11.2298 
6.243246 -0.718256 9.698167 
5.310209 -0.718256 9.761416 
11.47238 0.3556968 11.40726 
6.062297 0.4033054 -1.656445 
5.060242 -0.718256 -6.664742 
2.949928 -0.4319091 -16.17411 
-9.186339 0.3748893 -6.086051 
-9.566537 0.07704897 6.563968 
2.599829 -0.718256 -6.902177 
-4.84502 -0.718256 -9.482119 
-0.3477958 0.1200362 11.58724 
-5.846959 -0.718256 16.20009 
0.7131227 -0.7182561 -7.317356 
8.834028 -0.718256 0.9897828 
14.81018 -0.3828726 2.693956 
-15.67704 0.1946416 -0.3003832 
11.0089 0.4910424 1.665225 
-3.243318 0.1139749 3.393322 
9.541425 -0.718256 3.410409 
8.325926 0.4048785 6.315557 
6.072049 -0.718256 7.582428 
-3.818872 -0.718256 15.4013 
1.819598 0.4895222 -6.9421 
9.036669 0.4387327 4.676447 
14.17867 0.4541452 9.656215 
-5.361176 0.09707439 6.952394 
-14.96298 -0.718256 0.8305147 
3.584557 0.3769358 -1.132038 
-1.108166 -0.7182561 16.18119 
-3.723966 -0.718256 0.8477583 
8.534818 -0.718256 1.223913 
-7.035665 -0.718256 13.50777 
-7.304983 0.09446361 7.662339 
0.5709413 0.3430301 -3.138463 
8.544164 0.1295068 11.92129 
5.152619 -0.718256 13.17146 
-5.903369 0.1089298 6.374371 
3.535443 -0.718256 6.531712 
2.494159 -0.718256 10.16129 
3.875609 0.1051945 15.8465 
-5.543365 -0.718256 5.634081 
7.491288 -0.718256 -0.3865771 
-13.32663 0.164799 0.3947218 
6.856987 0.3768545 1.805976 
-4.342199 0.1327189 4.019496 
0.8719169 0.147314 9.551391 
-9.401871 -0.718256 7.951074 
-10.29251 -0.002438792 8.314067 
-10.26942 0.3724909 -6.145564 
2.150426 -0.718256 -12.52604 
-1.734478 -0.718256 -6.447452 
0.8672025 -0.718256 7.27553 
-0.8980093 -0.718256 5.251161 
-2.745699 0.3302907 -4.696898 
1.058468 0.2913168 -2.289955 
-0.8095694 0.5415434 -13.58316 
-6.026847 0.1411057 5.346531 
-14.68354 -0.718256 -4.314407 
-6.775437 0.3875559 -8.199092 
-13.95151 -0.718256 -4.712844 
-1.932023 -0.1648944 -1.958351 
8.87301 0.2941375 9.015514 
-11.27299 -0.718256 7.816269 
-3.621829 -0.718256 12.35693 
-6.258265 -0.7182559 -5.999939 
14.13349 -0.7182559 4.83827 
-3.921995 -0.718256 -4.877193 
-4.852186 -0.718256 9.342661 
2.927768 -0.718256 11.12154 
0.8699768 -0.718256 -7.980395 
-5.456594 0.09274791 12.70459 
-3.188435 -0.7182561 -8.516176 
11.37039 0.4877686 5.228635 
13.27157 -0.7182559 0.4077911 
15.2809 -0.718256 7.132635 
-16.934 -0.718256 -2.546629 
15.60487 -0.718256 7.066941 
11.35973 0.4528977 -1.308415 
-3.766844 -0.718256 -8.34964 
-11.32713 -0.718256 -4.12436 
5.600289 -0.7182561 12.35003 
7.502224 0.3883764 3.128677 
-2.84285 -0.718256 10.99588 
-0.5241634 -0.718256 -11.68289 
-1.902586 0.1433936 12.87258 
3.164335 0.09153221 14.7565 
9.721731 -0.718256 9.805504 
-8.752651 0.08813935 0.3796657 
1.215719 0.08652867 14.62885 
11.72551 -0.718256 0.4324827 
-1.528273 -0.718256 7.776502 
3.795752 -0.7182561 11.04564 
2.857303 0.4156115 -3.455781 
4.702831 0.3836216 -0.2074524 
5.078908 0.5430402 -8.810372 
4.406558 0.5292172 -9.196136 
0.03098985 -0.3044456 -1.908823 
-5.039612 0.07440966 11.86786 
-8.250793 0.01177443 2.224058 
3.774359 -0.718256 -2.547912 
-7.556997 0.08129136 5.58852 
-10.85492 0.3597474 -6.055782 
-3.160354 0.1334084 3.598411 
-1.248492 -0.718256 1.187873 
0.2327345 -0.7182561 -13.60509 
0.3475891 -0.718256 10.82423 
-5.751704 -0.718256 12.6376 
11.2633 0.3992893 9.772622 
-10.13797 -0.002571409 7.746967 
1.544961 -0.4577686 -15.62322 
-16.4341 -0.718256 -4.077767 
-3.371196 -0.718256 18.77454 
3.699646 -0.299661 -14.98141 
6.363463 -0.3588504 10.35636 
7.032894 -0.718256 10.79431 
6.33715 0.5518288 -7.668657 
3.815846 0.489598 -6.510147 
-2.952604 0.1196074 8.632202 
-9.649245 -0.718256 -3.43088 
-8.224009 0.1023078 0.1266828 
-5.955898 -0.718256 8.505939 
5.330629 -0.718256 -4.696306 
7.551449 0.3998029 1.960638 
5.052692 -0.718256 -6.761698 
-6.12333 -0.718256 -2.426313 
-16.54585 0.2492745 -4.090764 
-4.82147 -0.07632989 -0.5674748 
-1.352476 -0.718256 -6.671234 
-0.3214908 0.4171598 -5.320354 
-11.82655 -0.718256 5.670525 
13.58006 0.5502593 3.596412 
4.587149 -0.718256 -0.1766119 
4.150045 -0.718256 7.801892 
-3.698516 -0.718256 14.45466 
-10.82825 0.3533329 -5.75695 
-1.318668 0.09445646 4.261886 
2.055556 -0.718256 -15.43779 
-2.16082 0.08301947 2.270498 
-14.76787 0.2486603 -2.121658 
-9.013796 0.3817354 -6.650275 
15.94894 -0.7182559 8.566078 
4.821373 -0.718256 -0.7514563 
9.038479 -0.718256 11.41746 
4.795812 -0.718256 -7.948894 
-6.930764 0.08207677 6.485762 
-2.542921 0.1053645 12.39406 
14.50239 0.487992 7.903993 
3.844911 0.2525448 5.440827 
5.060227 0.5130508 -8.072601 
-3.801596 0.3175324 -3.318721 
2.402001 0.1222068 10.42566 
-7.940333 0.006382636 11.70359 
-14.70283 -0.718256 1.311362 
6.827584 0.3943217 5.592428 
-9.631842 -0.718256 -1.723938 
-12.53302 -0.6518124 6.512998 
-6.897049 -0.718256 13.69551 
-10.48337 -0.718256 5.629866 
-16.44281 -0.718256 -1.068969 
6.752772 -0.718256 10.95662 
15.62618 -0.718256 5.774167 
13.2757 -0.7182561 6.935248 
-0.2815253 0.1368684 5.839988 
3.880964 -0.718256 -10.09163 
8.454075 -0.718256 10.15203 
-9.318933 -0.718256 0.6318526 
6.339248 -0.718256 7.280931 
8.115994 0.4773219 -3.913077 
-1.764662 0.3256594 -4.522619 
2.046058 0.1235455 8.41601 
-1.842057 0.5205836 -12.75277 
-6.184342 -0.718256 14.87044 
-1.496163 -0.05107839 19.64852 
-3.271961 -0.718256 7.30237 
1.666636 -0.718256 15.16369 
-10.69124 0.3570532 -4.11278 
-3.015082 0.0230695 19.40718 
-1.333631 0.09060942 1.526114 
2.989515 -0.718256 -2.390374 
7.809873 -0.718256 -3.444899 
-8.38168 0.1003516 4.697848 
-11.46363 0.04788944 1.621187 
8.729146 -0.718256 2.071092 
-0.2000644 0.1352345 3.523401 
-12.00562 -0.03286985 5.920757 
1.919384 -0.718256 -10.51093 
-8.216619 0.08415842 3.932047 
7.886283 -0.718256 -6.230894 
-0.4459831 0.5525194 -13.54093 
4.616467 -0.7182561 13.54482 
-1.874329 -0.718256 -13.28814 
15.27387 0.5498184 4.076777 
-9.954781 0.02860864 3.815046 
-14.79688 -0.4053524 2.909179 
-10.65617 0.3396727 -3.274123 
-1.446298 0.0999003 15.84656 
11.92005 -0.718256 9.814634 
-2.224404 0.1121077 14.4481 
3.570948 -0.718256 -4.666546 
9.341406 -0.718256 10.34739 
-1.566765 -0.718256 14.3536 
15.96545 -0.718256 7.42306 
-4.332168 -0.718256 10.24532 
-4.737466 -0.718256 -4.961212 
13.22314 -0.7182559 4.630072 
-7.024536 0.09112233 9.001543 
-15.30296 0.2281989 -1.927608 
9.051516 -0.2712805 -6.467306 
-17.22891 -0.7182559 -3.050275 
5.159038 -0.718256 -1.051404 
-8.945607 -0.718256 0.77355 
-4.204302 -0.718256 14.49797 
-7.91001 0.1030223 7.051014 
-1.324001 -0.718256 14.36143 
5.7611 -0.718256 7.031446 
-12.62664 -0.718256 -5.581461 
6.514685 0.1005124 13.39039 
-8.448634 -0.718256 5.182446 
-3.942196 0.1435411 3.268226 
10.39268 0.3368545 11.72626 
-4.068981 -0.03457967 -0.1493807 
0.7532176 0.1470122 9.356773 
10.43957 -0.718256 4.795472 
-4.997786 -0.4447734 -0.04722114 
4.490054 -0.254614 7.763005 
-9.137399 -0.718256 11.20921 
1.521797 -0.718256 14.82605 
-5.28563 -0.1640066 -11.32961 
10.10072 -0.08398465 12.36107 
1.294737 -0.718256 -14.3783 
-1.135158 0.3626122 -4.975559 
1.955069 -0.718256 -9.848643 
13.27928 0.4518316 9.298754 
-7.039102 -0.718256 12.91224 
-1.811829 -0.718256 -9.133949 
-7.324765 -0.01463135 13.39899 
-2.637411 0.1450144 3.530713 
-6.460813 -0.718256 5.202599 
7.875087 0.4033067 3.610772 
0.02036233 0.4643742 -8.143538 
-9.847565 -0.718256 8.33027 
-3.645795 -0.718256 -2.857855 
0.4161476 0.1863392 2.126893 
8.684515 -0.718256 5.938017 
6.925812 -0.718256 12.90042 
16.58517 -0.1317796 5.517719 
7.522971 -0.718256 -1.041449 
5.166895 0.09926386 11.59838 
-0.4190581 -0.718256 7.215124 
14.72038 0.5027243 7.575853 
-8.651909 -0.6245494 -9.213613 
0.7317384 0.3414308 -15.10556 
-8.926501 -0.718256 3.41544 
-4.859764 -0.718256 13.70405 
2.604959 0.4935067 -9.317123 
0.4989963 -0.718256 -6.929504 
4.307027 -0.718256 -0.1063604 
3.834533 0.4192602 -2.821006 
-3.02724 0.4597079 -9.925714 
8.571584 -0.718256 6.668288 
4.449868 -0.718256 -3.756286 
-4.040019 0.008223552 18.83264 
-4.972933 0.4390571 -11.19676 
-3.527269 0.001051351 20.40972 
-7.669108 -0.718256 5.356956 
-3.501928 -0.718256 18.90861 
3.061912 -0.03813469 5.766474 
-1.488048 -0.718256 5.842218 
-4.410954 -0.718256 -6.515489 
17.05507 -0.2401412 6.265262 
-5.450995 -0.7182561 -11.19612 
-16.62249 0.1723474 -0.02003081 
-15.98629 -0.7182561 -3.856028 
5.588376 -0.718256 11.51187 
-7.658986 -0.718256 12.38895 
4.560156 -0.718256 11.55356 
-3.291487 -0.718256 -5.935275 
-0.1827462 -0.718256 11.25526 
4.966468 0.4490329 -4.550336 
5.952927 0.08275509 11.25981 
8.257039 -0.718256 2.015208 
7.338438 -0.3250649 9.446781 
-13.03643 -0.718256 1.82636 
-6.681634 -0.718256 0.4791932 
-3.853841 -0.7182559 -4.694686 
2.503211 -0.718256 -15.05461 
6.469501 0.468842 -4.471924 
-16.10065 0.1031995 0.8344154 
-0.5061647 0.2152397 -2.619147 
5.31959 -0.1161169 15.35711 
-7.438571 -0.03726349 13.4421 
-8.149392 0.3860842 -6.172408 
10.65215 0.3573169 11.17198 
-6.997472 -0.7182561 -8.213109 
1.271284 -0.718256 -12.27728 
-2.678347 -0.718256 8.915831 
9.21224 -0.07132473 12.91274 
-1.666365 0.1188209 11.70522 
-3.135827 -0.7182559 -3.151723 
5.675287 0.3362869 5.274956 
3.879939 0.1176454 13.63774 
-3.792245 0.1765309 -1.72535 
-3.653924 -0.718256 11.71146 
-2.648649 -0.718256 8.053352 
-11.82935 -0.7182561 -5.035119 
9.901726 -0.718256 2.186334 
-8.785613 -0.7182561 -5.905788 
3.03616 -0.718256 11.20432 
14.61477 -0.7182561 4.112119 
-5.289174 -0.7182561 -4.040309 
-12.03177 -0.718256 -2.046303 
-6.386293 -0.718256 -6.049105 
-9.209244 0.05914571 6.66123 
-2.301064 0.5208586 -11.98505 
-8.087887 0.0690363 8.355314 
9.948334 -0.7182561 1.180624 
2.962629 -0.718256 15.49852 
-7.933312 -0.718256 1.074962 
5.968706 -0.718256 -2.255569 
-8.011806 -0.718256 -7.434903 
-3.815615 0.1171105 4.673581 
-1.990252 -0.718256 -9.178158 
